0.002928983253663666 -0.05608503739457108 0.046686206729724525
0.004948544908418281 -0.05004863425820806 0.05401615705302456
0.004355800805145898 -0.05062119332628131 0.0532099663166469
0.005415736174568301 -0.05049753447833604 0.05361357115017425
0.0051306160907834 -0.05042773299318175 0.053623848581248246
0.005451811563978353 -0.049897552570342486 0.0543143022909106
0.005297585602927664 -0.0509331067525509 0.0530822117953037
0.004608505069414482 -0.05065287531965938 0.053235662513416195
-0.009195661625869428 -0.05429683025542653 0.047851643238964986
-0.009218841721247803 -0.054620531042073185 0.047460230197026415
-0.009305451460672713 -0.054442566492172495 0.04764337987323778
-0.0011355933926248465 -0.05457021561415301 0.04819550388298867
-0.0004746144827017303 -0.05450997322677588 0.04804983951500026
-0.006501171278402145 -0.05507861208668872 0.04733121335947216
-0.00691498394886139 -0.055090135319154965 0.047294013838630966
-0.006854082677212983 -0.055099778191066165 0.047288529313176286
-0.007142432568952911 -0.055264341579956265 0.047111313968025474
0.0010949564973623087 -0.042800020888473254 0.05994003560578001
0.001007325703341323 -0.04332155160932105 0.0594823349488867
0.0016218496940755096 -0.05373592172730436 0.049314355455024494
0.0008986158688526849 -0.05418299178197991 0.048629204812457826
0.0010282854674635304 -0.0540109782845746 0.04884154647751473
-0.010267220006772612 -0.049553169905314456 0.05377547119623971
-0.011125848433205769 -0.0497002510178977 0.05359105870009433
-0.010320346424261852 -0.049357715078820835 0.054046398807661725
-0.00901480363016282 -0.04884413047886035 0.05474845927002618
-0.007842306575305356 -0.04944783999678454 0.05382249954763381
-0.00896364395477946 -0.049103866263043 0.05440935220250588
-0.002484137494210302 -0.04490998693140548 0.05812602227420455
-0.008056761041107828 -0.05145112319487712 0.051856061112203054
-0.008894745637696825 -0.05149304395065298 0.05165656753209059
-0.008387413018090676 -0.050912338434695545 0.05241344515648193
-0.0017175923999209768 -0.050698732315292074 0.05336790109886146
0.002304830878965975 -0.053550804870550785 0.04962239932004951
0.0027772238327298704 -0.05377292722085059 0.04948872818199737
0.0029750096539899306 -0.053291288283080836 0.04997582271502049
0.0026521320925620793 -0.05305053050748075 0.05015123723883351
-0.012404177337629552 -0.04674534499277304 0.05615422292248945
-0.01296122266438964 -0.04598323666996246 0.05640039421625409
-0.01239363921256537 -0.047009195484840484 0.05597088273356464
-0.01242095615006127 -0.047171784044317905 0.05583971079497076
0.004966459293669706 -0.04870343202621129 0.055314425844126824
0.005322081445177871 -0.0494928501576791 0.054715663279951185
0.004546668952378857 -0.049217594689781624 0.05470789131371312
0.004586868962771185 -0.04889774097044837 0.05501175929660489
0.0011277126449784013 -0.05469761906658172 0.04814007153751111
0.0010253146603438111 -0.05456470346493793 0.048249668268036644
0.0005698538721619532 -0.054428154543210934 0.04819890441164837
0.0012436969723929564 -0.05573787666502053 0.04613678413164264
0.0017689457209713157 -0.05582848438763453 0.045907399361758965
0.005688825207625521 -0.052500303512585555 0.05147530813808658
0.00612840823340113 -0.05133066335992619 0.052840619174708274
0.005522407585729597 -0.05247612902568059 0.05147857777734214
-0.009548723697102073 -0.049067441262983943 0.05447372020705421
-0.009288625543443774 -0.04904663343028526 0.054504511807439496
-0.004218696614290964 -0.05227297705878143 0.05088802814812106
0.002206227357681502 -0.05424072931109744 0.048948139328915063
0.003187847473693243 -0.05393480297692318 0.04940072137094286
0.002518865801633482 -0.054128813099946625 0.049106145269721416
0.003764024598941859 -0.054186431129676776 0.04920410329298702
0.003675469341097615 -0.053962235007739855 0.04944290886910397
0.0035385022203632856 -0.05398489315734502 0.049389308838354504
-0.011385388234936011 -0.04735826101775767 0.05602568741782047
-0.010555901661886925 -0.04851331864634783 0.05504442925702728
-0.010392951046237005 -0.04846340925057248 0.05516450074286306
-0.0103269114781939 -0.04836664547477497 0.055299658352552614
-0.010424298029622671 -0.04785198883317146 0.055843231541124846
-0.010702114917304387 -0.04769645682335836 0.0559104531600961
-0.001473098701243457 -0.04788099111607869 0.055217863815445384
-0.0010365770395635897 -0.04777167454200631 0.055188534413503285
-0.00018425054754877672 -0.047869856521336296 0.05481025542148593
-0.0009506066282805353 -0.04781825432762215 0.055112597916186196
-0.0017096753346867765 -0.048359703456787785 0.05480165905418561
-0.001714055563755603 -0.04813706981089148 0.055032421857358155
0.004067841497356506 -0.05635346955810626 0.045642954733212934
0.003738001478783124 -0.0563497987283933 0.04578268472981615
0.003509657931040913 -0.05635816181789194 0.04581271130056056
-0.01184600748738306 -0.048134462821948124 0.05128584775092833
0.003609189401021051 -0.053376079248759735 0.050148872598968657
0.004631005983277602 -0.05289130962499749 0.05090488264786257
0.003858319919933858 -0.052754582033013434 0.050970916511098634
-0.003127503647238187 -0.05407327123378637 0.04914361972527787
-0.002989092004740994 -0.05434533686935074 0.04880222609101459
-0.0033201871514200636 -0.05426861400454909 0.048860070596188035
0.004746294668635933 -0.05197923854536228 0.05182731930666165
0.005612603030003052 -0.05143737432549404 0.05260620117963991
0.004711259176187386 -0.051873531796391176 0.05193075321043827
0.005642249898751371 -0.05122766906768454 0.052834971242853766
0.004947813208786758 -0.05134911699264883 0.0525414588280812
0.004376257293591344 -0.05131101639450381 0.05244585254710301
0.005670741170328687 -0.05207481930341145 0.05194605316957259
0.0028161736223184506 -0.05484349142794201 0.04837366604700723
0.002446488778317776 -0.0546309862111234 0.04858368283548713
0.003070100024425566 -0.054546312843036515 0.0487226874967384
0.002590948071179224 -0.054777177921110795 0.04843131894516278
0.0028833227491981968 -0.054230931383861425 0.04906034506726826
-0.013194486237958415 -0.047689300289063256 0.05505998952802531
-0.013264011050235131 -0.04724942062898538 0.055366798231318
-0.013686654370521637 -0.04722906100790851 0.05514971378043564
-0.011644971177615517 -0.04905458057279685 0.0486292765509595
0.002735809004284157 -0.05545603295439737 0.04758392163231547
0.0025021287331607406 -0.05512929683410009 0.04799340763475204
0.002699334111875098 -0.055073435775348185 0.048094551816457096
-0.009124034650979941 -0.05366178966730169 0.04873751597153894
-0.010154723536567423 -0.05304124188536304 0.04926515056155568
-0.008797503999091981 -0.05362643838370912 0.04896411959967647
0.0023945185486816544 -0.048367719930282646 0.054758410781491164
0.0023463457159250472 -0.04843917688765002 0.054649345058239096
0.003021131848241514 -0.04787884970004179 0.055649777706161044
0.003383744712227304 -0.04897465896039283 0.05451558696407507
0.0023569060966746585 -0.0484982873626991 0.054583764971200224
-0.010978008611933434 -0.05434462519380652 0.04565570736820275
-0.010031707203082793 -0.05476131681846868 0.045426256289258095
-0.011610497579094003 -0.05394941415823792 0.04783684656902304
-0.012653487164067783 -0.04181928175233771 0.06019312065435353
-0.012639457742562326 -0.04109101240382949 0.06081317675640643
-0.012750676701373486 -0.040726010410991144 0.06111656882367435
-0.012023046864026252 -0.05415681948317934 0.046662444582385734
-0.004341011040122383 -0.05172539627580694 0.05130845425809231
-0.004276234583945375 -0.05205023813402402 0.05107839848247853
-0.005328043082820673 -0.04698564942370188 0.055290301279412354
-0.005380276920865311 -0.04726722116264822 0.05509595898842612
-0.005943213207419165 -0.044836949258838465 0.057956846807591215
-0.0009090845625366731 -0.05394199060735852 0.04889375643817233
-0.0012770164112893409 -0.05418524004728289 0.04880410022044071
-0.0022815542046102895 -0.042996439392375796 0.05998837344969477
-0.002203633238028746 -0.043268294288312206 0.059775118814200445
-0.003684025711498137 -0.05136675501545654 0.051896865950738995
-0.0034614126650143835 -0.05182031886028542 0.05157008756043554
-0.009116301425152615 -0.04596683429701396 0.058263903011335896
-0.00858147742913417 -0.04662358570842334 0.057266191556765114
-0.008969889208547934 -0.04545860642813675 0.058912135087161484
-0.008870405619036409 -0.04673332508985395 0.05718309950154023
-0.0056023254046104485 -0.04916338803630823 0.0533206463860171
-0.0049693133487961234 -0.0488503241776124 0.05372200716649039
-0.013947527327226553 -0.04796073306216009 0.0536258684068799
-0.01386225286294302 -0.04742981174384722 0.05398239647238944
-0.003940042606662043 -0.05036824067048596 0.05233053019468246
-0.0038531647882229666 -0.0510196997453371 0.05200380238814569
0.003987169464742591 -0.055924116700571805 0.04708379436353835
0.0025734829573234573 -0.0557146668433776 0.04720736081469942
0.003030325832289216 -0.05572803083237833 0.04724330945772594
0.002509827766396569 -0.05579058114734855 0.04709370783131776
0.0030155006670306607 -0.04412688519529998 0.059408924534000485
0.003222708409285401 -0.04435823733476801 0.059239756927455575
0.0035636405094286866 -0.04406794210048606 0.05960812127662691
-0.013067935997144694 -0.04418728091626582 0.05779365149828131
-0.004476819089641905 -0.0529299862200832 0.05014016238679573
-0.004220056940390902 -0.053181366635275354 0.049960696952298066
-0.005304532274633935 -0.05307607358604424 0.049709072848536366
0.0008182964894153067 -0.055049577503236954 0.04750878540247919
0.001231832170553769 -0.055049864388972955 0.04770480621319381
0.0014790463402112688 -0.05517058768596514 0.04765048970512593
-0.006357047896224342 -0.04430111173203249 0.05872104038326524
-0.007192307079539936 -0.04400270183237552 0.05922352804150009
-0.01238785324429616 -0.045011609299964055 0.05748960307788667
-0.012912248267845174 -0.04509999391001368 0.05706598818097747
-0.012095742910300626 -0.04625877289331559 0.05668887095628262
-0.012304925003538497 -0.04572838042940562 0.05697222879965441
0.0021354392376936515 -0.05283261480699682 0.05027297743676648
0.0017443210141545062 -0.05305943085850146 0.04996770558145505
-0.011591241156340108 -0.04738124818191841 0.051494996463934184
0.0010225547831612552 -0.05542563613016803 0.047123120088322645
0.0016959885861985852 -0.055652952809947455 0.047095502034732874
0.0011658829425713626 -0.05557653296931887 0.04699583878146504
-0.002582334370278674 -0.05215123746958928 0.05176405581921363
0.0030635488921549672 -0.05594824577332421 0.04544403689768914
0.001993519046021646 -0.055606905276384275 0.04552232424199817
0.002574324107310481 -0.0557970307712016 0.04548475295104866
-0.006544353915302856 -0.046532274579570966 0.056396608888330965
-0.0060588922674774575 -0.04660870071139478 0.055952860685924595
-0.0015411801481301003 -0.049542520574814224 0.05400202745921011
-0.009249647851412721 -0.051458815970262646 0.05162974108354956
-0.009308889523581648 -0.05054980487302017 0.05262601047969541
-0.00973597234705655 -0.050436242704795575 0.05266097776918607
-0.009700604587855453 -0.050687310854556196 0.052389861765040416
-0.001956983868202784 -0.04308673920316576 0.05994221467209211
0.0011911591653161718 -0.05530106173148754 0.04573204729465011
0.0012475354966593529 -0.055583664606282696 0.04596729480028097
0.0006942299465438409 -0.055669060542985836 0.04645525898725613
0.0007709733248417029 -0.055209927026274225 0.0459500206454987
0.0008380392584565164 -0.05232190332734514 0.0503517879663715
0.0009166174030373043 -0.05261446866184276 0.05012834902177105
0.0009464590328622019 -0.05271982138256824 0.05004832503591805
-0.005285200548679513 -0.048293873626121746 0.054141177907388205
0.004673277380908624 -0.04939638205923144 0.05458510344938922
0.004469299647798918 -0.049554437570299294 0.054350336212156625
0.003970747460072291 -0.050574393553895376 0.05313537013558092
0.0038960262800380075 -0.0508139691214149 0.05286553879416098
0.004768556044970083 -0.04964652842723208 0.05436694698959109
-0.008951051458688332 -0.04796999566765483 0.05575735713187393
-0.008871160028669254 -0.04774623027321516 0.055999851694470346
-0.009418470292718677 -0.047744182430819376 0.05609507646491602
-0.008223596282292387 -0.04790949630881522 0.05570313297065295
-0.0028607472082484734 -0.050206815266987614 0.05321297890057411
-0.004034206251907148 -0.05005531873643865 0.0524532499015319
-0.004548221461476515 -0.0437361061786862 0.058578119898676784
-0.00018608368859379117 -0.051626050688829535 0.05095867265223225
-0.008185952544805067 -0.04620690943592395 0.05756906728007479
-0.00836059669199992 -0.04574126529155368 0.0582230446371845
-0.007770870579368568 -0.04581074485577751 0.05778140041013505
-0.007980368583812764 -0.04568870504058525 0.05805273858884175
-0.013360446200998017 -0.03926936773421519 0.06150479391095505
-0.013335682492603449 -0.03955355341366344 0.061339961634971726
-0.013175267807993267 -0.038503473225258246 0.06242267507109312
-0.013210896865121493 -0.038495794759592056 0.06236139780080095
-0.010724691185575126 -0.040644482948324595 0.061991233360862784
-0.011129054946639419 -0.04176993203317354 0.061079625550347016
-0.01113389564690439 -0.0413951229958717 0.06132856556864185
-0.010306203445912864 -0.0409412104865702 0.06195659988111686
-0.010410311727577212 -0.04082990338852266 0.06199030508214196
-0.008007308400243981 0.015100911666558116 -0.03288584221294741
-0.0021518857650971008 0.012224485062123773 -0.046947028449341295
-0.0029343431783981767 0.012200407435871977 -0.04648270863637991
-0.0025069338722064835 0.012190872077345738 -0.04652028360853863
-0.00100748727834139 0.013051845305397377 -0.04062132542290302
-0.009918429484884968 0.014141700702434274 -0.031839625569137435
-0.009541721701764533 0.014574391851419365 -0.03174036213143532
-0.0004961562512801453 0.013901222438196258 -0.03772975266912825
-0.009017424379355515 0.012366995420585385 -0.03703637799327249
-0.011736135752938817 0.006122155911639727 -0.0466412956832675
-0.009962842542737216 0.011329873007002125 -0.05548961842319576
-0.00986504602185585 0.011444051423634773 -0.05585450196224382
-0.009216114112553934 0.013114867167167019 -0.03524045389485579
-0.009009772761566129 0.01328895577826279 -0.035043996947958074
-0.006576044213856186 0.012684141818747649 -0.05204356361699748
-0.006363512961057423 0.01292459121997458 -0.052464043070970426
-0.006336002538007838 0.013466364436917538 -0.05397821246009342
-0.00589425991942342 0.013478387833920179 -0.0540647729741321
-0.0015525274573325993 0.01637546263656148 -0.032421044759719346
-0.004421882049022918 0.012632343789180291 -0.04092166410934457
-0.004437335157998032 0.012796619928336668 -0.04069341367659415
-0.00632864640372168 0.012020324797115605 -0.04787900942118733
-0.00625722229576518 0.012035388401581991 -0.04790405126586362
-0.004020797311439632 0.012697473804707565 -0.04082609052293329
-0.0031026909507253296 0.012739118325013449 -0.04078911667167961
0.0010717861098879335 0.01278880387892324 -0.042185318573332006
0.00030900676317808037 0.012741109221249592 -0.04245118185460295
-0.002063645601126587 0.012253214065633388 -0.04888566376891395
-0.0024430651481257637 0.012230793570969645 -0.048723883106647776
-0.003053820214492238 0.013099517680628427 -0.04026685093353754
-0.0025051715348612517 0.012904478989212875 -0.040602489481776215
-0.009976309927710047 0.012374577172526356 -0.03553505037804977
-0.005560028680534472 0.01468136736534411 -0.03542569507635179
-0.005151595904949553 0.014696817133223013 -0.035536191542109116
0.0004154555596316781 0.012786772099728954 -0.041036754629173486
0.0021017391037769033 0.012591167907117597 -0.04105091200440256
-0.011287444217476322 0.0070315684043758125 -0.04667791656108862
-0.005622787678671432 0.01601463808081217 -0.03301525442290926
-0.003738597594445322 0.014697408336654625 -0.03571876532944912
-0.008412438622915191 0.011145933027682357 -0.04797056830310523
-0.008134525334891424 0.01136150556122113 -0.04827417314708528
-0.008045899997435407 0.011363814563106575 -0.048061841445002126
-0.0077245837127159975 0.011528009878714482 -0.0444243662936223
-0.010816011878635597 0.008693729397271236 -0.05247593500859374
-0.010589887863832624 0.008801792553242723 -0.05162814288612332
-0.010766983934958542 0.008644827012464282 -0.052104626855015365
-0.01143669165705389 0.006961333341218121 -0.0460935578279392
-0.006817337869307165 0.01348914538225857 -0.05405188096383558
-0.00669414115581331 0.01372114601141945 -0.054806379342303584
-0.011709139328098216 0.006699999428326672 -0.04877068891436692
-0.01183852925523971 0.006458537572019652 -0.04881687640150301
-0.007685951696211969 0.012014432678159947 -0.04065115370842938
-0.005925780998871814 0.012874680868408888 -0.040262977014742816
-0.005978330599344595 0.01276031591544499 -0.04046064148133703
-0.004611184004529703 0.01311605255040269 -0.04011739181012347
0.0005595732369229783 0.013652604164311414 -0.038102227319957195
-0.010415966157071507 0.00866908295391262 -0.04491327012375923
-0.010561419058430924 0.008606101961962393 -0.04975515946871565
-0.010602650153334642 0.008756994395623018 -0.050176411314767126
-0.012247469026934039 0.005479585705893578 -0.050186075252379864
-0.012032194226922333 0.005940765773760896 -0.04981612255468901
-0.009044916524854266 0.011294714243177477 -0.05202292965077826
-0.009337687320857574 0.011429630635072645 -0.05277926617703912
-0.0023297977168958988 0.013548639026736333 -0.03834925717984227
-0.007580605162320459 0.011936882267548366 -0.041361354749999406
-0.011475996900981906 0.006605191723525697 -0.04419315096520624
-0.011322023050521627 0.006790799108628034 -0.04553491518213819
-0.011291286464652227 0.006742783988470608 -0.04526654022413329
-0.01260667469782728 0.003913718439338289 -0.046165870806573826
-0.012597120975702751 0.0038034127221667907 -0.04690656278875246
-0.012467079589946813 0.004317170288198172 -0.04685627032106808
-0.011017825600383037 0.007990486568453907 -0.05172064432910022
-0.011258517990174114 0.007548741247037737 -0.05185324898822371
-0.011159456319618885 0.007648085367825866 -0.05160148207380293
-0.011508108638182638 0.006983942665920358 -0.050109140419381276
-0.011700285358210466 0.0068915670839870624 -0.043613916519172305
-0.011851341491354986 0.006115916722215053 -0.043728527820508956
-0.005235014511102516 0.01209591906398868 -0.04573973035078597
-0.005295204959939657 0.012142215680549647 -0.04531393221671991
-0.008672055995201804 0.011241596831245884 -0.042232059769641
-0.008461708767839278 0.011348963140330588 -0.042580111816877826
-0.008448235788761395 0.011403650334921994 -0.042308932731420106
-0.011615269878426733 0.007147438752849972 -0.051038912930558455
-0.01240952781736254 0.004863399758143141 -0.04832537350070281
-0.012570728788948838 0.0038174313802023917 -0.04819163508497841
-0.012641059530439829 0.003381850365772392 -0.04819661465839681
-0.012310211155380522 0.005502082887691244 -0.051079482204285216
-0.01235592112584454 0.005422038341551343 -0.051212946637211015
-0.01190941736200847 0.005569443596694971 -0.04746642798018922
-0.012263093086085907 0.004823795965398925 -0.047091143015642864
-0.010329646071151735 0.00933471972520541 -0.0483647061997673
-0.010087737016294857 0.009549530478588591 -0.04893442855278456
-0.010321934840319947 0.009113480673976155 -0.048815167446523575
-0.010420898186445772 0.00939803255269215 -0.05224381616130422
-0.010543958477665857 0.009174878032720803 -0.05231934906948427
-0.010910828741289513 0.008714020935219457 -0.052881912341852355
-0.005127883544544653 0.01311167378713103 -0.04018119676505172
-0.005161433029306546 0.012058508838058191 -0.04607809465221946
-0.005793713696315176 0.011995664204212924 -0.04566237234211658
-0.012377529411956427 0.005094667665867171 -0.04886119161573607
-0.012324989745489012 0.005196194946187512 -0.04999642981528421
-0.01236047267360731 0.0051315990782800636 -0.048496174772281735
0.0018417887266506867 0.012209586310327815 -0.05027587538437857
-0.007164741779607597 0.011835865126367123 -0.0481588493737192
-0.007547059926708059 0.01156773174090893 -0.047788801670853726
-0.011590460889168978 0.006871525765404328 -0.04892374863540796
-0.009273895051064488 0.010547885626032334 -0.043251026781360245
-0.01010565097702989 0.009699474138331804 -0.04259016814036229
-0.009957553156909122 0.009866975301050017 -0.04261507730324055
-0.011050657992735502 0.008060736455612708 -0.050489266520123574
-0.011480331518410403 0.007455938808731009 -0.05067551967888621
-0.010641827284703765 0.008694354313136282 -0.04754068611107205
-0.008358343555853862 0.011078005712241103 -0.045601106024281544
-0.007921144779851782 0.011397239008047452 -0.04520723156163184
-0.012194668364811019 0.005928217526177953 -0.05157572051514783
-0.01162877545113267 0.0067829859687797865 -0.05163812557516436
-0.011723214006772698 0.005794944210323788 -0.04546131438026813
-0.011297476450110791 0.0074154481523495365 -0.05155889605746524
-0.01110143067335456 0.007888736060937035 -0.05135134926574528
-0.011129223999866378 0.007438857263753212 -0.049837582649169945
-0.0018697126267208704 0.012424483304232172 -0.04428890591437488
-0.0012948235050849262 0.012393594105817847 -0.043658684053464264
-0.0017574916591178548 0.012401568339547347 -0.043982772393333966
-0.002560948862446481 0.012635408441735527 -0.04099709615589346
-0.003562680120474339 0.013257234491483437 -0.039157210046232634
-0.010205220046550443 0.009356475896487424 -0.04744903666297085
-0.010430247764465298 0.009055727582642812 -0.04749138609444212
-0.010841752430249764 0.008091763529378378 -0.04917607893423716
-0.01084483070986034 0.007887949935062389 -0.04943247968737176
-0.012022454016007992 0.005384800834399534 -0.04408038844482846
-0.01212574399936557 0.005046589615790709 -0.044013554649560305
-0.010280103379355402 0.010225052963444128 -0.05495103996153132
-0.010017753752041968 0.011156564179333832 -0.05515356159026233
-0.007716780186863337 0.011536701303919004 -0.04455296219719018
-0.008541172215939755 0.012297546524562329 -0.05327546553220393
-0.0084458503257756 0.012392561081211423 -0.053299441912816825
-0.010416570720085927 0.010009503260479603 -0.05512008109411834
-0.003825253828548236 0.01271484815647805 -0.04224973993857733
-0.010081659335294577 0.009865583149120649 -0.042136896049044026
-0.010205940475053025 0.009618620015942221 -0.04244726895017081
-0.0072609880261644295 0.011588190257781189 -0.04733756807260765
-0.006539599360613306 0.011937693265143283 -0.04770668658107875
-0.0046177623815317976 0.01210195683154075 -0.04731879132756457
-0.0040512429769571 0.012187857074754158 -0.04708159882903251
-0.004639233635500883 0.012096436677855956 -0.047411808482802714
-0.010794836892462783 0.008437221452927395 -0.050857197675629726
-0.0006576471327066356 0.01320806734473728 -0.03997787149578605
-0.00046594250046359337 0.013223169816543678 -0.039836858062490536
-0.011125421049450749 0.007253763693648808 -0.04717210607948464
-0.002466796634942972 0.014806182083856825 -0.03583263545963294
-0.002443514295766362 0.012318342586492205 -0.04355503670755933
-0.0027738277800259756 0.012280225555031252 -0.043375267350121725
0.0011932113166184452 0.01262626890873682 -0.04155427785197636
-0.012280180116880306 0.006024598863247958 -0.052874623586361934
-0.011900524482766843 0.00681010887768234 -0.053198473730766346
-0.011353305988314522 0.007837718759198881 -0.05297079167468801
-0.011624809880952203 0.007361017781410973 -0.05330387368138631
-0.008109432105939996 0.01272734833460019 -0.05339658785120294
-0.008483606294290685 0.012750265810596384 -0.05420240138808845
-0.00997628861854001 0.009987477837320291 -0.051040237873822863
-0.00988377837819944 0.010121260667462233 -0.05115658444292215
-0.0012957979085600623 0.01266788776979443 -0.04256149231591171
-0.0013585376838890061 0.01250783301342307 -0.04301523582670963
-0.0011271118108352653 0.012628711080860514 -0.04268216745798993
-0.009569517449757921 0.010005043563090416 -0.04410650742331908
-0.009234260162412865 0.010489506659139274 -0.04392981419422384
-0.012147624948777816 0.005740023315711663 -0.04852070532257683
-0.012183575791546743 0.005605157058480639 -0.048621193464646106
-0.010770336330253592 0.008899524966322616 -0.05372327863717796
-0.010463699292410407 0.009399853426084646 -0.05381100984158976
-0.010748720602900354 0.008938413133415214 -0.05378221751448165
-0.009739132982348249 0.010111863217011845 -0.04792691072997617
-0.012465998500667139 0.0042676099282108705 -0.04556932320102062
-0.012256356209876158 0.004624419854262188 -0.045219508542236955
-0.010948252065553376 0.008389074909469395 -0.04394199591665174
-0.011848591709947126 0.006014711981249747 -0.04632380582330306
-0.012060509552788087 0.005592871416079913 -0.04605067523763984
-0.012060649896140856 0.00551819829723492 -0.04592005839573278
-0.0035404755841051314 0.015069691591738729 -0.03434158271038478
-0.011051850730836251 0.007595356331314593 -0.047630831929083586
-0.010467111496550387 0.009142608348022113 -0.04816545865231364
-0.010549159116784484 0.008842706497121836 -0.04840015015384183
-0.008419618690180647 0.012053680479003244 -0.039439857773145626
-0.007802191309913692 0.012336118395447434 -0.03943091397465366
-0.008226815507279528 0.012148041375520599 -0.03905414136087387
-0.010460144516190185 0.009165112394838427 -0.050857123223872217
-0.010400559552456539 0.009313850625928398 -0.05073389688184202
0.0015818530963067562 0.012585865745171069 -0.041420857758548306
-0.0014290549796262464 0.013277551875379776 -0.038914360077420315
-0.01176074170785276 0.007376683031730014 -0.054721032947753365
-0.011873797810053474 0.007387289475187312 -0.05533196669186969
-0.011609385819838246 0.00752246674292178 -0.054397735061444165
-0.006690666610606976 0.012180746744085513 -0.04279435943163721
0.0020070213003325313 0.01385831209212596 -0.037766904489476484
-0.010210885873734367 0.009231677639041671 -0.04952069459672871
-0.010050134514311453 0.009672343316857271 -0.049680332593351306
-0.01038709646687776 0.008890669006367974 -0.04959924317267503
-0.0022183014739733196 0.01290354118264609 -0.04067113313986776
-0.011321588926201297 0.008245238660318859 -0.055027785506997294
-0.011404301133669208 0.008413782082729526 -0.05564205502670953
-0.011135609842783672 0.008423368877774529 -0.054695166013686264
-0.010934820672640904 0.008951311904179365 -0.054988753429676684
-0.011100278234900288 0.008485608760333302 -0.054688826387969056
-0.004362011953594104 0.012356889109628129 -0.042997194944154125
-0.00435273013460076 0.012475174718546993 -0.04272517980802699
-0.006765757079083523 0.01579990837265907 -0.03218449283111043
-0.012250266046720715 0.006086786647792761 -0.05355576721327434
-0.012332803091121865 0.005892388329332065 -0.05332535932264959
-0.012163334107729426 0.006315733056513713 -0.0534280561310894
-0.009625218997978826 0.011797926061282889 -0.05507584348977877
-0.010763911272360928 0.00824048857266405 -0.04733715027251301
-0.0055445572613747555 0.012172424366546569 -0.043212606058721195
-0.005408732859163658 0.012314840069891364 -0.04294640166866629
-0.010718981587298254 0.008410099039190325 -0.04853637925675814
-0.01081712881000861 0.00830195620547049 -0.04855697877358928
-0.01001227256572046 0.00987313366758975 -0.05008465158438425
-0.009852990288433323 0.010123541922712568 -0.05015180958191552
-0.012554807302375385 0.0041928194625214105 -0.04925301649771524
-0.012525652235181234 0.0044201921921199015 -0.0494414265974555
-0.012488288504317682 0.0047126924281452156 -0.04968745537394548
-0.012554362077143059 0.004337941586261214 -0.049839117437800055
-0.010440192175412694 0.013391506802173908 -0.03143516878195649
-0.01016831613829744 0.013892642239379662 -0.0315632619904298
-0.010953395953573457 0.008173021828239667 -0.05116004007440104
-0.011072076971818735 0.00804943229667853 -0.05085355508451171
-0.008818233701530603 0.01106958153947268 -0.049296816950433996
-0.009110395708452932 0.010832705008004035 -0.049520966189715986
-0.00944207901802644 0.010623064558465433 -0.04998419982107763
-0.009363435025521238 0.01098631909720324 -0.04089398698555981
-0.008981054615598965 0.011288341914038418 -0.04075506552551095
-0.0017321597057156895 0.012106445866131882 -0.04545303985240155
-0.012259586407161868 0.00636701461737701 -0.0552596900030652
-0.012094308632541774 0.006938010849695399 -0.055286422114644906
-0.011996156204255166 0.006936740693479862 -0.054745676783469456
0.0021856096487265254 0.012708400763401847 -0.0418634387617637
-0.011818170784453415 0.0054550602698362136 -0.04466820533352664
-0.011557930534831319 0.006080617930772097 -0.04480291112628568
-0.010652068377644276 0.013034867294284904 -0.031241027386032606
-0.009238855178965378 0.010642593002659202 -0.04859460543748027
-0.009249566907800249 0.01066278788132392 -0.04837070568211174
-0.0015746561327659172 0.012622137349401054 -0.04141392636784799
-0.005427791798004584 0.015423988716864779 -0.03349468677050307
-0.012602607035725091 0.003981801888499314 -0.04975150911705835
-0.012547738990210867 0.004470138219641024 -0.050352669777102274
-0.012627565839778056 0.003732349886437907 -0.049309624963983466
-0.012625225867178513 0.0038180205082680887 -0.049735109644180514
-0.012516175404210282 0.004714023189513558 -0.05047011547897014
-0.005552257849922882 0.013541869170266316 -0.05431281829220279
-0.005183946963355313 0.013375972202316455 -0.053527633482607556
-0.010550742419421121 0.012816883114794904 -0.0326794937197405
-0.010364041921471777 0.013294924887172018 -0.03237999863218491
-0.0028612566057519134 0.012271492674101521 -0.045095303245660356
-0.0030461544698198624 0.012266112980738285 -0.045074503745105576
-0.009390109285371684 0.014226943308561781 -0.03258399776884797
-0.009576967095135284 0.014062870413889178 -0.032591846037413406
-0.008805717419454125 0.014744965748295771 -0.0320426204281863
-0.005988301041031337 0.012290676008874568 -0.042868620507529154
-0.011902283764331298 0.005276619919296486 -0.04313832123719219
-0.012118678361354619 0.004663718756776835 -0.04337244193771535
0.00021996093390581168 0.012764683286931056 -0.04181444924971179
-1.5056357078598867e-05 0.012730286345843878 -0.041822498115637985
-0.0025186275406861086 0.016493884531382185 -0.0326961866892039
0.0006448465520152052 0.013231657409859933 -0.0385455238054787
-0.010686589203830355 0.008535271481023841 -0.046378530449110264
-0.010468427039343458 0.009008123691637773 -0.04614913800513115
-0.010689556502239314 0.008528413142722142 -0.04638718157392319
-0.006618643426921444 0.011765498222040123 -0.04388059831625319
-0.009873506348095197 0.011298474838040763 -0.03833593412523631
-0.009479344477968572 0.011881267765538684 -0.03783194360528197
-0.003062486139919481 0.012726447472187763 -0.04235248418874595
-0.0003597442041954425 0.013160546285586628 -0.04032969777979703
0.00047848001698035146 0.013016722846038198 -0.04025051455881495
-0.0038047774511982156 0.015962944073440982 -0.03331568823778442
-0.003452101513803175 0.012475167893833029 -0.04287803136264067
-0.006580024251418885 0.014557764084683388 -0.034311249305969994
-0.007173627068759085 0.014345844364666013 -0.03432979006761602
-0.012447828109846532 0.005403724450970858 -0.05252587548215006
-0.012492044295890306 0.004970375170442235 -0.0511316169728033
-0.01260658988946843 0.004441590975530877 -0.051511281477623
-0.012602470222214921 0.004463680301308391 -0.051518271904105885
-0.012650734165244922 0.004347811257820153 -0.05239702398521406
-0.007978107056984448 0.015190716582875342 -0.03234654603321376
-0.0030267281789888786 0.014123269093091327 -0.03713080230245738
-0.002370246489167017 0.014082797234253472 -0.03682214826438585
-0.009955573409905424 0.009905620049957755 -0.048272221857226405
-0.00966151208468034 0.012955738649317077 -0.03422497568735263
-0.009891510924168491 0.012733808550723326 -0.03420685942510745
-0.009709746397794611 0.010029749602257026 -0.04366281557233487
-0.010140287776135034 0.009355764683511653 -0.04427368983303726
-0.009166539330756689 0.010615880174127061 -0.04354641173342586
-0.00030942485750131343 0.012258470482319447 -0.047868907910173515
0.0002855977661328199 0.012282288402554829 -0.04757663223972283
0.0013017233865893038 0.01275546753363135 -0.04248430028487258
-0.010992186653501712 0.007729642580469129 -0.04657029771587856
-0.007096809910203657 0.012607507541295158 -0.03985254665546739
-0.006776182544152689 0.012804920904368421 -0.038918606289080684
-0.0073618444409429586 0.012526029934583502 -0.039585369892813874
-0.0007271385694907282 0.015996762407753724 -0.033443306342549925
-0.010682778311115724 0.00916959668214811 -0.053097304100225055
-0.010653322219702038 0.00914440122169946 -0.05335967542754812
-0.0004733816232470189 0.013268181778459717 -0.039135994143995004
-0.00014445881611263383 0.013310251875997868 -0.038703304460096
-0.0003647639100523935 0.012465222614375389 -0.044541814916058124
-0.0001833926971597322 0.012447314786572442 -0.04443139124875136
-0.010019265156865029 0.010352455865363172 -0.052573210386008165
-0.010116494753359045 0.009942699677351802 -0.05207816780912822
-0.009900462343799472 0.012596213530136824 -0.03499809793127293
-0.00982345334960852 0.012649613643641248 -0.0352209793728643
-0.010104985149277646 0.010138242683849575 -0.05369566405308162
-0.009953647091014296 0.010339648031356062 -0.05388605038535318
-0.010272771101372601 0.01217352944838731 -0.035001561617043195
-0.007324982909059327 0.01148989399427394 -0.04634411969297198
-0.008163307214689516 0.011142346810257529 -0.04624679993693394
-0.007321995921960774 0.011507900091230419 -0.04654376525730028
-0.012448855610814028 0.005177732078991289 -0.05467601211110456
-0.012532287331301148 0.005472353892446626 -0.05598321687530687
-0.01257148745319988 0.004662004935948406 -0.0549576501308668
-0.012598312025675316 0.004866360316041181 -0.05556740793481979
0.0019677735525217383 0.012703876511295793 -0.0423006633780338
-0.004343686093711496 0.012269633319483778 -0.045040122744485434
-0.010324314449486843 0.01143995734286955 -0.03611200612650581
-0.009526168241005202 0.012698691700756569 -0.035752064408772204
-0.009435033309765192 0.012449641966924906 -0.036172578054699464
-0.011539713214804905 0.006056312081414914 -0.04285140305544202
-0.011336298582354801 0.006654469598528827 -0.042887313922352246
-0.006909982012205787 0.015736419508990827 -0.0322403333728728
-0.0009320846150942816 0.013208286361909278 -0.04001467097236648
-0.0011679028464700583 0.01322500387311011 -0.03976988345785084
-0.01193379400627394 0.006458284642292063 -0.051095744626091996
-0.011092580440338623 0.0075422015481128556 -0.04571155025328986
-0.01105931678231731 0.00739288893320243 -0.045273222364316815
-0.010470244928365362 0.008964810004843555 -0.0459400645573558
-0.010647693214171368 0.00849863841195331 -0.04574638173432094
-0.008684192860366069 0.011245066276397622 -0.04974422945700341
-0.008898236808679785 0.011122127649679223 -0.05008818300868742
-0.008661162157028637 0.01120544372821901 -0.049292377546893265
0.0004574349975077213 0.01231813312671753 -0.047201372060131114
-0.010493559852508912 0.00885201193513186 -0.04708976040823054
-0.009932395139671375 0.009707140038599875 -0.04713643194952195
-0.00976266587252736 0.01062292614208073 -0.05239470944747518
-0.010156622068780128 0.01031035166497397 -0.05285414922686428
-0.01240519372933383 0.005527716091613463 -0.053773348051110816
-0.012493869605420236 0.004947814108668316 -0.05408917696207276
-0.012428336625923717 0.005369862770157666 -0.05392722360510345
-0.01259807222364697 0.004266626278099962 -0.05445753592726224
-0.008013773862821084 0.01173988813603187 -0.05008831558553581
-0.007127414535966657 0.012194257646920338 -0.04962858519905703
-0.0074613458523605765 0.011980985238823239 -0.04949958777868219
-0.00853758637133836 0.01270533232060642 -0.03712893713376039
0.0004821567814940102 0.016303119029949322 -0.03210934738293575
0.0007841591757231937 0.015028076298262825 -0.034148959423200516
0.0007703361987354745 0.015052797232995761 -0.034105090114153754
-0.009090005226663499 0.011808800403346727 -0.053589330199501496
-0.009279734278072917 0.011560848090733891 -0.05322958240708345
-0.012888833207242526 0.0021462996290955486 -0.05108578719829141
-0.012939656904004513 0.002005708273931003 -0.05074224157897238
-0.012820182582800738 0.0024182086362529703 -0.05139365574879784
-0.012934678702015985 0.0016519995532421187 -0.05147577024989147
-0.012842255226632206 0.0022096811119151193 -0.05152531435249984
-0.006323968911927522 0.011897541857572932 -0.04365602300362734
-0.01108813792584927 0.0073546229183172225 -0.044544266684204574
-0.01217096548312167 0.004673123149018827 -0.04468218293880907
-0.01228945429731987 0.004452041831877926 -0.04480474433425335
-0.0009543725106188974 0.01231064653565988 -0.0434535600227597
-0.0011264443323103902 0.012362539436102299 -0.04336644224910368
-0.010996917140568418 0.007461205223905364 -0.045136526525798894
-0.011605381683774417 0.006788186012599227 -0.04812130361630129
-0.010803775882718981 0.008418959333392899 -0.04297485917493584
-0.010110335033456116 0.009435778257013404 -0.045285019837773506
-0.010110702622645767 0.0095193621618037 -0.045475155630670144
-0.008384838721580903 0.011749000320762827 -0.051584088715784036
-0.00833716964760434 0.011749599039974147 -0.051331551629331056
-0.008659925127905838 0.011400011931092536 -0.05098003206579503
-0.009291309789445599 0.01283235107440522 -0.03583755245402892
-0.009225084410830392 0.010567957559909403 -0.047621677561781275
-0.0025900932383578967 0.013341070693530778 -0.03865594123295426
-0.0036355982133040475 0.016400068780390575 -0.032554558825288085
-0.009545232759518739 0.010186591230039448 -0.04643743047005324
-0.009531403243566165 0.010212442171932172 -0.04664061355295895
-0.009042040884554918 0.010562991380015166 -0.046261229023734474
0.002005875605744563 0.012410969226735001 -0.042976000366422226
0.0024049624064920914 0.012509582617230825 -0.04262452843585282
-0.004209443439117522 0.012254214560687817 -0.04524871460059242
-0.005318700267567907 0.012000080587615584 -0.04406546726369361
-0.006342600326315237 0.011962793378823906 -0.04453420551778388
-0.003976136760823885 0.013271267928468517 -0.03910583382196987
-0.009892035068133782 0.010606595005713164 -0.05343131922614587
-0.00987989838989219 0.010694532343676484 -0.053073001947585234
-0.004640110685282619 0.01356906044853181 -0.05397841684935621
-0.004747654421590493 0.013619425981804201 -0.054093997728456425
-0.010897951853796542 0.00945644985345379 -0.055972237766860555
-0.010750296309122486 0.009680084092129395 -0.05590875295250517
-0.000620993236738705 0.012836605512246989 -0.04092769343919279
-0.0005676822370545862 0.01239460707184626 -0.04401379637141219
-0.0006682505467289088 0.01244391704828188 -0.04416972051448817
-0.012759103728232999 0.003159589402990862 -0.051621018809489425
-0.012756697102103786 0.0031501773210807346 -0.05189780794698532
-0.012744164740508051 0.0035709601979565116 -0.052353902595449454
-0.010365231054077323 0.009786809778664361 -0.054486990857084215
-0.010228105907193613 0.010020276546130661 -0.05450116615839486
-0.009849436070398319 0.00994111131218885 -0.04635649811211773
-0.011191209839076073 0.007367331327716742 -0.04781574721662516
-0.011334559091920566 0.007479373284886317 -0.048284452207537756
0.001172158155271026 0.012077788098805248 -0.045907564588047046
-0.011362281183915055 0.007267675032918532 -0.043270312238757894
0.0018144502003610689 0.012278308803973414 -0.04331927189239437
-0.007525574877204845 0.011786152367071584 -0.04878516445106865
-0.007343851640163196 0.011842358370744476 -0.04862440573407585
-0.00976786138359066 0.009821854320009996 -0.04514183438231912
-0.009921548596832211 0.009638511565315047 -0.04516804453196618
-0.00810677184078201 0.011734020287464572 -0.05069235707286707
-0.00825935966472879 0.011799008271912154 -0.05132417821500851
-0.008208789455402482 0.011677429337736127 -0.05054390468620894
-0.007403779403752951 0.012050257654052647 -0.05050756422711337
0.001358848279894376 0.012208026308635113 -0.04778882063968646
0.0020620768126579586 0.012134781385484211 -0.04797982721180403
-0.0033667798784265805 0.012229537307619066 -0.04346812073643788
-0.003642146533303274 0.01221951984115436 -0.04395262183914989
-0.011391914686888074 0.007524379125453864 -0.043687197172705125
-0.00745273232934794 0.013070816289964055 -0.053340477879080306
-0.011872192113754844 0.006517759356061645 -0.05028599577286666
-0.011894736006894882 0.0064491387834697085 -0.05023038570641961
-0.009290041110014028 0.011481416165803447 -0.05280935757104224
-0.009107961826317058 0.011724989779617001 -0.053035955249676706
-0.0024165154580068106 0.012681818569165625 -0.050601159925813
-0.002238181065817697 0.012602382791216216 -0.050340210478511054
-0.0030522442180228523 0.012759783751744289 -0.050883411034125775
-0.00021598396576703044 0.012456039682886399 -0.04434571507794757
-0.009974330497441355 0.011364873694531956 -0.037709176189668
-0.009923518783319187 0.01145122517881388 -0.037584030667408494
-0.010341807367451323 0.010964012259979911 -0.037684495392797834
0.002006176508881358 0.012265040199545472 -0.04701490623717219
0.0018542787490310462 0.01227381626052973 -0.04662670233268258
-0.007213908111037771 0.012665986573152089 -0.05241636818053593
-0.008069477172877036 0.01223748716826308 -0.05236624074842457
-0.006588049247693793 0.013362152141519784 -0.053550026680756965
-0.006209365720592096 0.013248622696513595 -0.053145871013811484
-0.012938929635349199 0.0020025862804416918 -0.050293150379237844
-0.012887676775659017 0.002264060361774612 -0.0501507646377133
-0.012907976478778489 0.0021252069442183738 -0.04987526333930563
-0.013006576159989203 0.0016576172640429656 -0.050482393997499445
-0.01276020055859088 0.002853886468287976 -0.04922753474275313
-0.010584132452493941 0.009500847102302446 -0.054767523721071576
-0.010515877482475861 0.00970183753556098 -0.054928470130193224
-0.009145364294169941 0.010500090554945355 -0.04485132731694837
-0.008617030464220176 0.010972325207159718 -0.04455204466797
-0.011778180824019836 0.006234579285647835 -0.04342420559770197
-0.0009654449575515688 0.013828395939886147 -0.03801062451635913
-0.010795867439937067 0.00869706963844833 -0.04369554350010103
-0.00598256866391066 0.014756682305567585 -0.03449956342890623
-0.0064753237266652885 0.014505262436059532 -0.035254958700464294
-0.0060761275363542325 0.01470180707510858 -0.0347214010728839
-0.01037840133320927 0.009067418173513368 -0.04429717013618577
-0.009101586210389262 0.010512953163189582 -0.04510281870368636
-0.009352845628418305 0.010307319574241284 -0.04562488497023243
-0.009218160550799274 0.010412381672062467 -0.04553917923035983
-0.008199713485110022 0.011120088391253774 -0.04666471786789357
-0.008666661823983055 0.010852940898319311 -0.04722035650407688
-0.00908190718077238 0.011867688746338846 -0.05373163977717825
-0.009351622224738631 0.01157691281206091 -0.05411598165440983
-0.009016462792432942 0.012221145603309645 -0.0541462626776517
-0.008640697930275238 0.01280317329505179 -0.05464947348828127
-0.008997639111993017 0.010606163571405649 -0.04502604545399568
-0.008552823058053582 0.01095145130585562 -0.04532308734422323
-0.006555945462276691 0.01235176929087007 -0.05084203707662723
-0.006378000846993183 0.012413488456276907 -0.05085020124455014
-0.004361691929117881 0.01530098036725819 -0.033773531459139916
-0.012509942587272168 0.0042493841426249675 -0.04619533990322289
-0.012357513214287512 0.004733126243256086 -0.046424658268527264
-0.006512749479687734 0.012302295971282243 -0.05032148871732485
-0.0066116159315688225 0.012284508398730937 -0.050280149186239576
-0.0012086239608288239 0.01626571235457918 -0.033151982209708844
-0.0044273726618394 0.015130864657304888 -0.034993075442384204
-0.0016135068933303693 0.012702202169980907 -0.04176068773421667
-0.0010894759503842996 0.01269204733994928 -0.04196414305938023
-0.010842252262391942 0.008486324009445871 -0.04323222447784953
-0.01073215070496935 0.008813977969434268 -0.04358434679986456
-0.003961403676616156 0.01230551704478917 -0.04949763141884354
-0.003752592219391444 0.012234402321658754 -0.04892711628591276
-0.010142395185517745 0.009597624820448588 -0.04337161429091515
-0.009558824114824466 0.010221366761644852 -0.043382046993319746
-0.009845239615369166 0.009916654212006187 -0.04334912454999768
-0.010057820281434387 0.010043389734802097 -0.04170697062460256
-0.010394097103289857 0.009679946029362865 -0.04167973921362911
-0.006006176451359695 0.012364658692184848 -0.04982417253449328
-0.006044120829310556 0.012264126966626692 -0.04924417637311003
-0.008029342462022672 0.011220466924610262 -0.04575635347115581
-0.007612981831250906 0.011386396982230379 -0.04584907987447456
-0.007074766993401931 0.01163392386628506 -0.0470164004572798
-0.006361982151368262 0.011889785516565221 -0.047099706737282324
-0.00024387182305647906 0.01639181961882972 -0.03227391534532355
-0.008657018740821372 0.011788731126446503 -0.04001110455716214
-0.00888590515857436 0.011570362831712791 -0.040320957679507496
-0.004096238288229526 0.014776630492949687 -0.035593005494672106
-0.009979915108927016 0.010319463544260922 -0.04117036254153031
-0.010158585501331823 0.010225408446092061 -0.040887055713499994
-0.005318706057280241 0.012754767759584142 -0.040726213440481884
-0.007232848137433609 0.011752867881148458 -0.04450643888249904
-0.006930028352390906 0.01184776322887498 -0.04472463791712632
-0.012718443805273389 0.0030848514455492785 -0.053426686637193924
-0.012751795778976274 0.0028448967397919946 -0.05270112667255021
-0.012717910688819554 0.0038379710769366766 -0.05291373362019413
-0.012742379160876872 0.0026776081083157923 -0.053070524356819554
-0.009389074664630941 0.01082468747475729 -0.051385519170612834
-0.009747892274400096 0.010328785560712376 -0.05101079524010513
-6.46633685671334e-05 0.014024570651619836 -0.03697142511252978
-0.006669250459829044 0.011915591083632868 -0.04501208265343567
-0.00652462958697851 0.011913418224903494 -0.04522319764213653
-0.007935209120358238 0.011438231589714024 -0.043266055429880365
-0.002044541239485617 0.014486394269017659 -0.03617787444533094
-0.002013959643538163 0.014404769262468566 -0.036254757446388244
-0.007092418216618445 0.012037755062736858 -0.04283774454303625
0.00010905638505137834 0.012317090200898294 -0.04952237953279064
2.8116821241266573e-05 0.012319067455120751 -0.04951802990469889
-0.008221218839925935 0.011463077738695898 -0.0427918009811664
-0.008086291561884852 0.011568913175551955 -0.04272724457072946
-0.003865648819170714 0.012563946231879407 -0.041705564486716314
-0.0046228816706042775 0.012022848893035225 -0.04378325415355948
-0.00467798081486524 0.012266582338263018 -0.0431307290497781
-0.0016081747239539896 0.012457756678332325 -0.044541468091028893
-0.0015691214680404386 0.012308475117260312 -0.04490222383502697
-0.006988377150431078 0.015619967218044125 -0.03269994365956508
-0.0071802529085679585 0.015504130026075518 -0.032939735493454435
-0.0030712661292658125 0.014222164511451264 -0.05470443091513861
-0.0031598900853116335 0.014130020886005557 -0.05457542618151673
-0.0032776862500190646 0.014541968394053532 -0.05510966212174008
-0.0031994855723735858 0.01229031624309889 -0.04394829573663017
-0.0029015838209044903 0.012318679291523504 -0.043892121472599
-0.008358010854662801 0.011500642181968331 -0.041556527488168994
-0.00837250333249449 0.011489892895471369 -0.04160366269750458
-0.009695469159903877 0.010950320061237931 -0.04004295369899404
-0.009091518232866832 0.011490578535039882 -0.039931464144076674
0.0002658059223817205 0.012314987633009662 -0.044908604683437374
-0.008607908689824983 0.01139831324523005 -0.04097928164093782
-0.008493299736875076 0.011419471991955478 -0.041073090699305856
-0.0029852191493302746 0.012110638886869918 -0.045738592621371914
-0.00840510956104447 0.012691290585983478 -0.03756406727837396
-0.004099458771516647 0.012166184848327134 -0.04434253545437171
-0.007456151516848477 0.012015849578757839 -0.042049694302039045
-0.007327650300404264 0.012091377032775939 -0.042208412095825966
