0.007720111202589318 -0.018318621052781404 0.06851988896630548
0.007818917680037927 -0.018270442874768963 0.06896613565122879
-0.0015342751689627334 -0.022645685060081952 0.058828543085515675
-0.0012489685579758637 -0.022658681474177756 0.05900721663416295
-0.003964793589702507 -0.03241310368260858 0.059358769108408635
-0.003507566870814742 -0.03216844050028857 0.059370802500721846
-0.004789910904602037 -0.03399983654556984 0.05893907773101304
-0.003696956809657456 -0.03283067380964031 0.059170901322397815
-0.004261499703314132 -0.03374898499950488 0.05894189798554357
-0.004783045033893 -0.03336830791035591 0.05915744622098628
-0.0035942053132569673 -0.032284690696263184 0.05934423472252735
-0.004072843772365523 -0.03436137503127075 0.05869896790274497
-0.011107753288063548 -0.0343381627885785 0.059337402773840434
0.008714868312558875 -0.015338860941637764 0.0641105823038843
0.00858129774579754 -0.015225181348635316 0.06482519149535884
0.008522398310616765 -0.015665192078460483 0.06482812462734973
0.0005682649837747216 -0.015417540335642162 0.061240549160720074
0.00045732237833920764 -0.015301347201249357 0.06106333502811487
0.004888264479419663 -0.0017174075760263956 0.048118380127053426
0.005272532841070724 -0.0025458132429381527 0.04866162940397194
-0.009955297590134719 -0.03676872105863979 0.0571050353614186
-0.01023903003755192 -0.03708287193960446 0.05701991640750947
-0.010463206722675943 -0.03709582505064708 0.05712408644294836
-0.007264878074088441 -0.039380371065082964 0.05594654784596389
-0.006958408260319113 -0.038197203257937684 0.056800975602187984
0.007323902133785164 -0.0210486309431415 0.06459131495484025
0.00729364809115036 -0.02069826807925529 0.06470188913901906
0.00883566814150711 -0.001977451465629246 0.06646412972219692
0.008840489522076691 -0.0018609343741288528 0.06635037178713579
-0.009904436641674091 -0.03929071952058458 0.05541380980503883
-0.00988099496115699 -0.03993726453614965 0.055075963641511516
-0.009562968804812878 -0.039304760606223274 0.05540902543064868
0.0058344236568935205 -0.01591127816722181 0.06299143782402689
0.0060610866239731226 -0.01678773507073192 0.06334511305026938
0.005661579928631364 -0.016273219193639974 0.06314337127674466
0.006300196300013758 -0.01689298666163224 0.06338290902467973
0.008285461941806137 -0.0035881701477752125 0.05628131808940689
0.008402206079915969 -0.003475672191811808 0.05722929034793352
0.008662800730528638 -0.004972163746302117 0.057677338978935934
0.008356330948058086 -0.004572301983888555 0.0558522965461517
0.00827371458458872 -0.004058066384381551 0.05574824119536398
0.008357104402466772 -0.004125053831286411 0.056284741058936986
0.008462268050973727 -0.004597201643631947 0.056591315399750805
0.008661174160219588 -0.004648337944430619 0.05797470218299825
0.00841619362693015 -0.0035232837815862518 0.057284562777768666
0.006475913713604611 0.002029073677390977 0.05261769294875626
0.006394793163098882 0.002070648318479032 0.05228419568089063
0.006242943350533472 0.0005747656489783592 0.05225268482013663
0.006495289377858374 0.0009822820886504983 0.05308790066224078
0.006294087371186517 0.0009662692192552954 0.05230560500651381
0.006493132061604741 0.001924152825319107 0.05272467620585657
0.0061606167775175346 0.001306573657117836 0.051654473915533905
0.006230842154587683 0.0010904077017048137 0.05201104577231255
0.004488560254696715 -0.0018313840740126095 0.04572846751931489
0.004531733258343274 -0.002375384066497181 0.04649274103755025
0.007968373877536303 -0.021927955035381298 0.06391463838735817
0.0082116567778159 -0.021818176099252108 0.06364749628553934
0.008490776117889495 -0.006022408191006278 0.06449822292907013
0.008493751319924157 -0.006432029121666534 0.06435175696731085
-0.006478260902529116 -0.03464559585300094 0.058682845013086134
-0.00686246425522102 -0.03561284511400496 0.05823485793659673
0.0037158715791174093 -0.014234386042427246 0.06175311291866076
0.0033204438199135006 -0.014219932385621008 0.06170319622528844
0.00814300423805662 -0.01055158249445701 0.05929536874390305
0.008194091798816285 -0.010586894471278151 0.06009840187257613
0.008094294050373596 -0.010975996608015 0.05897982462424452
0.008137416703038825 -0.010700511834209543 0.059357675006114406
0.001662677527058862 -0.012692138851324412 0.04869015458710244
0.001203087028502492 -0.012641610731083485 0.04935092748881606
0.0016875874025952013 -0.012684080132784381 0.048345728204608446
0.0018240655446189863 -0.01271061555971505 0.04847908376435191
-0.0001228364172718265 -0.017279502286852638 0.06100229244333589
0.0005274592336680169 -0.017366818635329583 0.06206572008709956
0.0002129722267498739 -0.01729871379543768 0.06156681700871563
0.0002969258337643944 -0.018770488413127395 0.06083625640407272
0.000488026523702545 -0.017748378476367163 0.061771361685521886
-0.00017238523690405106 -0.01716177211433781 0.060987268858893585
-0.010867958344059079 -0.03371217131483837 0.0608263835410391
0.009050139823828685 -0.0038946993837362907 0.07041849697436686
0.00918130063817846 -0.004823943058503172 0.07055828755230711
0.009077430591184812 -0.003945026639682416 0.07127394224087752
0.005827667340561174 -0.012686933104251516 0.05977067242935733
0.006102758692557426 -0.012714262909238726 0.060255486840737026
-0.0029173477151459726 -0.030093484593745168 0.059821835209309886
-0.003260642233747426 -0.031059110198718647 0.059650266849366605
-0.002743751576411019 -0.02938959106505921 0.05994615722771005
-0.009644745939575755 -0.03233427056461788 0.05946219290369654
-0.009721623868221256 -0.0325041863197743 0.0593831659907149
-0.008358863127473852 -0.029558248279400262 0.0604832443922149
-0.00830171821625009 -0.029448723441732737 0.060540522630177396
-0.009280572582505465 -0.03686542950332304 0.05685004023464317
-0.009671087554893402 -0.03717728652883332 0.056740383935157165
-0.009606642420757204 -0.03656680623611573 0.05708131563415465
0.006620209115963801 -0.0034818977325860746 0.050770004164794554
0.00644097287750855 -0.0031393318108617826 0.05063054899560039
0.006452188744309632 -0.002787860883913212 0.051109337986695105
0.006587687052596906 -0.003365940688642186 0.05081251595116544
-0.011250439428848109 -0.03439098289756285 0.06012282518406661
-0.011375120726216712 -0.036724171408147016 0.0579308832695265
-0.011041466872648044 -0.03708329806959983 0.05749933909560723
-0.001986298930881963 -0.016881158787006575 0.05790013036030077
-0.0015984789493849454 -0.017853190001415397 0.0582904127860324
-0.0016638333838039617 -0.017378690299957332 0.05824034881312216
-0.001228961184705766 -0.01782611059063088 0.05871046225993594
0.0066484532644914265 0.0003789532255368726 0.05389909665212056
0.007116943808792042 0.0017482064044218714 0.05497844127303325
0.006951331808716055 0.002084286539040836 0.054282464757245796
0.006705500880356634 0.0018090908010260226 0.053546144713210383
0.006976950092464917 0.0016951623954996019 0.05451938063380019
0.006778276211637424 0.0015865274661825996 0.05388068766338358
0.007203600132989367 0.0016612499274056755 0.05530852765293835
0.007078068652016572 0.001695121810373018 0.05486566871464811
0.006291825229995483 -0.011573563948065907 0.05245817031597399
0.005591226262074639 -0.011946328395939305 0.052648267811278134
0.005956324225855597 -0.011714559052334289 0.052279432726455854
0.005529751940675313 -0.011902138016851272 0.0521119437499185
0.00604008780978388 -0.011777457817420357 0.05302953157295393
-0.0015855991691693775 -0.02832601417538833 0.05983909232669053
-0.0011316563335064984 -0.0292001483355702 0.0599042474812018
-0.0010720110524453238 -0.028937060881346136 0.059882206637480395
0.008877278867304361 -0.014648717860829543 0.0676439388284758
0.008813243032603203 -0.014645862858848354 0.067100384211729
-0.01148750087340052 -0.03501644690800336 0.05958412713652933
-0.011568533347528248 -0.03506059011528373 0.05999953284669079
-0.010651481712430036 -0.03993088796964065 0.05541989619550037
-0.01047843883648194 -0.03940735417919883 0.055595568098031095
0.0045430728217678825 -0.002141177237494455 0.04555026039152475
0.004569090878300566 -0.002645283711513325 0.046161562464761996
0.00824959631500227 -0.006883139081646157 0.07436742372871473
0.008224626997287711 -0.00674273828271498 0.07437649581044115
0.007912877883478595 -0.003709012602325199 0.07505025437365415
0.007837633151027337 -0.003659062787164343 0.0751934057050539
0.007918683165226339 -0.0048810096069899075 0.07504023195592821
0.008502887310597684 -0.017263397090771567 0.06377035694876895
0.008438610334858786 -0.016802905265709978 0.06434382343481719
-0.011648928649130193 -0.03419337036533999 0.061085600765021925
-0.011677413112365413 -0.034605342338664066 0.06066635812261352
0.004485972815341163 -0.003907302900539574 0.04539416204789397
0.008972403065205832 -0.012422180022505447 0.07280291371277842
0.008927575065962385 -0.012246590856585967 0.07300535479608591
0.009017347784814736 -0.01324475440024582 0.07246609813895687
-0.007818020347520582 -0.01326424523487833 0.05587156644339805
-0.007627483201240414 -0.013607327740759362 0.056276483308288855
0.005071328501422338 -0.0029517975196802263 0.04801428149850871
0.004916741789709397 -0.003262259361634359 0.047494542475900264
0.005062447616455044 -0.0035039934588240143 0.04771414288073747
-0.012033347825669612 -0.03822970128413721 0.057945040771788164
-0.012083541403400675 -0.03839210206277757 0.05798180161813067
0.006785310032623154 -0.009463891899465001 0.05103029041212816
0.006606544270117068 -0.008941392452531262 0.04970894983724987
0.0066616598308288436 -0.009021194721572156 0.050082960727489856
0.009447694403574956 0.0005857466751315166 0.07103360017452309
0.00941106142778022 0.000567207150077922 0.07136142415469786
0.008870090506751277 -0.009854326758023911 0.06858964656799797
0.008903167854485505 -0.01014820925159636 0.06884119199801847
0.008858399044120814 -0.01019101279391532 0.06774746291444077
-0.012023687856967702 -0.03598304623184254 0.05955343786895507
0.008824839190804493 -0.004924314012449233 0.05861105019314069
0.008926586573287942 -0.004010003261162418 0.05968878785814389
0.008920084323428574 -0.004654639207357803 0.059672444278093734
0.008879790644794595 -0.004464743084105162 0.05919617901084516
-0.010333903141175228 -0.038413411202052467 0.05613251750483571
-0.010096412489568156 -0.03889701218368447 0.05572283083567393
0.00639592855525868 -0.009793847273660141 0.049188145741968024
0.0064860723103668475 -0.0097666837946039 0.04952271602195063
0.0007039888367698505 -0.022907502826510023 0.06039459801238947
0.0006482608461330458 -0.022508174946777176 0.060305726427990564
0.0015107241850728734 -0.023994619131793172 0.06096302470694048
0.0009471950677731973 -0.023178847962003715 0.06055733445910818
-0.005137573430290176 -0.038650065752889415 0.057455025824647954
-0.004724013725262445 -0.038513375503666784 0.057641094223888044
-0.005207512479160348 -0.03867335534857973 0.05742346946965182
-0.005257456508846053 -0.038515895114692326 0.05749080834502007
-0.005375114723370014 -0.03843076578295579 0.057501895018717365
-0.01194731860977885 -0.03893497020860512 0.05733582352034805
-0.0021495226218258582 -0.012253922289504936 0.05345117539737029
-0.001259022745387776 -0.012456267036481436 0.052041491793755536
-0.0020054848368759462 -0.0123655142520698 0.05245243593569333
-0.0026411632060969904 -0.012200937427816532 0.05365550120293031
-0.002195224851469251 -0.012406412194767007 0.051931754237192644
-0.001702559546831725 -0.012406825206247562 0.05224186494186675
0.003170320596861403 -0.0125131560955987 0.05018538687810569
0.002878701082238598 -0.012618872114404723 0.0517253024420333
0.0026851752530278493 -0.012641751436326249 0.0518174093790607
0.0027440852040258425 -0.012601154263495493 0.051127895023079406
0.002880900400994505 -0.012569411248920428 0.05075658764559855
0.002814797647243207 -0.012625464730141082 0.051736790904713045
-0.008986970360398744 -0.03946706915315909 0.055329696489024194
-0.009080491256986614 -0.03850443126163653 0.05585697076992917
-0.009411635743263279 -0.03895621439602059 0.055602699669557346
-0.009590790749340774 -0.03881452667512864 0.0556773035310943
0.0056920822589091955 -0.0050998317354280865 0.04833825734560174
0.005395543304270873 -0.004779754805627749 0.04802398222427468
0.004587237258212319 -0.001508335889887327 0.047628202911626755
0.0048276973601834635 -0.0018808251011865817 0.047998144152353095
0.004916308094113127 -0.0024523608939467263 0.04790907004845288
-0.012079139197485305 -0.03571470739782735 0.0599620446032859
-0.011986482767866432 -0.03566279663114301 0.059922618016150606
-0.003601068641143324 -0.029705600447695046 0.05997808856889286
-0.003586566444084704 -0.030274051428395694 0.059869559858010984
-0.0038177627908645108 -0.029843682165617127 0.06003541495260156
0.007418820315225576 -0.019040481590516592 0.06979766475725477
0.007324985773513523 -0.019019595228540694 0.06877298432262925
0.004553738760559962 -0.005188098208823993 0.04614463537858614
0.004561447459348927 -0.005250890653201683 0.04608673969625603
0.007458843629556207 -0.019097787648542773 0.06997832013697956
0.007504905627498372 -0.019112665610540938 0.0701187771462016
0.007602052699551146 -0.01898534370715948 0.07029639391273397
0.005840515976847463 -0.007956906393790536 0.04750886443262404
0.005936795667527816 -0.008428382795550646 0.04755833568964049
0.00595614415838062 -0.007931652625400028 0.04784790732928548
0.005747698508392337 -0.008230043033838993 0.04711716130457504
0.006897568175990937 -0.023714877463058264 0.06463710374122554
-0.0008393392821949212 -0.017346167400221303 0.05937163230946092
-0.00784959063371158 -0.026285952351573365 0.06182507218429234
-0.007567382895987991 -0.027260379764473743 0.06153836058155793
-0.007448908139005432 -0.02757950983318398 0.061446576539885195
0.005828415835960948 0.00026665305077055984 0.050620367364418405
0.005861164689597922 -0.001105481550384612 0.05054865560569863
0.0060056106683017765 -0.0009657360498781395 0.05096854286584776
0.005904752474199469 -0.0004987219384540554 0.05074248781110455
-0.004909695583536178 -0.012197928566084364 0.05271228212521681
-0.005204488977260995 -0.012250391611880396 0.053698730191230504
-0.0049057835028317905 -0.012193464516414352 0.05319201925343508
0.0078117410352441085 0.0009013634201040369 0.057525114627196706
0.007828502352336609 0.0007118762004332499 0.05761279763121417
0.007663826640373683 0.00034108732942348774 0.05710468538636024
0.007643325341582475 0.0009005680117705277 0.0569455673536693
0.007813921471667915 0.0009318264571187814 0.05752779784380774
0.007898794411569127 0.0006026193193921863 0.0578720303082078
0.005020237987126089 0.002422798829464382 0.048221869567378534
0.0050643275258563806 0.002531368298810585 0.0482619971330781
0.005221614816220776 0.0021314859813389253 0.048600274306291144
-0.011355294915839335 -0.0392773880609988 0.05626168991757807
-0.0031800446084986255 -0.012340989878848557 0.05058442816093532
-0.003043734396267294 -0.012338435666291302 0.050826281217738696
-0.002513953831907381 -0.012284922872630808 0.05095578300474321
-0.010487608834059596 -0.03148248183192048 0.06061734060113523
0.00777886993054245 -0.023531029591761402 0.06383890476653512
-0.006989266382429075 -0.028280486762332815 0.061127511217481084
-0.007069968857010008 -0.028087451288217432 0.06123148319611238
-0.011569754613182593 -0.03926251341350642 0.0564339585182759
-0.011758645171930648 -0.039763379287670673 0.05629084443826639
-0.010603393216372574 -0.03282944675303655 0.059674258396315294
-0.00015043750809213676 -0.021900301504398294 0.059658945042028934
-0.0004161883580573602 -0.021076099511289807 0.059418604235605126
0.00042865885785706176 -0.02181371355604518 0.060057089189170174
-0.0008752859216425884 -0.019603365362526118 0.05900014282954187
-0.0008771550963192038 -0.021254850734542072 0.05910900344781822
-0.0005195592793777604 -0.02094189541552094 0.059337550699011046
-0.0004291298985175834 -0.022090301086479067 0.059477231069569154
-0.00037980217749904735 -0.02043501064494875 0.0594012189972915
0.005566624714631818 -0.00544655700066854 0.048096926435931026
0.005871220472647567 -0.005947446214003843 0.04836769773877579
0.009162567888143664 -0.0024105724803396298 0.07129370401305635
0.009070125405468617 -0.0025326313473431877 0.07216801844457785
0.009150761396756097 -0.0026506389174775977 0.07127284555914243
0.009125296173203012 -0.0024121003650890566 0.07167436864107642
0.007468450424876245 -0.02242144279639636 0.06427456330732934
0.007889819329245273 -0.02267916044267186 0.06395100753772189
0.0066739145319936995 -0.006848441444209189 0.049995871716488005
0.006841811907849482 -0.006950414445399711 0.05047323756947758
0.00564804322544259 -0.007189167971713594 0.04738045542582602
0.005939250757615871 -0.006331287405453531 0.04831521122223384
0.005582401831566799 -0.006419277888818695 0.04752506631459723
0.008537491908976512 -0.007550382060372896 0.06223524594224432
0.008578127680569723 -0.008357334513951367 0.06296237735888086
0.008545391439510101 -0.009015353257990672 0.06324008983388406
0.007352866449014022 -0.026586720264368993 0.06182614101536289
0.008170154438679175 -0.027132340282889713 0.06174272003698728
0.008532661003468757 -0.00814188964463402 0.06156485684289001
0.008391138791937713 -0.00861669305603821 0.061992041376786586
0.008525900447689819 -0.008095970289887764 0.06166661573003008
0.008448099074310983 -0.008517097569443549 0.06171159342813909
0.005653578088151725 -0.004295574766459408 0.04843853138242571
0.005946524855883527 -0.0069510777799308004 0.04811197989087693
0.006131160230151284 -0.0068971235651575655 0.04854561969246472
0.005840776241719047 -0.00736713682198012 0.04773068814819172
0.008739483192921881 -0.009611482487899713 0.06718046350825618
0.008745799584296533 -0.009667064557806065 0.06717055525136126
0.006511910690663372 -0.013494033842297175 0.06181831411463458
0.006342063642916806 -0.013362561620417823 0.06162079681915839
-0.011640429502283056 -0.0410114215666677 0.055249489805662175
0.003562423976628824 -0.011841193316685284 0.045758219518813065
0.0035300569710747833 -0.011883253863164696 0.046060639769116785
0.007579533796334391 -0.011881038820672136 0.05981592813510425
0.007266886922631858 -0.011991444573845243 0.05942860066085596
0.007706229213512477 -0.01065688306086339 0.057204766106960014
0.007927701401669379 -0.010045924009927949 0.05770552973845619
0.006987080058295807 -0.012033383688483543 0.05922303594680394
0.007507036078062095 -0.011795262867417895 0.05912002463560684
0.008353586315368347 -0.016180185227106115 0.06329424681003017
0.00862531314867841 -0.015448634271772642 0.06363019794449273
0.008321786619673697 -0.01573191970140897 0.06331132451259353
0.007533853953767012 -0.01045244653431206 0.056582430426163254
-0.006997032760272288 -0.012774674445473522 0.05471420432500878
-0.007302518335185678 -0.012910114939082793 0.05520931875597117
0.008236785982975541 -0.0013800991843909802 0.058384991697366495
0.00831827313697078 -0.0017005362751725856 0.05839670074694886
0.008275714417840689 -0.0004769114805783626 0.059001757363136786
0.005683435616324164 -0.012721253061859804 0.059513421888282805
0.005883522050824178 -0.012591594273710106 0.05901979142693113
0.007423327860491283 -0.010406508037489173 0.05530021438647616
0.007230443178739353 -0.011927734490747181 0.05825007846704082
0.007346400160069883 -0.011830411063027815 0.0578559060456573
0.007864211690843814 -0.011177685881577195 0.058009921850066856
0.007771399136796885 -0.01121891407510366 0.05767677243314385
0.007842652940550355 -0.011306081406621378 0.058536035568180024
0.0076463292636063 -0.011551781137278252 0.05778995358870968
-0.010060420615594102 -0.04054267297926192 0.054808408451613166
-0.010441490635232184 -0.039936400365902416 0.05533103102496646
0.00649428259717491 -0.012031305686798648 0.05646798833586769
0.006629587316057645 -0.011839326505609668 0.05553349025947149
0.006741730057663847 -0.011874856763340116 0.05613789137836377
0.006988450195665448 -0.01184041051082383 0.05666981025486521
0.0065348658726240355 -0.01204738306939263 0.056709521611565325
0.0069369610594077254 -0.01205187761913184 0.058639146933002186
0.007457040883535572 -0.01039385475903748 0.05619495197609629
0.006777132547967735 -0.012149570811317874 0.059934161496621556
0.007396602395896927 -0.011396226917691089 0.05616712074533796
0.0075044995870857225 -0.011112732629388241 0.05587859946836746
0.007601091752036802 -0.011173574891290183 0.05640817033647487
0.007638095864907544 -0.011012394211678052 0.056960768466543035
0.00740272780007042 -0.010770508923268259 0.05526701836826215
0.007088018069160583 -0.011062953419862992 0.05499263071269557
0.00766186266041052 -0.009213566770929611 0.0566425025913566
0.007675158406897026 -0.009415959851023194 0.056636034792078876
0.007532581949382336 -0.010793934524712471 0.05573582532314987
0.007437463273975616 -0.010372103267707104 0.05589716953772932
0.007433376322419125 -0.010098506430950522 0.05403892270164423
0.00743923978119323 -0.00992966527578414 0.05361608010705565
0.007492096409958592 -0.009842096192904855 0.05616774277319639
0.007848915050713666 -0.009591738692950885 0.05719864677486567
0.007385917339334359 -0.010570271257010848 0.05444269220169356
0.007243215726360408 -0.010893305222954678 0.053593729574030816
0.00714072901331015 -0.010957653036919266 0.05428669457748757
0.004437485526412125 -0.022745324762177627 0.06244807503706185
0.004797441041424276 -0.02399653752111302 0.0623515077029943
0.006663757735788002 -0.011378722192978804 0.05298025587864953
0.006539232059797557 -0.01170834647813829 0.05431645309846998
0.0068178525390947715 -0.01124697759072638 0.05304266073062013
0.006964297126998295 -0.011113930978710067 0.05305323649667151
-0.0010976353964094532 -0.012215537103428837 0.04968605419081019
-0.0009477383802297035 -0.012330934728686745 0.04990668988027304
0.0017036287721831317 -0.016592134878156275 0.06270352685961957
0.0012185134139774006 -0.017313281857444216 0.06264774569527198
0.0017548920173978918 -0.017327536406863284 0.06292210436738431
0.002166329200278243 -0.01685544210888608 0.06300597680649053
0.0060618892157817805 -0.0017298067536664543 0.05079724507447054
0.0060986043659344465 -0.0019059526855593084 0.05080082837531108
0.00879509781363082 -0.010722360257508633 0.06644422652686173
0.008821088223522719 -0.010525667662782557 0.06698308638047926
0.008799359782858698 -0.010856691554344825 0.06663217154894371
0.00883755713461317 -0.010319854756971149 0.0672760101416948
0.006147327137237849 -0.011587186789447212 0.05103223471976476
0.006844385488300765 -0.00023750060937443064 0.05442842798316339
0.007164943613742181 -0.0007670650092853445 0.05519452004062579
0.007387434592592019 -0.0004169808090200124 0.05612909852493282
0.0074890608899663685 -0.0013857969271297997 0.0559223636739433
0.007443215222355005 -0.0009636131917646105 0.056007279243295655
0.007416902915848764 -0.009795783614906467 0.05490387561089914
0.007436684688408635 -0.009771712375897752 0.05446635856137849
0.0026460827194149127 -0.0125696602527922 0.04787162695237214
0.003076039682364925 -0.01232516624034892 0.04699243635743959
0.002632816130336437 -0.012382346728139997 0.046821652148779806
0.0027317699023240104 -0.012518509617261862 0.04768300734767321
0.008848765615717378 -0.009481945840508592 0.0688312225798224
0.00882596661085374 -0.008934921226680551 0.06909087059750645
0.00745629087654601 -0.009170932845414159 0.05454095370448375
-0.007405723690879119 -0.035892767653267266 0.05779780474713447
-0.007806392165730298 -0.036011962741363465 0.05740681002094111
0.007461384469878066 -0.008780245437359599 0.05527887935828431
0.007408447725807543 -0.009175645712594447 0.05553700576963884
0.008242978569374905 -0.02043659490629567 0.06345318425225215
0.00683133865485908 -0.02092561572222758 0.06803750288230585
0.00715672197014435 -0.02044000546807043 0.06920976176572123
0.006740990978554068 -0.020469670824236536 0.06773357776720643
0.006852088776825716 -0.02113169638302408 0.06810360427665385
-0.009324498389803197 -0.013852130693492806 0.05780417482865719
-0.009273426836367877 -0.013573185986593033 0.05720962372088678
-0.009604888998700267 -0.013195790181890304 0.05737850853548282
-0.009482028921144935 -0.014032599601858943 0.05849131425183916
0.008669165278558225 -0.006918428213938253 0.06671401867085176
0.008526966761237799 -0.005981132603472959 0.06544019580695613
0.00862280561785037 -0.007145407469801349 0.06601650727315109
0.00851244148126727 -0.007074767669588732 0.06467978863499112
0.008556776058049095 -0.007117933452426678 0.06520892716875606
0.008595084431844334 -0.006521236936102563 0.06600211617393742
0.008294585269347423 -0.013203381019842768 0.062244761804301746
0.008527735831315747 -0.013378503728854792 0.06267144493985559
0.0027625717816543278 -0.021875142473324807 0.06188164351680154
0.002456845882260174 -0.02196521067808747 0.06158135436597634
0.008204633633031424 -0.0131083229520973 0.06207286512400854
0.007025438645474804 -0.008312422597323826 0.05148918006508699
0.007243566326675878 -0.007783491516260017 0.051752386007707624
0.0071415840046979125 -0.008890773602938629 0.052120882880476754
0.007393605761369225 -0.008003331614797517 0.05226704631669242
0.00870943565334277 -0.012818858673942854 0.06281923211746118
0.008715056711359869 -0.013196785265410464 0.0629659699676646
0.00832373940621765 -0.011979135065623907 0.06166011333555432
-0.005676019653213022 -0.018109689278075925 0.05843395531277272
-0.0055638372343682855 -0.01805797539143474 0.058385240633147165
-0.005012714665837795 -0.01844074538515915 0.05834624402338838
-0.005461276659460691 -0.017782604737466037 0.05826895351040765
-0.00806859258421596 -0.029974824319201343 0.060168041624072174
-0.007288190917777397 -0.029122357665974805 0.060605257980890496
-0.007713927270688007 -0.028968536401816118 0.06076001629545808
-0.01055596557009161 -0.041060014840488684 0.05464973321345415
-0.007766472500233248 -0.03504017831802436 0.057868399180677696
-0.008069085370082373 -0.034875437708349194 0.0579493423077126
-0.008085893749862388 -0.03491214339361767 0.05793028423118117
-0.008535157251192884 -0.03557357860489244 0.05758508022150718
0.009072220033729216 -0.0010894577556543276 0.07237889911908904
-0.008853792629328627 -0.013783653408979081 0.057015687712540786
-0.009019667468460878 -0.014145230578360628 0.05773828492334676
-0.00653691609056483 -0.012488995509844874 0.049917767406111146
-0.00607858903477882 -0.012511075164232867 0.05087202562042485
-0.005777996952014036 -0.012571999482662037 0.05030091634961691
-0.005882643284210856 -0.012540571475672576 0.050763085143115894
-0.006339849695374785 -0.012441324547615009 0.0518013315855151
-0.008245449144136493 -0.013902994352680555 0.05676017689600679
-0.008261602087663775 -0.013690125708042632 0.05649469323296845
0.008461102509980608 -0.0053801964931054925 0.06415435597659447
0.008728160074627012 -0.014937306924112282 0.06421000633413426
0.008687604553532274 -0.014243468816561732 0.06428329085633966
0.00873054355282742 -0.014597863662170592 0.06383950951459905
0.008680433638604802 -0.001567948261370049 0.06402558957546732
0.008725901864498073 -0.0014366843973121662 0.06462718402612193
0.0087593635924063 -0.001146941729109503 0.06526314740987146
-0.007633027828901419 -0.011708530548992215 0.04847321644481542
-0.0074987270471437205 -0.011774075286566921 0.04832817533161109
-0.007328463743393262 -0.0121103754002158 0.04875674820671815
-0.0075155542196116846 -0.011624135719601981 0.04800353715102468
0.005339557577579546 -0.011488677063026498 0.048940746935468314
0.005237780156146621 -0.01145649094349379 0.0484685994418802
0.007763053987509193 -0.009055012278116743 0.05698516233369336
0.007953391514479805 -0.008649639330102628 0.057383590290506103
-0.007907145903200833 -0.012691058736059396 0.05444774825369016
-0.007212424324490345 -0.012593903953109234 0.05408528564836752
-0.007333944119564848 -0.012570638962589297 0.05390244891294038
0.007130695902611303 -0.012809657924616073 0.06133332707629891
-0.008723649054177234 -0.012994603445145561 0.05531951746077547
-0.009004097658913317 -0.012768092562750619 0.05517836818466375
-0.011306859177832307 -0.03909735392634245 0.05632566439221702
0.006589540828953697 -0.007440392338433506 0.04952549382587146
-0.010224596369560024 -0.04122241357981274 0.05440596793517627
-0.010650581564316409 -0.04159579239775277 0.05424694682854776
-0.010147875481819228 -0.04130675846138379 0.054312658448117224
0.00802560397663071 -0.009853680749802935 0.05823338203473727
0.008018694190113822 -0.010451278687959349 0.0582945098674928
0.008136033815812647 -0.009861014513519978 0.058912300370613235
0.008011648392887444 -0.009944302130264818 0.05816344369864798
-0.002039345468709284 -0.01564088777023051 0.05764329047028122
-0.0024231742731771313 -0.015709549486486805 0.057590519314934266
-0.01166584423582092 -0.037887346920525894 0.05737498857815283
-0.0112314335672067 -0.03753961740726158 0.057318242056554315
-0.011350606194483139 -0.038660609572062084 0.056627376892126643
0.005956656139977232 -0.013103875514952887 0.06110944974504495
0.006138225540574491 -0.013004315451582532 0.06108809760036239
0.007722758693928263 -0.018323189055516945 0.06574495287972344
0.00775537717453517 -0.01854983934060286 0.06550219133706607
0.007787029233114017 -0.018157787203191736 0.06566268038745898
0.003986901423266101 -0.01307473602697051 0.05955748289316926
0.004289499143048023 -0.012920260493803522 0.05892201094425348
0.004379090229263072 -0.012922171006993603 0.059042531191514314
-0.006412094586311187 -0.012483696871652558 0.05368136866803341
-0.006088448964345007 -0.012437710168268539 0.05252932990308284
-0.006237584257378945 -0.012460212433100176 0.05296422155147698
-0.005941174587760266 -0.012402883508576903 0.053022090923797074
-0.008232962056507606 -0.012594167362502101 0.05378689297157505
-0.008287650895245798 -0.012622197460011506 0.05394867941825923
0.00804637760294644 -0.01962015879843132 0.06432849071482975
0.008920380687332726 -0.005383965791552476 0.0678765299068244
0.00889796164749809 -0.006123982712717146 0.06787209440786826
0.008896543520921897 -0.006478460260736841 0.06791198909309741
0.009072801164165228 -0.0061640269307170715 0.06866551532271854
0.008832517515882734 -0.006839623977975895 0.06767051503049586
0.006660272854176866 -0.01094994572670041 0.05144683802468217
0.007705860399534028 -0.012702478001620724 0.06144289765457398
0.008116093827444094 -0.012833974256494584 0.0617420774475104
0.007677535777250975 -0.00850877403721376 0.054358470470354185
0.007594298035434686 -0.00877565194736752 0.05404079393020841
0.006846670532971307 -0.02062730079345728 0.06518183012753266
-0.010125743799062706 -0.03043945697627217 0.06067226216592743
0.007294413671610421 -0.020521021805351043 0.06302042408191504
0.006799259916692224 -0.0199949885364881 0.06323502640562816
-0.008665940167896317 -0.01318825604872506 0.05585051039977394
0.008144074739403425 -0.007951384991951409 0.05746367323199265
0.00861265458863987 0.00033735311269598425 0.06373523921667508
0.008657587234490331 -0.0009858943459183094 0.06383265112430336
0.008657178876155329 -0.0009143721527255147 0.06405903298589435
0.008637516015705927 -0.0001263594831146706 0.06481456337804399
0.008637594635128016 -0.00038259774494095125 0.06384478385571497
-0.005956098617711706 -0.01803032018669085 0.05853018282624096
-0.006115660470474488 -0.017825138864975804 0.05853390198292629
-0.0061800627703766185 -0.01804720109908192 0.05865721403704413
-0.005515208690154216 -0.019203056130093106 0.05876194545923647
0.0006636247570894872 -0.012790716480825684 0.05288488194109074
-0.0004130816395296128 -0.01259967470508761 0.05204141220035491
0.0006138339669183091 -0.012711922251432747 0.051891209158504564
-0.0002948502568403136 -0.012600161667319438 0.05185441267994115
0.0004243348298126323 -0.012657780031244313 0.051462757036575976
0.00022003962284882395 -0.012675732787590198 0.052042343222495416
0.0006450134656207191 -0.012682296836368203 0.0514358749802755
0.002174584730588962 -0.012147395857899791 0.0459085593234273
0.0020549823967783132 -0.012197344660868203 0.04601372878313888
0.00184594797693262 -0.012245310986015358 0.04609671754086116
0.006387552647732183 -0.012201583912000932 0.05736873479330857
0.0063351754846100485 -0.011893499485044317 0.05518674608581944
0.006198656142822461 -0.012169693834111085 0.056762736243740744
0.005181394293590125 -0.012445120345810549 0.0565087606961522
0.005470017465703161 -0.012286961192393675 0.05604231256401157
-0.004784044046424437 -0.012519142918754693 0.05028757854342158
-0.0046824620761934275 -0.012432575107943458 0.050731654660694035
0.008644285981628185 -0.011847887851680759 0.06568506642622172
0.008649984044049274 -0.012395346359809795 0.0654706963640776
0.009004965180475263 -0.0012002730437977794 0.06792575599874585
0.00825851035656194 -0.005317496152837283 0.05498699073033053
0.008385135303742384 -0.0066209572799933464 0.05543097694946686
0.008304363601216131 -0.006119749696692117 0.05471895215556597
0.008317686210538152 -0.005676844875251215 0.05551883709620929
0.008222081171589091 -0.004841971817593194 0.05498978983172159
0.008384625696861719 -0.006828984538301311 0.05515226165064828
0.008721109269738531 -0.01116518929334251 0.06507911231190995
0.008682939166735435 -0.011735082392458327 0.06483697603468612
0.00897113993203907 -0.00046249612129217326 0.06699873557975977
0.008983295703035873 -0.000516222712598107 0.06715770032282227
0.008947066187981575 0.0003692788130118668 0.06747731973508411
0.00897192003419648 -0.00047790822257618066 0.06699585094881419
0.0011511827999455082 -0.016585519894955107 0.062337604244124614
0.0012928910137681316 -0.016236024694922403 0.06226676810841798
0.0013360123102629396 -0.01671185413169238 0.06254015840395279
0.0008358661244406967 -0.016492410409759947 0.062054067808683416
-0.002935938530410788 -0.012198665585277742 0.05340621809045845
-0.003437806480700292 -0.012249532233629774 0.05247220405556516
-0.002780690319788825 -0.0122021472396453 0.05351686230706441
-0.0037718559270891886 -0.012200577351011271 0.052618807433404205
0.0061867107594464 -0.011431052744087478 0.05033507770080992
0.0005788302476736012 -0.012447757163168803 0.04736771680496684
0.0003214459557536992 -0.012391871551536825 0.047206591262291195
0.00132915451267262 -0.012562110895303805 0.04746697648696585
0.008944513106350211 -0.012572677482047281 0.06944187969051657
0.009059891762129782 -0.011975860563318208 0.06969108652157766
0.009080484487914917 -0.012081093406249216 0.06981334718264798
-0.00767795511915131 -0.012372462073182464 0.05090493975314067
-0.007527745662080662 -0.01238303945202436 0.05132131108455004
-0.00718869457573054 -0.012400036948380717 0.05151299247917815
-0.007331735023265949 -0.01238483566959114 0.050558592696805044
-0.007714644829485072 -0.012379307423055418 0.05182891534729789
-0.00743865130833561 -0.012404615622510972 0.052490043743603346
-0.007409842371319393 -0.01240559716787096 0.05248161399160638
-0.007014108486563078 -0.012488862116094707 0.053151654857744424
0.008614334904375685 -0.005593068082153737 0.0623989171812549
0.008509214407576713 -0.0059784569610794305 0.06235289996901673
-0.005216265893275559 -0.025825699650585503 0.06057762430777938
-0.005320779114800856 -0.02548860183956198 0.0605715628192529
-0.004833223365659775 -0.024898264305326687 0.06007552133855384
0.0020732731972479025 -0.02483171596986489 0.06102466748658755
0.0027674600917516456 -0.024799172157992853 0.06117132897569649
0.007585419502198531 -0.023318517898854314 0.06405693887467309
0.006413073650608815 -0.007896225805968481 0.048945269243788614
0.0065119635443533115 -0.007638990064097206 0.04919144119920993
0.0011132286691152176 -0.02552042381679076 0.06047744510738274
0.00117758775301063 -0.02587807273990867 0.060367680164370906
0.004914290971284678 -0.012680066511467076 0.05711228263745666
0.004985673722057218 -0.01261822217678489 0.05691869677516945
-0.00023583699472206888 -0.01596278261180157 0.06070390825939394
-0.00012972152898566255 -0.015862335580078164 0.060772746586209306
0.008865824824920408 -0.006934920711500306 0.07284611945285169
0.008930143870426841 -0.006793549251972839 0.07243340004878968
0.008855103597481338 -0.006962422810027931 0.07291421662199488
0.008823847113421704 -0.006814622514513611 0.07315318060620822
-0.010563434408540373 -0.03222669404876655 0.060588611191215516
0.0038763803313109635 -0.011754556012983175 0.04639037489383153
0.003922862880924635 -0.012214346696123014 0.04759534079847239
0.003747757813548371 -0.012245282456812195 0.04745029950141764
-0.005641212526925285 -0.021792511756175068 0.05969054067895507
-0.0058316324320232295 -0.022953841120875916 0.06008001429240825
-0.005232378386422362 -0.023186571531451705 0.05982104231984794
-0.0054930371736423384 -0.021803226383983014 0.05961485979506197
-2.6925667737265563e-05 -0.016728741797375334 0.06122535693560896
0.0004136350891648165 -0.016667387314315493 0.06169791249592396
-0.0003206584786506028 -0.016759088948270887 0.06090487156781068
0.008335831631955115 -0.008671657858122942 0.05901264491777722
0.00846711334638792 -0.008299215087324048 0.059269284531383214
0.00844015543045718 -0.00830140804907724 0.05912121487872045
0.008670059087552567 -0.008085381774457426 0.06013065889780728
0.005719119039786361 -0.012491136926065226 0.05750746987617446
0.005074430956233167 -0.012538284789369733 0.05670448802487335
0.005783653884768215 -0.012579280312924395 0.0578831898941999
-0.008775797043167059 -0.03598472978636711 0.057344930691858864
-0.00865567439117181 -0.0368865156710899 0.056793844651451854
-0.008818955961374993 -0.03685300686552171 0.05680999988486635
-0.007310028802420432 -0.019743773064887764 0.060431638941457144
-0.008092972152149332 -0.018555476882501615 0.060606547712928935
-0.007755935206455907 -0.01825663154531038 0.05998777455753759
-0.007716692781406094 -0.019212035376660355 0.060579806592716
-0.007678267917533023 -0.019362163084792883 0.060632794398792246
0.008948346338147685 -0.008910475566721405 0.06985163617263378
0.009164461742416278 -0.010223013035152356 0.07099388210322288
0.009136324821293833 -0.00999455821244532 0.07053459077479161
-0.0015079454318098335 -0.029495744592775857 0.05990122331963471
-0.0014407549943864792 -0.02954136476371609 0.05989039451140508
-0.002680856223222414 -0.03039742466076922 0.05976375470363784
-0.002223681750262839 -0.03051254487782376 0.05972762360146628
-0.00020379774540009465 -0.013074246884513667 0.056500310191532066
0.0002013442900898064 -0.012888116648223561 0.05588125992451406
3.506408800208155e-05 -0.012971119261086989 0.05615051223276814
0.004438720759418218 -0.012865144684218259 0.057750834699848444
0.008566585686078364 -0.006113445861500088 0.06284961778801344
0.00825880602429807 -0.01924372522638455 0.063559019221197
0.008308276532150535 -0.019244731516647497 0.06379386441579009
0.00742271333005266 -0.01045658495353793 0.05322839610394679
0.007410818770091219 -0.01058310127642046 0.053107231864883364
0.00737802046089425 -0.00951030755693432 0.053596665143529995
0.009050004766994153 -0.009954949432769864 0.07201467369566118
0.008964627077178438 -0.011038379901865519 0.07280624672238095
0.00894819357366131 -0.010414213972036403 0.07275381154366117
0.008992376635509083 -0.010713110723624379 0.07255557685757177
0.00898848361794616 -0.010987942611415459 0.07264711344654294
0.0012076507439949657 -0.014143710996746404 0.06070387980429238
0.0019787939991327288 -0.014183560204945569 0.0610801743451615
4.872387407721331e-06 -0.012483922364272723 0.049388297208143896
-0.00826814218278572 -0.01295915389678559 0.05520770796745172
-0.008339510104353836 -0.013220061848502086 0.05582863473622869
0.00858341658182066 -0.007446920370368427 0.06198678093082908
0.008697840524002172 -0.006560604677121004 0.06087738397738396
0.008713903964238944 -0.007626121548352337 0.06065420749755347
-0.00391112331056537 -0.012560302536584854 0.04682925410333716
-0.0041918701236616515 -0.012570347060779969 0.04712332819515083
-0.005091169952712845 -0.012507286908745101 0.04772116426066328
0.008543117355019565 -0.006451539202831634 0.06172962296434742
0.008520087763562193 -0.006239935042075565 0.061694271053345615
0.008575175510678525 -0.012281018201583872 0.06253261146548791
0.008292225851884397 -0.01102951773940917 0.0614109263256286
0.008214590515772124 -0.011431838806557161 0.06100048793493984
0.008404124844901682 -0.011760004127499564 0.062105397149295
-0.007901272693917601 -0.01091299639484898 0.04672500244753858
-0.007294839208868885 -0.011476575807691434 0.04687568523848841
-0.007387673664701886 -0.011408725486292674 0.046939340837362134
0.00847797310917247 -0.01182099787007756 0.0631053124913594
0.008494341546609989 -0.010263893547584436 0.06273959341703489
0.008342182436056831 -0.010617831862024692 0.06225601259898787
0.008350324258028617 -0.0107079118613478 0.06196299120866381
-0.009484432706047444 -0.03085978753737141 0.06014784096117359
0.009161511426427401 -0.00569303586427393 0.07078547636883081
0.009051038116346976 -0.005871549585425924 0.07160186354169926
-0.005945884087288833 -0.012624799495395063 0.04900601922185108
-0.006572975515423878 -0.012521990401442286 0.04931860415024141
-0.006516429191135778 -0.012530226125741192 0.04930563613162986
-0.006149932054577006 -0.012564275364223111 0.04950585420067228
-0.007295541126257931 -0.012329837258047635 0.049294075130365926
-0.007120518447381376 -0.01234116717346614 0.04900815133565414
-0.006701643645535722 -0.012481971125019179 0.04863320628894065
-0.007119625626682252 -0.011275933349000303 0.04608181408694297
-0.006570311178700702 -0.011542414601912666 0.046265377609561495
-0.006373111377882394 -0.011393299392128197 0.04566300043924612
-0.005091467908418891 -0.01241610357694753 0.051162912546804856
-0.005396999091927035 -0.012516333819303409 0.050809684016118156
-0.004884501375425512 -0.012373714151470651 0.051219044734973636
0.008940803248397291 -0.0015711620825741776 0.06710959968806471
0.0087446500863508 -0.0027295387703802016 0.06649486310936832
0.008535708209240989 -0.01729481605857985 0.06970126098609854
0.008731152415475663 -0.006613980505371788 0.06040526144369537
0.008769770428512486 -0.0067519062937002345 0.059505201350131674
0.008743908428970182 -0.0067104293355175915 0.06011645214374052
0.008772271270609935 -0.0061262739006964426 0.059341027943203506
0.008764283513683326 -0.006911548808612659 0.059662992321736566
0.008752721810435906 -0.006017692012824622 0.05979019443808302
0.004895637659950703 -0.007425867231008548 0.045506566082594305
-0.006663717475933254 -0.012628751771760392 0.0543171519133657
-0.005930197565889074 -0.012753413063701376 0.05495204708619217
-0.006429867258697377 -0.012713798673171454 0.054625227950208514
-0.005867306103740845 -0.012605209112853361 0.05463588054486518
0.007989268828504004 -0.013233263705318323 0.062033580994956004
-0.001417316712695051 -0.01614225758976402 0.05839895024890013
-0.0015997611126546028 -0.016270040985198197 0.05820936071590829
-0.0016583661401287065 -0.016119579980636133 0.058082808559705185
-0.004233247514825962 -0.01342859683350789 0.056618991335918266
-0.0039505278573528655 -0.013160641349290125 0.05651312756089792
-0.005890530639027428 -0.013789405059331043 0.05634623894473853
-0.0058341362219962115 -0.013591916909629263 0.05625910884598017
-0.005571661275577417 -0.014216365477680133 0.05672637483984641
-0.005064579122078696 -0.014510056151691646 0.057113038223933654
0.000475185763844463 -0.012829507974678028 0.054536618760578234
-0.00044116797700295 -0.012589821414655528 0.05502539311347627
0.0003771608451086691 -0.012811845030889913 0.05474830324440992
0.0005069106874613757 -0.012875543120826904 0.05527376988854925
-0.005858204065187171 -0.012246539637048562 0.04726813202352902
-0.005813720410710451 -0.012126257007295742 0.047003573243988614
-0.002801425622699538 -0.012465329967983043 0.04712934914701414
-0.003202874733739475 -0.012521628766364855 0.046903894516186456
-0.002457219545043466 -0.012413527211143931 0.04737552815875457
-0.0035212199970510428 -0.012531408322796892 0.047247069719455165
-0.0035190242428007716 -0.0146807686238498 0.05722720831174542
-0.0032795409078879368 -0.014958931430929362 0.0572998590634897
-0.0033689404629495406 -0.014926193172357006 0.05729204915683099
-0.006848496344918564 -0.011690773206296466 0.046945857113991955
-0.006181109651309626 -0.011888023815166845 0.04678567159929822
0.0035615000243061296 -0.013547276716700085 0.06074949704358889
0.0037430689344219777 -0.014003925198348852 0.06145082993101756
0.008743923392971545 -0.001971014909863968 0.06523519269110596
0.008758704926119888 -0.0021507835527324755 0.06577106841940746
0.00871359643240748 -0.001956261808056581 0.06473775406626918
-0.005688348593492206 -0.016002002155596363 0.057409796068932706
-0.0056298187355383385 -0.01725770821853114 0.05811945904802997
-0.005671213144419433 -0.01627324695969553 0.05756155668019059
-0.004857433051714584 -0.017264616117577507 0.057859810407610054
0.00902525099663265 -0.00390759087689858 0.06938696013422685
0.009197512747806268 -0.005214441151608969 0.07011686489478693
0.009219177022377805 -0.005838391301184447 0.06967674042911191
0.009186941404940738 -0.005780795955941107 0.06932377400975726
0.009021982696781077 -0.008479702470086219 0.07157968436797292
0.008955534873115897 -0.00835612680440933 0.07101914445431617
0.008868591362119604 -0.008500647212539148 0.06995838012803685
0.008916297250959953 -0.008441342185414712 0.0705190494250547
0.00892204315453138 -0.008238640045800053 0.07079562249180327
0.008897017781952397 -0.0017912561045190078 0.07264785882318463
0.008971964605692577 -0.0021245957824934706 0.07245185559704252
0.004412741195485855 -0.015404250293526798 0.06280946133708842
0.0037861028376704707 -0.015964050037077286 0.06314501164642831
0.003918191848065587 -0.015307617052536837 0.06272949691858908
0.007633594380606584 -0.006813264846230008 0.05239552651303058
0.007416864687230854 -0.0069605039508665026 0.051873625067250295
0.007670201317445847 -0.007821276349645922 0.05291133480988974
0.007710027186200919 -0.006539064389948535 0.05248755152044657
0.009128745985223764 -0.006297942310654078 0.07014015746591198
0.00914156530264968 -0.006155521086163336 0.0702289057473321
0.009201289554178952 -0.0055118595263337474 0.07060481437075274
0.005777970283966475 -0.012607783424422966 0.058285648619103334
0.005799358677592227 -0.012627308859748686 0.05877700285538468
-0.00800164010628542 -0.013718872106016924 0.05648621106846074
-0.0077167229542344715 -0.014056567676858686 0.05686191923102789
0.008137360145865158 -0.003061188757387086 0.07470637298669715
0.008252832058229964 -0.0034382411708713803 0.07448563194473298
0.008300958071603864 -0.004548863847267691 0.07432999891123254
0.008215301280561103 -0.00437464430725711 0.0744867047428499
0.00863734280405759 -0.013158323395436669 0.06667988674961797
0.008631662795662264 -0.012202184558843369 0.0663406393034825
0.0012848868651578118 -0.015548845446828361 0.061834350913675167
0.0019059539139742866 -0.015761170999997146 0.06245040394187722
0.0015353380410864554 -0.015141798350585375 0.061641386151994375
0.00915669358572312 -0.00579710841078919 0.0691068551172067
0.008902662447052168 -0.004849552583487755 0.06802188759396158
0.008980520820508422 -0.004555204307047864 0.06868836806800616
0.00890185700739141 -0.004840855347854306 0.06802169864162569
-0.011233267076153445 -0.03382279006720595 0.061101734021715676
-0.01081072494760137 -0.03343535177809488 0.061182833062220256
0.006558024519686412 -0.010460519194720491 0.04998623973160088
-0.0043220264899059115 -0.017661974121831923 0.05790777321320723
-0.003360416802531974 -0.017903375275747806 0.05799862063621504
-0.004114257846541644 -0.017670553836557457 0.057925420678939216
-0.002953562861938974 -0.017943032451663846 0.05803421721073401
-0.010413475727341111 -0.033125770862820016 0.059310604805609624
0.00026328541093314253 -0.013377231999507959 0.057923634846938174
0.00010293533652351927 -0.013544401192991194 0.05853425210721064
-0.0002565571958221833 -0.01342849624076607 0.05783524879647699
