0.034226684860009286 0.009307177117946234 -0.06383021336153052
0.03941931302075402 0.006888593088604235 -0.07518516129239741
0.040067366263392565 0.006965200193793155 -0.06754986752792515
0.04015653183821427 -0.005581803655685167 -0.059452208291315006
0.04051537422519211 -0.000549467846779284 -0.061430261706906644
0.04057805516291696 0.0003405100131002964 -0.061158315311828235
0.040560662134713724 -0.0006051734936025219 -0.06216813704239954
0.03243618240736736 0.003702968713635072 -0.07679313271835064
0.032598941816546684 0.004211274038553953 -0.07689004535100533
0.04033375190302527 -0.0023242750982304756 -0.07298909387918637
0.035378453217212766 0.0068429451418679545 -0.07576146948805229
0.037758645821707744 0.007749668748687829 -0.07514948507220623
0.04037123380715828 -0.005981485260948571 -0.06691501037729715
0.040372258858583525 -0.006866951400182872 -0.06727655546680748
0.04035007952677038 -0.006628180591189803 -0.06766991343738588
0.040355893383315716 -0.005731597902999992 -0.06715027910610623
0.0417712584398716 -0.014757500713217301 -0.05687681636256915
0.04010727275079705 0.006216561452737981 -0.05745625913714734
0.04011552658485497 0.006905752569946667 -0.055592414496928
0.040122857486009286 0.006408319855083299 -0.05665773500322393
0.04019786853416548 0.005594907896468028 -0.05707209709997801
0.04015039994760517 0.006742925775712614 -0.05525702892849925
0.040295932593740494 0.005094443113957508 -0.05623343876247884
0.02822569468890114 0.0014921992550409355 -0.07657957426318013
0.028836393214913377 0.0007074684652736153 -0.07655481538486951
0.028404809633801813 0.0010911145821989846 -0.07657164778764108
0.027472580026432703 0.001030553184230549 -0.07660454743744563
0.028373390822879877 0.0018895049115521037 -0.07657586985595377
0.03555070474629933 -0.001748548034147618 -0.07624752768535342
0.03551237079326943 -0.0018805109312413023 -0.07624528743597889
0.039051705944596754 0.009701273131215953 -0.051210220213992234
0.04059690946157195 -0.003009623882017436 -0.06274099888647276
0.03428552181020672 0.008940668347954015 -0.06610370346066323
0.03421429952142037 0.00895935835778312 -0.066805199098141
0.034355245461238 0.008936727383650431 -0.06620697073969967
0.03385895430699129 0.008979274236487278 -0.06626959006876543
0.0400735221593927 0.007323367946511745 -0.06852660873233382
0.04047164818605417 0.00184395622180935 -0.05320947662660383
0.0320911233938635 0.001459567294758697 -0.07652723719366908
0.032643176896907516 0.0013707510483424255 -0.07658928315802341
0.03175103423400732 0.0019424891114470997 -0.0765143922311414
0.03312493768140413 0.00894063379509695 -0.07139411973651347
0.03313780660463915 0.00895834874266391 -0.07109388653338336
0.03452056796625869 0.007608280353183793 -0.07547505135605403
0.038731339051984684 0.005129325314476617 -0.07641740683293788
0.03921179078310427 0.0085403807052187 -0.06587561174653249
0.0400152978844367 0.006320799847824344 -0.07396518777961059
0.03026728069989459 0.00042779919015532343 -0.07647138029107274
0.03063652128293234 -4.220558352899591e-05 -0.07648148916908822
0.03257339318882121 -0.0010636278295489405 -0.07650203271436927
0.03216739965948504 0.0003353270427253792 -0.07653887777175936
0.03278660466253 0.00026810210566762736 -0.07657169905984973
0.032840329409068274 0.00761828565519261 -0.07542320958386942
0.03991122021466037 0.00496890682422412 -0.07394426079963541
0.03993710047235832 0.006119192348488785 -0.07401946860584493
0.04056684240625672 -0.004451432613868265 -0.05496654569671831
0.040466698908511865 -0.004818866553827184 -0.05504548796632722
0.040266728634062776 0.003273122835588267 -0.07268644250414061
0.039813792546087134 0.0056156981756419885 -0.07072600194297812
0.037802672146881516 0.009865458376482339 -0.05546881627403191
0.03717581948633681 0.009777598756386821 -0.05626521745611073
0.039256683419009064 0.008798831274326558 -0.06756238522650855
0.0390895584568414 0.008836178228968223 -0.0680497389694182
0.031737099451556346 0.0027261196606900425 -0.07659616756502699
0.03123380864129638 0.0020003491174785566 -0.0764733368218131
0.030973671217306736 0.0026130898172139682 -0.07656020929723328
0.030283326613055 0.006413853284383504 -0.07669690762053899
0.03524021493911796 -0.004283234549532707 -0.07637981115667242
0.03565266881084734 -0.003228341919799172 -0.0763364597147781
0.03350415785866022 0.0086971328754522 -0.07276534201041707
0.040598619936063 0.0013429552198909343 -0.06216704518124381
0.04049833267451403 0.0021688043572495107 -0.06197978259501634
0.03473731516413571 0.008535902001185449 -0.07424195397133981
0.035225708052130246 0.009161650877314898 -0.06363178277095681
0.03761954432768684 0.009232212119336733 -0.06931230670570679
0.03756757635761399 0.009712131540392806 -0.06304753092122184
0.037798004285281524 0.009846765296729315 -0.061882831285170276
0.03471496950049635 -0.0027442103544880556 -0.07632758035388139
0.033760729387275736 -0.003086440486091876 -0.07644375113464598
0.0290590580204057 0.006146498107206227 -0.07646163777821771
0.03580304101412505 0.008961205306341733 -0.0663116393804688
0.03570399017011607 0.008970837461630727 -0.06717069184049097
0.04189607939604299 -0.01375163937611193 -0.05862682342280727
0.041778853413472775 -0.013416783502935592 -0.05874977581983371
0.04178921171008432 -0.01345537472025629 -0.05902927761131652
0.038149411396743216 0.003514320742908458 -0.0768097664830191
0.04063653143248774 -0.001798279218918384 -0.06195987173560771
0.03639595960684294 0.00539218679115061 -0.07722626877973712
0.03521968201431726 0.004083088706822117 -0.07688797715708498
0.03527840412390583 0.003911379181887671 -0.07689213793512345
0.028920295722474457 0.006201458489441807 -0.07671278994101832
0.04072320446755974 -0.0013000168989960325 -0.07156474328321302
0.04061571584866082 -0.001926174764040715 -0.07190181826705423
0.0405888663112838 -0.0021913458555624685 -0.055869067366643946
0.04062796687135797 -0.002539255986816946 -0.05487517386938255
0.039918281660892216 -0.006849027304940003 -0.05856582958901321
0.04018778350869312 -0.008373391921590466 -0.05842431048700117
0.04008326209449971 -0.007841280690592218 -0.05803641886004799
0.04045278802454185 0.002069252706235032 -0.05558490631353748
0.04046173337325901 0.0024196835946441765 -0.05584347939275583
0.04043718990549169 0.0021173624263595234 -0.05542275072500472
0.04044960716022394 0.0034908423835277235 -0.05617021756071176
0.04054418664835224 0.0034825988615196967 -0.06913686238852611
0.0403287219787416 0.004483007113971498 -0.06939844144290726
0.040400027342753754 0.003901183250823996 -0.06959467986679246
0.040370977510764045 0.0038995373342696005 -0.06978392415756743
0.03373379549646924 0.009218960772547486 -0.06473073449905872
0.03376137895482782 0.009167257508873167 -0.06497134907809915
0.033922320604725324 0.009350242618512864 -0.06391123476122557
0.0347405920100566 0.008931924901394706 -0.06537800361160757
0.03496886815453305 0.008859024278254912 -0.07227037287268456
0.038282212315467634 0.00978922996144102 -0.05246748181497386
0.03882299563751839 0.004205306314267928 -0.07644341276780664
0.03652908917835426 -0.0040395381802597165 -0.07641423422201504
0.04164330951746332 -0.014755525058197208 -0.05607117570572594
0.04013841966143702 -0.005813593183697068 -0.06006089153978936
0.04064724100425814 -0.0021573864680167597 -0.06799292729545046
0.040758306264527616 -0.001595719903396736 -0.06893897811502946
0.04080915609190085 -0.0012098521633480512 -0.06870998297128625
0.04054334941822827 -0.0030547305096197876 -0.06902137356351638
0.04071478098053126 -0.0017447211511004077 -0.06820243162700658
0.04058610517180073 -0.002797810528421889 -0.06917619685941132
0.03752440746423661 0.009334280792231964 -0.06863099744437634
0.040514373135533036 -1.7422682329868656e-06 -0.054382482032821255
0.04051403508917301 -0.00039430742888105105 -0.054162892345034304
0.03237285898859635 0.0066072549209242595 -0.07597680836342796
0.029722567508118487 0.006351078263463089 -0.07691735567239778
0.03846463318761848 0.008905183962122906 -0.07022175501503095
0.03601172984627719 -0.0014994472091213067 -0.07621533696840237
0.035674172392318675 -0.0005043678917824618 -0.07633471712115533
0.04061069851667519 -0.004064240031580459 -0.04768624304070748
0.0406170913425358 -0.003997415872743 -0.047703943094056754
0.040570231508119926 -0.00495598744542953 -0.04937605581756932
0.04062815107511501 -0.004271641742162046 -0.04923307938354128
0.040555534317252936 -0.005073171380900331 -0.04919526630927553
0.040810746316580826 0.002319444656447318 -0.06896625169706934
0.04081786357424389 0.0022886506662870734 -0.06897031233349492
0.04081930269378678 0.0016655181839138008 -0.0701828618936077
0.04079007814422612 0.0021635985168076658 -0.06943622069297903
0.03015560851335418 0.007133128672706962 -0.0755305669248992
0.03277400682481083 0.004920757781645973 -0.07697328713474974
0.031263706751174694 0.006170810975027035 -0.07697176833368471
0.04039778207051586 0.00805815761686839 -0.04827209777069625
0.03992516356799644 0.0079518262326279 -0.06758838470124849
0.03239910828434905 0.009452750767205175 -0.06367638575501368
0.032423090636539906 0.0096930329348052 -0.06193117753800555
0.033407137591135366 0.009432782304849103 -0.06359882984451937
0.029960923520383712 0.002945995570039418 -0.07659261081190827
0.030852331170119512 0.003894938037082148 -0.07680887110633863
0.031832368699182545 0.003956906376978165 -0.07684109924151658
0.03153237144394089 0.0030878016566565484 -0.07665317664354697
0.03983119988891146 0.00814813485334209 -0.06668417694591727
0.04017271772466345 0.007562270041739276 -0.0624017196069972
0.03862638762685784 0.009559323859907532 -0.05837830327311329
0.0387629534009332 0.009492632021158081 -0.05850304063002612
0.04028916521881912 0.004064940682662745 -0.06999678678956653
0.035058400380458786 0.00943602455246571 -0.05852071742542318
0.035153117977576656 0.009505926580884021 -0.057535822271283774
0.039560682927488426 0.005960682091710727 -0.07534711650511991
0.03771616731466182 0.004503183960335899 -0.07691594478527411
0.03856360917453259 0.009626054826261743 -0.05922971201120165
0.033675138900933405 0.008347995075440266 -0.07454299591692076
0.03383097517074583 0.008139332898111409 -0.07492100720127523
0.039755936412920176 0.006148024406101122 -0.07101850149394691
0.040112681985578144 0.005723861899668033 -0.0614670795408806
0.03852632868459143 0.005773674541708259 -0.07681335493923674
0.03850631269751074 0.004557268673032415 -0.07660527692327568
0.03784652938750023 0.009293225149029994 -0.06859447481271128
0.033363675790371694 0.009479551332685637 -0.05989911471458388
0.03354243408616968 0.00940949307801227 -0.05951743023892321
0.03920652294398542 0.008545409157314113 -0.06504419469061128
0.03610241577712155 0.00637243711814949 -0.07612286382183447
0.0405579067670756 -0.00038771455562324126 -0.05354982015784334
0.04060065726994935 -0.0002815963549469557 -0.05322652031686457
0.04006884399703018 0.007113775344300983 -0.06781260229305398
0.039549138139694635 0.004971691150017333 -0.075469893214744
0.03948061288736668 0.004507214518444901 -0.07571220595095593
0.027544087149097417 0.003068650851747793 -0.07672940449302373
0.027200531514386055 0.002542313465856432 -0.07670630502244741
0.027256383307716583 0.0019571788068854443 -0.07664278356437525
0.02737915553546861 0.0022506910082191107 -0.07666161296366213
0.03635648448946646 0.009026580345811275 -0.07019042330165742
0.03712605310325097 0.009197151162340843 -0.06942974633864554
0.036792623121252845 0.009057154591227239 -0.07013268864286622
0.03465976523139162 0.00885466038475429 -0.07292627238419423
0.038442858026778326 0.009709989200662494 -0.062184192072009065
0.03112219849856615 0.006721363819979917 -0.07573509091916161
0.03348778213624081 0.008428544060486634 -0.07426185220612863
0.03229019884879387 0.00595331021417433 -0.07696353448602038
0.0314920479658151 0.009014150627769994 -0.07134863144539996
0.031078383721544145 0.009137973176781387 -0.07072690297600742
0.03093871342810405 0.009108062708660825 -0.07098821812694342
0.04036306345699323 -0.00481492107088957 -0.05812772937385754
0.040381157993231394 -0.004767591644836967 -0.057991618784761285
0.04048837713974243 -0.004233857480431874 -0.057846276465729214
0.03724442002578041 0.009909168444830412 -0.054927490949413765
0.037366348499645805 0.009905647089237633 -0.0549887808625539
0.03747864539126032 0.009929884421130157 -0.054747329777932396
0.04028538918703226 -0.0027233010233490115 -0.07323179588680971
0.04049369230868149 -0.00019055936015287966 -0.060464664184461774
0.040536119667359184 0.00013317874520204993 -0.06041670068466863
0.03353111387317196 -0.001126943134146172 -0.07645317298827775
0.03327751688593018 -0.0011645912070944943 -0.07647168700749077
0.03389203910200388 -0.0006357405846182729 -0.07644703489438298
0.039888788747039966 -0.006444769748529936 -0.0585480305499497
0.04003476610275493 -0.0060017683795845905 -0.05807750921583497
0.03593747535798011 0.007474572550662225 -0.0754575536158499
0.033566902227732356 0.008863085874832177 -0.05204774243145121
0.0349146776749193 0.009289023145514823 -0.05216949713779418
0.040020498108067876 0.008049907084977746 -0.058673653576203084
0.040115173347513355 0.008115173663870597 -0.058190323132026725
0.03151338454717601 0.00042174844024908334 -0.07648564852358036
0.03133551477564932 0.00023949725440703068 -0.07647293472136106
0.04051515882543951 -0.0005756330816784214 -0.055335086788511526
0.0405100232407555 -0.0011753764199797824 -0.054066385733977
0.04051134363777989 -0.000489620641855565 -0.05527432667152284
0.04020934216205829 0.004993124544342664 -0.0574591610082795
0.04031213744537146 0.004595624756006212 -0.05674470741251045
0.040307534300022305 0.004496363003612702 -0.056874513938157026
0.04011856521218526 0.005480177093564171 -0.05797642411785975
0.04013296171017663 0.005966870689923315 -0.057423180920373816
0.04018879791073264 0.004884654730692624 -0.05775896329365282
0.03856314641952272 0.009618836796365719 -0.056348818954798194
0.040700499981168994 -0.0020057104427385255 -0.04975752646895254
0.04070616955704445 -0.002892736801091022 -0.050403509190054326
0.04070115847069601 -0.0026427912037530676 -0.050017050708358615
0.040477850732259665 -0.005065662556790951 -0.05414310157098762
0.04057842537774541 -0.004587963338687939 -0.054172112561285415
0.04199846574698972 -0.014388954458545034 -0.05849165480129493
0.04190714145249774 -0.014172305194627102 -0.058088983177473665
0.04020765864487019 0.007297263885810055 -0.053128749284900696
0.040159387617873854 0.007227952723368359 -0.054044456933099165
0.04068503877639885 -0.0015090641684159265 -0.0649876832802598
0.040743972478477664 -0.0005935691167666627 -0.06506195455358335
0.04072898555516677 -0.0006480128115351276 -0.06539777296686748
0.03418976381725998 0.00259734693602063 -0.07677797792057056
0.0335253832743259 0.002895889498501214 -0.07673998664827081
0.03432006580340239 0.0024938541669253522 -0.07678341623825048
0.034766125402553034 0.002582444678203169 -0.07682186783858433
0.040095735643901426 0.006545904668462312 -0.06161261380007721
0.040122573291651656 0.0069303947931614275 -0.061680387412881565
0.04057517939261223 0.0008511214126216634 -0.056658078252506336
0.04053342793124117 0.0005433475850674221 -0.05602421003266532
0.040584886584786414 0.000226186954536666 -0.05682390093369982
0.029266710469434774 0.005554825598101363 -0.07703626349767614
0.04059600085466639 -0.001237138839881479 -0.059206332460377306
0.040531841167489195 -0.0012207662086934625 -0.059973424256786464
0.034895005802457815 0.003992583067243842 -0.07687951089996836
0.034698773283260355 0.004825207732603891 -0.07687331285460029
0.03991611818736249 0.006917997841945947 -0.07466915206342098
0.03833905239172321 0.007436149518522579 -0.075141349894942
0.032580042054384556 0.008397541633422335 -0.07423209138966683
0.03272002008378527 0.008480202482499137 -0.07354319654092738
0.03987631494709834 0.008163101108763397 -0.06375647561812399
0.04019362803609951 0.003794094192188701 -0.058691626912709495
0.0403649665580123 0.004133741355935212 -0.0565948905977342
0.040284379427354446 0.0029850374125424952 -0.058556133417059536
0.039797644054394246 0.007934959122015216 -0.06534903098824174
0.03976054879301738 0.007777073089982465 -0.07384580721610554
0.033311733881382706 0.00886173697632494 -0.05278232991214755
0.03341867627096682 0.008950338333145576 -0.053380124025742715
0.03388833020538759 0.007246818494084786 -0.07553584215441679
0.03921340243877069 0.008930424245843078 -0.05889281892531481
0.03919489597213929 0.008931481385911464 -0.05841194151115095
0.039323024937503795 0.00817884337751791 -0.07166551895459682
0.035828572982062906 -0.0028373704299722207 -0.07631564916080151
0.039435444061708236 0.008202685260393156 -0.07286423263967164
0.03571510110123608 0.009549247724719843 -0.0515370259410809
0.0368902724225261 0.009977665795896184 -0.050603314130061874
0.03684001584703934 0.009952807584986487 -0.050771496963170716
0.0289526950927976 0.005458915788309064 -0.07699964289821634
0.039533036265861445 0.009242702995416113 -0.04900861056725499
0.04011032434711836 0.006629888086026192 -0.06296239915411991
0.04051327362033587 -0.0007354938557413182 -0.04667429884317355
0.040556893348653054 -0.0012183050381810601 -0.046534671629521095
0.04031007550446085 0.005022253259309821 -0.0679000401398461
0.04033577035024909 0.0047685989328305105 -0.06865636506812407
0.0404531504957345 0.004361465966147197 -0.06810642030331007
0.040738993887210286 0.003148421984187525 -0.06794797690165216
0.04013408053466301 0.006377929851445887 -0.06853159545710047
0.04012926520358328 0.00682257979727119 -0.06850344572912662
0.03004826532377012 0.008713256091257764 -0.07383134115441067
0.029589460176204403 0.008572926081630596 -0.07415672503251519
0.04051774026934986 0.00400770088465844 -0.06683846312304083
0.04046473902856025 0.004257005681993221 -0.06680521940520232
0.040296316597182955 0.004999512360107013 -0.066483726837522
0.04067827001050488 0.003416881687066023 -0.06765245408076596
0.04067541045740787 0.003419298840898129 -0.06760275121974867
0.04023716448921946 0.005440698227085831 -0.06715417741447159
0.0407690152200168 0.0030210683413314223 -0.06784410849595428
0.03997952438385807 0.006427593143019515 -0.07009746024941275
0.040014061771154026 0.007177347570374195 -0.06913184212397333
0.03944222776165229 -0.00539391011792432 -0.07572867867541833
0.035758314245926945 0.00952213210679316 -0.05928996217265288
0.03663826390495409 0.009650017454043248 -0.058497418558148585
0.036637413910607486 0.009655024683774913 -0.058835590600344795
0.03587828774893482 0.009538572571710107 -0.059116434065421386
0.034585371762421074 0.009339486195877118 -0.05436885640946277
0.035200329784878734 0.009559020477816585 -0.05371523192894928
0.03451594277678509 0.009298290235553916 -0.05419637446528803
0.038613836351514615 0.009618567702701692 -0.05587645261190721
0.03897273623503291 0.009287721056159205 -0.05668155378716011
0.037769127628623875 0.009815587893265762 -0.06081414257330686
0.03728396417548742 0.009764595248550757 -0.06074613138446597
0.039764489250765686 0.006927248026761314 -0.07080499670616158
0.039778102510492054 0.007339821489700529 -0.07024319505200899
0.04026746868243121 0.006470758960926177 -0.050240987819140284
0.040345067865099636 0.006427026935449198 -0.05094753424026188
0.04038019912922803 0.0062445312860764275 -0.05133594470624885
0.040055491252915645 0.0064942564391604835 -0.057834099773771463
0.040079255257749746 0.0052928375368331716 -0.05951693991322242
0.04008475986638394 0.005689423737024808 -0.05986213575445891
0.040092209616871266 0.00585190401637635 -0.06035405070821538
0.040700831475529775 0.000896036465425423 -0.050037644664884945
0.03643692228921543 0.009647843056892848 -0.061079968192584363
0.03626907694899882 0.009675677764170368 -0.06079652991740787
0.036112581734595396 0.009652165252678185 -0.06121237557585889
0.03608515159389776 0.009720028084631217 -0.05601575303916807
0.035345997154567446 0.009568424229727744 -0.05631693086905301
0.04007245639786415 0.006181356481639236 -0.069789641531319
0.03619833898535865 0.009273989208624475 -0.06351468543115438
0.03646447756249552 0.009239516810749016 -0.0640706698415723
0.04012529360541656 0.006188781872500389 -0.06807797668420869
0.04019272381520601 0.006012296471618068 -0.06913472448010406
0.040252804345121414 0.005293531317093085 -0.06898735691817688
0.04026264516509656 0.005163917438329611 -0.06588835521094454
0.040123488465088626 0.006024165484086127 -0.06625823263903413
0.04016064067154663 0.005959759480761564 -0.06526456193932752
0.04029227084674717 0.005164896836472522 -0.06481257510455572
0.0344014260959262 0.0016557858508078937 -0.07670100384278128
0.0345884560380286 9.747057395942643e-05 -0.0764310350366301
0.03467098872618269 0.0018675459244425587 -0.07673436359815235
0.034955079784695434 0.0016586834115031785 -0.07669525846179608
0.032199567598041344 0.0069186200049090206 -0.0756186634148347
0.04046544796774444 0.002707754064011628 -0.0720624707548262
0.040380471212814475 0.003179378506907523 -0.07106141225501755
0.04049168563119475 0.0026531272714585986 -0.07132556467852141
0.03999585387873854 0.006909384213664917 -0.0732006612535708
0.03351533573970226 0.004575358419462484 -0.07690064493293967
0.03685132292237776 0.009751841121738106 -0.0523774509885437
0.03629333098940615 0.009918195621115674 -0.053395778818355284
0.040854220626678775 -0.008832879317990067 -0.07251384402979305
0.04063308104770497 -0.009505722942387508 -0.07109623290616993
0.04018085506666084 -0.005641065354793786 -0.056761952603313966
0.040309911793327914 -0.0050751724672843685 -0.057789668576219054
0.039780036783463674 0.006216145047788784 -0.07271032241460829
0.035520563462374706 0.00898088750842386 -0.0685001531127406
0.036868927845452266 0.009258889637601823 -0.06882683983068537
0.03533653855441516 0.008951184566717073 -0.06785908321981118
0.035419274133963695 0.008952202109406154 -0.06904045913135892
0.03574268228279751 0.009010078586200877 -0.06975614152579195
0.03975129459736953 0.004692788803988767 -0.07127119358789961
0.03906841787849616 0.009458266206937654 -0.053663508877649986
0.02889292319632365 0.004275802718184087 -0.07687830060806723
0.02834561648806276 0.0030584850947765222 -0.07667125526519657
0.028599319328201978 0.003607903513744277 -0.07676423435636864
0.02920996735671866 0.003003669907250726 -0.07659971552449553
0.028964950925365343 0.003892812901755383 -0.07679606864356917
0.04016445271313763 0.006283547394017242 -0.06505851229359767
0.04016224129717498 0.006369514310617494 -0.06528284684558304
0.04019052348524801 0.006436432692759545 -0.06474645143060914
0.0313865550018098 0.009264985401704597 -0.0685680080368232
0.040111411869512933 0.00680186096598025 -0.06682789000107715
0.040473547228216 -0.011797555148196713 -0.05408016757364339
0.04038296239817323 -0.011475471580194163 -0.0537411497733353
0.040423682944823326 -0.011989863787031096 -0.05348358136961321
0.040574390967557675 -0.012970987657608065 -0.053553724008569684
0.037410964637986474 0.008646136633038785 -0.07254833955056754
0.04017894122589723 0.003722811885910444 -0.07172436308610572
0.04026712718525634 0.0035970772104589425 -0.07083116927706166
0.03720983201994893 0.0019600650554626488 -0.0768452179114891
0.03758968931019979 0.0017906273362153654 -0.07683658914229231
0.037381872017514 0.002362769238839069 -0.07687475062331539
0.033447597262833785 0.009098862858977274 -0.05480721224111118
0.03322357784160153 0.009040131218675636 -0.05471712173554904
0.03437322391461192 0.00929894594554449 -0.0547192846313859
0.04025307823184151 0.007391539533550757 -0.06517290003067386
0.03954155017813747 -0.005737918223154354 -0.07514043384426825
0.037558074733377425 0.00751133363782848 -0.07526387804074679
0.03996537887629713 0.005289082269875265 -0.07354869869136432
0.040241918432007695 0.007046613560724874 -0.06395083237644983
0.04010604423448234 -0.00896714941265889 -0.05448522711427684
0.040060700740423 -0.008127268651176557 -0.05377843894760945
0.04026412774564122 0.007232817393976003 -0.07381980201332847
0.04014332768881719 0.005259072219538613 -0.06967350584613163
0.039764971110104574 0.007350616059233278 -0.07225458197841915
0.03592479314134743 0.009064449293504764 -0.06416183191299574
0.035661904171716656 0.008953006508091318 -0.06525650672743265
0.03992658410062043 0.004264128167450799 -0.07282132238271558
0.039740637718819444 0.005173138719975211 -0.07486336198081153
0.03973207600729906 0.0055528934544245585 -0.07492934058059182
0.0396465814931566 0.0037716853063485055 -0.07537624421068594
0.03040184455000778 0.00858531555149528 -0.0741104252308324
0.03145714194481022 0.008573784836503109 -0.0740244898284404
0.03995411710230355 0.007914254477257344 -0.06469547443652301
0.040219041899347205 0.007319470441787856 -0.06319429514279637
0.04027202157410315 0.0076743756116521445 -0.06319631344315615
0.036875528616085576 -0.0032362154571718375 -0.07637223065065635
0.040344091632286985 0.0016023455314369015 -0.07295905380040105
0.04033724810793296 0.0017302153923870883 -0.07295580567022283
0.04044547558286511 0.002462247387975349 -0.07233899660487894
0.03957567849418225 0.006568343578488484 -0.07522738954574915
0.03935579474008936 0.004528438608113523 -0.07591133470678421
0.03201595655928938 0.006460717966833822 -0.07643361530757996
0.03902292386981798 0.0035585484625732205 -0.07649072280841071
0.03989432442855745 0.007325523355308021 -0.07286142165434158
0.03471446098825266 0.0094614052604182 -0.06294804890978295
0.04062282072606771 -0.0021293088584728678 -0.06756403087983825
0.04069763849791388 -0.0010531111401984711 -0.06722336996495147
0.04066729931836257 -0.001086501435014869 -0.06691776198833997
0.04067933987171675 -0.0017654674802049036 -0.06780122630029285
0.03865015510432605 0.009593261279360376 -0.05968266758032179
0.03890209705710985 0.008580364456517473 -0.07213778034732689
0.039702969693819326 0.006902912278566703 -0.07222115539457596
0.03972205740442564 0.00699496568490611 -0.07161849643547792
0.03116204086910157 0.006947676564098247 -0.07559825719527097
0.038299527321456306 0.009266080220005362 -0.06452891436274784
0.03868931445270435 0.0091506537067216 -0.06854343009026802
0.03987780704535382 0.0045885888812239465 -0.07229557660532095
0.039319290802503314 0.007691122714398774 -0.07466280777182571
0.04081685040008565 0.0004992598476304936 -0.06763517904169833
0.040734511260888465 -0.00013554289333462502 -0.0667188922907186
0.04080927484586923 -0.0004267858940295371 -0.06785298645761388
0.040829475081529225 0.0007732254114649112 -0.06771416564804027
0.04079256696188866 8.304427393409681e-05 -0.06744468491090243
0.036771271377041746 0.00980039121823931 -0.05599335442494756
0.0366600377775646 0.009670044775348056 -0.057458094154729744
0.03994564876240267 0.004395712652933531 -0.07061612517128776
0.04037864766246487 -0.0006616975864082971 -0.07323935474781944
0.03120989623216476 0.009225009082644954 -0.06791129092549938
0.031669226387665644 0.009257773063768166 -0.06824468579575974
0.03204186125805252 0.009160832271576698 -0.06715809741374082
0.04086153659866562 -0.0009589359653577536 -0.06939384089070626
0.04062027417983666 -0.0027415925115914803 -0.07035449681816466
0.04073202217584419 -0.0019898981926744766 -0.07073590211880135
0.03983156671669452 0.002817054578872981 -0.07434689344137996
0.04003000568777719 0.002047928916422143 -0.07390972945040958
0.03997409016831596 0.0023197787634392343 -0.07401835213904301
0.040787101274826154 0.0009490988040936251 -0.07127904452253124
0.04061696221605061 -4.236560537603097e-05 -0.07203817578132234
0.04053431287537897 -0.006931626323812983 -0.07060185731594593
0.0407625460433781 -0.006055452084099307 -0.07154699071615125
0.04049086979198002 -0.003427336263055525 -0.06698416838030859
0.04040152729395699 -0.005505770918097121 -0.06610056338805943
0.04037456468743019 -0.004860377787097072 -0.06697290607082991
0.03646971533533527 0.009815522086156736 -0.049641872064932965
0.037369711626209084 0.010057237566243882 -0.04976441009018315
0.032283625207842115 0.006850773434062861 -0.0756393924371367
0.03855284365875731 0.009407405158370224 -0.06359783320283148
0.040262316253112905 -0.008102999362705829 -0.06460242927021395
0.04040653387107156 -0.005714292189658131 -0.06583537394044749
0.04036461891105092 -0.006357440824394328 -0.06528958430175456
0.04027717825343949 -0.007768708621103544 -0.06440619202246932
0.04028669593914542 -0.007643097836836961 -0.06460507131469923
0.04039575501486962 -0.0092648165840233 -0.0638157424437458
0.04048160597476314 -0.009784755442033803 -0.063898016413758
0.04059361614270816 -0.010512729700799419 -0.06418018574104428
0.04025765742903321 -0.008518845604692292 -0.06400194625175153
0.033676058075836166 -0.0021797684259489804 -0.07642407430905036
0.0333153444288003 -0.0029077834736445096 -0.07648534734934992
0.03207682512406414 0.009041286360630993 -0.0708788972872884
0.031733460235659365 0.009206497572400954 -0.06997148997857944
0.035789695197723806 0.0009205548512528007 -0.07654610150601686
0.035561471376490336 0.00011105199038815846 -0.07641012150780584
0.03527652879937854 0.001513711326761615 -0.07666555791555076
0.03774831840661171 0.009198681128203073 -0.06562884635000432
0.040263721673187244 -0.011176068314391253 -0.06669212595528655
0.040296326617091795 -0.009395840530890006 -0.06555061110384429
0.04033573914649673 -0.011106663805465666 -0.06620422345313844
0.04036015790921493 -0.010840817786973194 -0.06591123081039645
0.04038608947218817 -0.010010547429489565 -0.06531162696142744
0.040633245125621054 0.0023227192776435683 -0.044850718819659685
0.04054946884818786 0.0012311396165933565 -0.04506448902200701
0.04052899190709293 0.000875653191807139 -0.04497577027486789
0.04047394644387246 0.0002667731160289989 -0.04528846321786925
0.04061877757652214 0.0023026886208564754 -0.0451554593887282
0.04060920111079356 0.001707247238953329 -0.044431694083235725
0.03784810806216146 0.0005615664942301606 -0.07672474412293862
0.03766433864537956 -0.001097866729763459 -0.07644642232664708
0.03788395997343138 -0.002252075459678068 -0.07635112994846571
0.03873076840265753 -0.0039470608476461595 -0.07630252396779454
0.03916936787984987 -0.0038020802117614385 -0.0761348927578345
0.03931365220223875 -0.002908332266345451 -0.07601764080045342
0.039273275826930784 -0.0024269163940133414 -0.07600403733373298
0.039411458483015895 -0.0005729002709236345 -0.07606214918953062
0.03839967215260034 0.00667169567095474 -0.07571843018096791
0.03867963591569075 -0.002137597488409966 -0.07634043796808851
0.03867250055698804 -0.0023374280596857575 -0.07632638928989044
0.037966204515034525 0.0005765014371849743 -0.07671964696548085
0.04000917808716952 -0.009064399248573017 -0.07417726365789382
0.03972512611365868 -0.008428999110030306 -0.07459147522093215
0.040500950255765944 0.000272645244725312 -0.07248497570646886
0.040622617080500224 0.0006353514357265743 -0.0719671754792058
0.037961507144874965 -0.0036038173483000503 -0.07640593567637559
0.03804596300588777 -0.003668444599868025 -0.07640734433771523
0.04067048299427168 0.000484773012259563 -0.05822630720990891
0.03968289048747231 1.3436957207070143e-05 -0.07555593165904025
0.039685893637078834 0.0008559715736378055 -0.07546450916514275
0.03967028426362834 0.0007753380862923539 -0.07558087271556949
0.039798099880555944 -0.0010079728547006076 -0.07452283648995497
0.03980978612329532 -0.00043069649037940147 -0.07452252746276372
0.039585082477140016 -0.0005243768198646347 -0.07584055248864478
0.039622204698509175 0.0006259702518717164 -0.07575903801384948
0.039135893570405735 0.0016173596839496082 -0.07653558515222347
0.03926835802596734 0.0011999516932487508 -0.07626787545968977
0.03888361294144102 0.0013443593532536937 -0.07661980061535902
0.03827385428300408 0.0012626346377212733 -0.07672473529204266
0.03970847148143345 0.0012865522648539695 -0.07525814415737171
0.04031917083845579 0.002821351766005193 -0.061280682638706195
0.0403525935699417 0.0025272767836949255 -0.06119852144491655
0.03967756910370224 0.0019707782633731894 -0.075387196250085
0.0396610437550975 0.0024301409121219404 -0.07542790496707369
0.040303680540292014 -0.00845172217551486 -0.06673071869231384
0.04033234490385649 -0.008408939016912248 -0.06736206005370036
0.040272447652307954 -0.008660972186967084 -0.06624028358057821
0.04034714828900954 -0.007401989024801263 -0.06649224010700194
0.040359447920421565 -0.0066889946755783036 -0.065919674780705
0.04026388216979626 -0.0099998202779626 -0.0666233857170205
0.0402539610667765 -0.008798206257770046 -0.06596100091661417
0.04035132992806649 -0.008622876809576548 -0.06786628998965176
0.0402590962178051 -0.010781996266362837 -0.06682676356060915
0.034298959176220244 0.009135713546134313 -0.05100713535820966
0.035191509025866145 0.009411804219583068 -0.05102348757222813
0.03420501989614126 0.00908662627990564 -0.05140065317552863
0.03347109106305098 0.008834894418774435 -0.05187475536805514
0.03682169928242894 -0.0014824145976865058 -0.07629508070812907
0.036774953139950085 -0.0008575184921924376 -0.07634892278703254
0.03877365329869139 0.008442281245965771 -0.07402461641305058
0.03552985128479721 0.008804801699203993 -0.07338529099258351
0.03968860725819461 0.006139486556692786 -0.07183002450539566
0.04010910296278055 0.0028816605983445764 -0.07342478563937045
0.04029205246576648 0.002249900016730883 -0.0729779383455366
0.04036127433647793 0.0024633129532338105 -0.07267561007983922
0.036879263760111074 0.009394880663739323 -0.06390085041714874
0.03724810563771846 0.009594652028462106 -0.06342074383143476
0.040317282191905265 -0.010182609662827026 -0.06760947089899776
0.040471699941724955 -0.010182403485165853 -0.06968279645295916
0.04037500084859065 -0.010843484196481325 -0.06846227084936576
0.04040728484724236 -0.009911633594107285 -0.06878601902490693
0.04039945338690487 -0.009157170735173612 -0.06859202884200481
0.04034305379845216 -0.009123260612282339 -0.06783076496605198
0.03732546207852241 0.009209669578011054 -0.06720955750540794
0.03722569722697112 0.009167805373494934 -0.06692871479948265
0.035671516777445005 -0.003917599314863182 -0.07637068406516143
0.03768857095048554 0.009140813516819633 -0.06614872580415129
0.04060143338269952 -0.0027021181993616625 -0.06148081542344848
0.038901441809913326 0.009652510639403904 -0.052033611929230464
0.038137818123798205 -0.0025726692539025722 -0.07636708772839003
0.03738669395040737 -0.003350331438948254 -0.07639357577881091
0.03383063876207328 0.00947900130294883 -0.05717400284410597
0.034086140381261676 0.009453269162084041 -0.05654411543291671
0.0406782853557945 -0.004549126133510507 -0.07137277340945197
0.04067304436221135 -0.004615298184904439 -0.07134584238084578
0.03413378015023781 0.008909437357993573 -0.07176733196758193
0.035199712509146476 0.008955713193256182 -0.0705230786164382
0.03550149031904215 0.00959706555785686 -0.06213207485366596
0.03542939323890035 0.009527061057645454 -0.062450147943625564
0.04040828912630516 -0.0009176142569629515 -0.07303039338688537
0.03911374042561304 0.005780136484267276 -0.07627303260957373
0.03956908032137662 0.00540429635420779 -0.07199252991622906
0.03089363689642112 0.007347525243814197 -0.07550125448138452
0.03665636381997477 0.005940686035252608 -0.07678873771807941
0.03853574187353545 0.008874703157968625 -0.0702120798775285
0.038167413486742026 0.0096907879670801 -0.05754517410099262
0.038128971128194834 0.009783804907798198 -0.058078607616912165
0.037080052206079364 0.009800272646041278 -0.05248671908865757
0.0384347560145151 0.0064223067435343695 -0.07628492123904267
0.036486813878199624 0.00619522567551521 -0.0763954999268573
0.04054321280771244 -0.002556556159087559 -0.06705828092698261
0.04055958596941438 -0.002502209388921877 -0.06668879358387451
0.04052093316153321 -0.0028293167134086743 -0.06716944522293149
0.040555716128817906 -0.002379999529325395 -0.06704215353722219
0.04063989142461362 0.0013789153412742138 -0.050101338105921114
0.04050241837252478 0.00293246115240573 -0.04917490292288535
0.04053196858059514 0.0016824682488031117 -0.05090487173436599
0.03246878190458346 0.00507675396674027 -0.07698651156376723
0.038410906221918936 0.008994531649866192 -0.06623165490793077
0.03875831910996543 0.009229387671602193 -0.06748137104533745
0.03985615117755051 -0.006374752087349467 -0.07422068410710118
0.03902527617311774 0.009952521206166302 -0.04875340165592371
0.040605305811112075 -0.003983124958029686 -0.06433972478626102
0.04051942188168074 -0.004663129970163936 -0.06531820446004742
0.040670846975931804 0.00018211546477231688 -0.0662815815165276
0.040701112298868275 0.0004298105466015419 -0.06501436880388273
0.038321505601864536 0.009873479498423772 -0.054173664106601446
0.03489225930702875 0.005395443596080596 -0.07676180156716149
0.03838556437181326 0.009174154557013857 -0.06471511214230435
0.036804332575552726 0.008711698284510376 -0.07210522772153774
0.039637869506748614 -0.0032619397604738945 -0.07528884331285668
0.039564591890954875 -0.0035793424169912056 -0.07565489457458595
0.03957376503271187 -0.0033428398871787547 -0.07568014736351171
0.03731215590234892 0.003864473434095246 -0.07697252341782422
0.03708611221087174 0.003936726874057998 -0.07697467957890816
0.03941246948914291 0.0076140116427104035 -0.07462939396890056
0.03867881806655058 0.0023515433520648493 -0.07676635566434803
0.038853447715515965 0.0024559516822912127 -0.07675377724986361
0.037910233264605235 0.009898722569155426 -0.05180052724534394
0.040181172934462925 0.004233762617817857 -0.061344302584119464
0.04014586333468253 0.004123010889561738 -0.06047581454766026
0.04024117233201007 0.002896531267928848 -0.06072676398520648
0.0401930069371857 0.0036007669139936785 -0.0607157936406575
0.037682472280703094 0.0077914817389537665 -0.07513335471443054
0.039640131176846324 0.0035066486040612596 -0.07541585139455771
0.03977665804261829 0.003192603158896575 -0.07460970962969389
0.040590894804290525 -0.007261629645735569 -0.07090744602620426
0.0407744202761043 -0.00764814253905895 -0.0717099687618862
0.035954448377639836 0.005492748834389768 -0.07704338733513702
0.03382861041200224 0.009578030859737555 -0.062490986705721605
0.03343081332066975 0.009598652476297057 -0.062409449099581474
0.03359386098981306 0.009627436615545007 -0.06218241935510072
0.033723680270958824 0.009542929398923908 -0.06275304251633254
0.04059169427169571 -0.0034509059619508495 -0.06376848159489154
0.04058842638030197 -0.002658661915636757 -0.06377630411703149
0.038425214283072405 0.009274242954532946 -0.06749679404954007
0.038045334707046186 0.009304822677490212 -0.06782544593753169
0.04064218850828068 -0.0039812390955033805 -0.07261021429079467
0.04074404226915107 -0.004553361206505548 -0.07233324418704243
0.035411949806762065 0.00956355034693199 -0.0570992580564534
0.035828326321039675 0.00965885409069265 -0.056584845235210464
0.040679066507051304 0.00017738951551156724 -0.06633408945888554
0.04078993729949028 0.0008733727249331494 -0.06714113179148998
0.040807778963747744 0.002054471923986304 -0.06741968991342488
0.04066001046742574 0.0004477956910290843 -0.06624962197509686
0.04081513448038441 -0.007972460965398378 -0.07202419523918488
0.0404460747175301 0.008222219762273546 -0.04807802116317769
0.04042186036126027 0.007995857706843074 -0.0479704749684053
0.03820980729170826 0.010083728308825786 -0.049177163329565905
0.03660115654189873 0.009567998288072243 -0.06252445303180565
0.03766765816516903 0.009829962744312571 -0.06163762438188978
0.03132957454092003 0.004595220136306163 -0.07696825071534114
0.030156338633867713 0.004365346281600757 -0.07690355704333725
0.030201162907487287 0.004450513810269518 -0.07692279507320475
0.031452423617236346 0.004810384595977352 -0.07701696961654875
0.02932124064243946 0.004012981435975974 -0.0768160800323017
0.03588196935955837 0.008287842845275662 -0.0747546317303476
0.04060126389780465 -0.009953704332242465 -0.06263669379429418
0.04057509511313469 -0.009522291213237798 -0.06195712222073898
0.04048861485193031 -0.009163498550261504 -0.062261690129313665
0.04047155081695576 -0.009213906623804467 -0.06261151612847685
0.034475305133328284 0.009409590783452885 -0.058457012981361606
0.03386495677019882 0.009472924034781815 -0.05745841516566212
0.03466049922374249 0.009365032180020924 -0.05908507264829083
0.03938174048377407 0.008537103227895138 -0.06374644467837315
0.03929320132490511 0.008579802483777085 -0.06405734999460945
0.04018550308914015 0.007894628692784093 -0.05225276051642305
0.04030848986777691 -0.005006871425160134 -0.06832273960128435
0.04034722024927886 -0.004711440285129594 -0.06878211305163652
0.04030601887635302 -0.00519565496947391 -0.06839991681350786
0.04056779296340881 -0.004695881448564557 -0.07079057652226728
0.04053230007857201 -0.005943703977073233 -0.07065787561331263
0.03707687795214751 0.00664722291007254 -0.07588654082786946
0.03822327401774944 0.00969999865878056 -0.06307823618687576
0.03978087514449217 0.0019596385231198054 -0.07464688928120597
0.04001213252770652 0.0011551613733437093 -0.07403522130906812
0.03952005778864022 -0.004340998920573949 -0.0757189298302202
0.03981538941432811 -0.0034372239934999578 -0.07451411194987839
0.03997897875317133 -0.003105522437051977 -0.07416541406085794
0.035969016151292575 0.00980519971715637 -0.05313678425395876
0.03572832378864254 0.009706898268212907 -0.05315090981110313
0.035748829091338405 0.00965158777357401 -0.05269323809223835
0.039956959391049915 0.0005585964522342979 -0.07420757271098159
0.03999389557267014 -0.0014139805265854424 -0.07404557860109834
0.039853407218181765 -6.195866982026417e-05 -0.07448319346962479
0.03941152695903716 0.008116532065465712 -0.06882520506779403
0.03950656846160159 -0.006810828162954402 -0.07522316457483545
0.03999502944285538 -0.003923852485850038 -0.07421602780256284
0.04086867420153148 0.001741493844502845 -0.06919416433640646
0.040870142085955165 0.0011756305980204864 -0.06924065301291087
0.040887774835884426 0.0021774430100932464 -0.06836728449741775
0.04088721270972083 0.0006175946609519638 -0.06867562826399438
0.04087997212017433 0.0008119029659862088 -0.06892306761829982
0.040848687967688806 0.0015131278065892166 -0.0700175625587512
0.040824627321585996 -5.569129995161981e-06 -0.07102636083377498
0.04083541099567749 -0.0003749337091715933 -0.0706652473045827
0.04087578404730183 -0.0004863930088860231 -0.06932332605803462
0.04082632622284827 0.0008207454224040746 -0.07097646375999732
0.035002996893795955 0.007284385890857753 -0.07560576131325113
0.04060325773076852 -0.0015860841279996844 -0.0451950753445763
0.04057286054873297 -0.0013638648118056993 -0.04559246877761871
0.040510580031350454 -0.0006447789429152564 -0.04503256430164078
0.04060155209064331 -0.0014393288027609865 -0.04451783807599799
0.03969308311489732 -0.002800266709283898 -0.07502295045361468
0.03972662052777637 -0.002130608004531496 -0.07493656785591261
0.03968888164296236 -0.00148482948605936 -0.07554103974013292
0.04011591999890637 -0.004675124159630172 -0.07395733446104595
0.04075040094733578 -0.006362179385353578 -0.07320295846283355
0.03261170987764708 0.00895072590462785 -0.05501161551231133
0.03311831373011212 0.009061029746453524 -0.055059916202589765
0.03368835106279974 0.00918237841823704 -0.05509747151103067
0.04101287028684714 -0.005738037919079578 -0.0727357939551717
0.038291704220430954 0.010092973499096667 -0.05020048293196199
0.03226748742006089 0.009616883729466823 -0.06006855848396496
0.032035548876803224 0.009656867659140773 -0.06006232062868569
0.04088738081147033 -0.006004805790461492 -0.0720245990963178
0.04048011274270015 -0.0035973157118821056 -0.0696264544691439
0.04044297269339327 -0.0035927543961820564 -0.06821881241425906
0.04046502460058815 -0.003746616443293191 -0.06985269066528461
0.035097129883097974 0.006053343914589989 -0.07637288247591985
0.03787890768344028 0.006750533491217756 -0.07562030057454967
0.03143005838148506 0.008735987144968618 -0.0728828257537789
0.031162791210306698 0.008749383615626253 -0.07303942416965672
0.04060398730935415 -0.0024487749258557817 -0.06583699479195729
0.040561462026130965 -0.0031409089403149635 -0.06654322245310905
0.0025135704345408518 0.004978853280673869 -0.07636470133132381
0.013418052651342346 0.008921963407500722 -0.07360717190442703
0.012708199806467717 0.008967873847874931 -0.07374606806490569
-0.004072221027406435 0.0008593639862209139 -0.07690202676104835
-0.004740946794806139 0.000743002117314193 -0.07698334471656723
0.015778058289956723 -0.0031010731302205143 -0.07665518360344432
0.014192639834842176 -0.0035293720185879704 -0.07668170184698522
0.014442180863010648 -0.002942279847729239 -0.0766799386047152
0.011943347717147217 -0.006912545731347753 -0.07649747708086216
0.010862076079539474 -0.006538408749360501 -0.07653410517013004
0.011564147815066813 -0.0071014139987303024 -0.07644561978352862
0.011022285070243403 -0.011108353130052168 -0.07629011360323847
0.013126693916274686 -0.009161714818366794 -0.07637358699691978
0.00015859197721408198 -0.0024365467904913416 -0.07647799773838106
0.0001888745961448617 -0.00263286871553449 -0.07645810748080296
-0.0024082816560435536 -0.0004973019923135708 -0.07661087323657073
-0.003040897892176944 -0.001525199679966186 -0.07659591517425277
-0.0021092750520856005 -0.0005605594386371234 -0.0765494677555717
0.010490071170777661 -0.0062947032772756135 -0.07653943898655138
0.012224700804205273 -0.005778698378577316 -0.07646412703558737
0.011586395357334068 -0.006512156948922736 -0.07652665839108935
0.011758174620104516 -0.005801005138311304 -0.0764769216355598
0.0025289988367246125 -0.0019090289495330768 -0.07660960768700883
0.004271008801781015 -0.007055756601856256 -0.07635682505134228
-0.002255153774266281 -0.002669988199261118 -0.07657708350658193
-0.0017671303847996145 -0.0012539207424158965 -0.07641477649713102
-0.002185978662772109 -0.0027663886796353795 -0.07657682874705625
-0.0023656935483944153 0.0012425548371189513 -0.07679684900801886
-0.0021002798618452233 0.0009551393793910883 -0.07680028353339598
0.007908343841160088 0.008331090922205627 -0.07516111519176596
0.005412543131743927 -0.010337708587813053 -0.07633408019606713
0.013467054546354022 -0.009420724589766762 -0.07641353711921539
0.007455975195551131 -0.010852143531794119 -0.07629087790233063
0.001840774682224019 0.007012549107060619 -0.07592802481838426
0.011612806075197815 -0.00836930570186704 -0.07629906645147973
-0.0012536321588734788 0.0003102051167247269 -0.07669120534451386
-0.0019569460378400403 0.0002553542854882863 -0.07673140409604776
0.005627252103889114 -0.009614054234583419 -0.0763276016732302
0.012555961317861733 -0.016683222845330133 -0.07571357123100889
0.011976638449792226 -0.015668991093973246 -0.07586765085539689
0.005465287287367677 -0.015376871562743017 -0.07627980162804462
0.014653108504766775 -0.006039865530773686 -0.07643740045299222
0.013956604505545896 -0.005645365267787924 -0.07639011523698047
0.009064021903181231 -0.011641698297939297 -0.07634984649278068
-0.0029721414160776703 -0.0007042726526096151 -0.07668062500322313
-0.0033355292970298133 -0.0005967580088497037 -0.07674605581298877
0.015217687553663616 0.003815507577462136 -0.07645392291944336
0.015209387830615088 0.004403559958588599 -0.07632088817553098
0.0041010063856098825 -0.01623728826521479 -0.07592734830444958
0.013025089700224023 -0.010742957613780801 -0.07629583049239054
0.002962397574035526 -0.0027452410196967805 -0.07669952761792492
-0.0008414014002364586 -0.0024339604435468804 -0.07643878010607766
-0.0006902793941186471 -0.0022849624403783794 -0.07641271755325574
-0.003740313339564643 0.002181940707668602 -0.07677953508820412
-0.0039186101004244234 0.0023027252652861045 -0.07678675978756909
-0.003926388559655273 0.0014402149039866017 -0.07686029240436848
-0.003999659439999277 0.0013007073509258566 -0.07687922007526812
-0.004561672993020332 -0.0010410020683007588 -0.07681654826650505
-0.004461252216512589 -0.0011029840188069265 -0.07680007837738803
-0.0008029425569286528 -0.011363838220501809 -0.07631604124073438
