-0.012528055025150725 0.05116798170511064 -0.03383826074222553
-0.0123928153403089 0.051656722505524735 -0.033917882805862325
-0.012935833900023957 0.04843252277195622 -0.03320483973933145
-0.012287626184002462 0.050910523269720835 -0.03382861671714661
-0.00773023538238859 0.054820753191730826 -0.034596975100031416
-0.011833494747716073 0.0512115742527223 -0.033987361947796356
-0.012717426379990276 0.05086078361556809 -0.033703182962632784
-0.012454168347456055 0.05232704859052506 -0.03398431238477539
-0.01201699708202028 0.04928451703752103 -0.0334888386406785
-0.014180452868002446 0.048024578142120446 -0.033313032124097086
-0.013721107354268555 0.04813508498113471 -0.03337652863046794
-0.01445632972331646 0.04833540878817155 -0.03298980126820075
-0.011145703379251415 0.051403468134610907 -0.03420153361392598
-0.009974934877642904 0.05246199541276787 -0.03459499546585726
-0.013081711090063744 0.053057662119285434 -0.03378659870756784
-0.029602413447664316 0.02431692433767849 0.018426123666980102
-0.026873212045860906 0.032677148081758 0.02262537685543963
-0.031300264143443376 0.02685007612884778 0.015948474309676008
-0.029517309126714554 0.021355937426946237 0.018237632706396913
-0.028000792255032367 0.03535406185411739 0.020671251392260042
-0.03151623877316511 0.04265927343527114 0.01497461576655904
-0.028159297832321 0.03324442617581972 0.020529252098065658
-0.030394230228509928 0.03261324123084319 0.017636893129089677
-0.03010598843451862 0.03320653640364156 0.0182466667647781
-0.029860134580072917 0.03319417088743917 0.018445747346200213
-0.029748183685630154 0.03430661028391284 0.018692175629450348
-0.02996214497002747 0.035065126957569165 0.01805799654087864
-0.030001892833998 0.03578048832457531 0.017593260082871404
-0.030070026899289976 0.035277811728274155 0.01755377795718327
-0.026799796514410588 0.03194325717780373 0.02271228636688709
-0.02972510163368565 0.03466697206516259 0.01869825966996635
-0.030229635988689545 0.03435528742255472 0.017438444857358425
-0.027568238013487956 0.034108491870219776 0.02149309006775301
-0.02826777489955158 0.032605704208904775 0.02071757115326174
-0.028894524559858026 0.031816287692503206 0.020261145772039007
-0.03090627999291385 0.04168387657304226 0.015320692735276732
-0.02609312869722958 0.03026246734544209 0.02356996072097048
-0.026385315071707292 0.030673744059377027 0.02315569772196227
-0.028492756811164033 0.03862217378022299 0.017419192301802548
-0.03221998641285018 0.023415661730479733 0.014144606916235435
-0.03239502890113897 0.022766111817193693 0.01313219363543584
-0.029150366144264576 0.026277467572428673 0.019309665154698112
-0.028369260712388697 0.03975390614704636 0.01695779930184005
-0.03088264892257065 0.04214229257614818 0.015454213442232256
-0.030384617942748996 0.0427550183702349 0.016060992794598983
-0.02982771388819311 0.02824109187614339 0.017964893007991704
-0.0299289396559053 0.02470437307387558 0.01816234142763022
-0.025835689881094977 0.03286671514302992 0.02357054365980462
-0.029553104513735006 0.025879664346746902 0.01860783808350157
-0.02992916606048656 0.025642121403222223 0.018069836144679177
-0.029039962637669572 0.042186649951582486 0.016713551256324604
-0.028487547435251642 0.030063780764200233 0.020656204888773125
-0.02808827779054014 0.025229279948733918 0.020556299242258234
-0.02804708155257607 0.02321863878431674 0.02065722015982644
-0.030969738202848558 0.04438532908082468 0.01615145487286463
-0.028460858712656724 0.024098580268752556 0.020026361116745873
-0.02627554332858532 0.029295284029588625 0.023326503563999654
-0.026502612968200945 0.02962311618994672 0.02305868230619173
-0.026866368047738915 0.022737374724517378 0.022325551092117334
-0.02795649231576141 0.027539408115696405 0.020942211144734116
-0.030169658304164827 0.026517874382820265 0.017248882596906955
-0.02893413511409965 0.035913945226705796 0.01920027965221206
-0.028804366089871893 0.022565056942951165 0.019666772464354384
-0.031420850515471145 0.04289864343585602 0.01519079814311118
-0.03191893845358157 0.02229199232433471 0.01455356133973109
-0.030416877530420425 0.03819577012594645 0.01605488247927219
-0.030415298639654812 0.019346473080831334 0.017042876298083886
-0.028368044853751002 0.03601446632623058 0.020070509242575578
-0.03046948884784167 0.02191940834247393 0.01706818406467115
-0.03030416201529906 0.025696387843676238 0.01694654746740214
-0.030499158564802214 0.03766807662426739 0.01618474679522562
-0.028181141565364907 0.037389820053716674 0.018787237230547506
-0.030138390394118156 0.040058052278445555 0.01565816251650288
-0.02780014848162757 0.03357277533365004 0.02097697203184655
-0.03106586662434519 0.02595182840374628 0.016094961238344124
-0.029162867093944233 0.042916639444715354 0.01701039138429907
-0.025879676645463714 0.03193099147884233 0.02362940557967138
-0.0248713600767781 0.032285792868573415 0.024788447302688636
-0.02939475085019812 0.02416055925020675 0.018816541442878285
-0.03193873066759991 0.021463761624528628 0.014005302418162079
-0.029425138707841757 0.036911743924998325 0.017919950666410212
-0.025446060264914798 0.030187643777195506 0.024330449480801708
-0.030100551358869118 0.02526047109685955 0.017761395896814546
-0.03032457004283895 0.03017454612631152 0.01786593830317968
-0.027985856028927447 0.023542213680923872 0.0208031801168301
-0.030569021329947724 0.03224063565384319 0.01710060564871556
-0.027975641538242363 0.0355678771452132 0.020674749303564346
-0.030827070449121793 0.03070262581966983 0.01656583829281201
-0.03096168115792068 0.030120952229944757 0.016527490043917317
-0.031916699389864814 0.018116983202509332 0.014701594382292658
-0.030858357186199694 0.030756997048686188 0.016216913274220403
-0.030040561159279052 0.025514137891981693 0.01782317788311863
-0.03065871740794119 0.01777522206542018 0.01709672625334066
-0.03229661100916145 0.023285478324889388 0.013549438310973525
-0.027295956180993893 0.02941895822658882 0.022002311290080737
-0.029768586331879995 0.026968556906294586 0.01804960193242615
-0.029826397414700882 0.026960274460092547 0.017774924049101838
-0.02977537207724239 0.026472986924230633 0.01825281226640533
-0.03109810649965726 0.029750076163585076 0.016161406137277137
-0.028813930688201796 0.021143902884182955 0.019600196537616042
-0.029789929494555056 0.026381674728047103 0.018219175507670726
-0.027779573117197764 0.022292537185256287 0.021224873322958568
-0.029837452456805864 0.020372203792811027 0.01766713284914527
-0.029654166969343497 0.03145220308583425 0.018455973239878038
-0.02874490164501976 0.031210157026403697 0.020797449719211696
-0.03106966815639301 0.026719682827435285 0.016213683660231484
-0.028273754749394572 0.036830134452383645 0.019509130214838216
-0.030572049596703055 0.030917163063506472 0.01735263139114116
-0.030876353802415938 0.029337750947071438 0.016990219783515347
-0.02709643232480712 0.026630603976114796 0.022182407566386654
-0.03055130044776045 0.03074985882308997 0.017392438142745992
-0.029973982221541497 0.031006518590372394 0.018256514255926424
-0.030892727064618406 0.02975735420359313 0.01689027917058295
-0.031366979589788194 0.02804170180300492 0.015892451023546625
-0.030597915172036666 0.021927871292307673 0.016866915311851118
-0.029571826065733744 0.021947378109469992 0.018211610503897694
-0.028761281847636717 0.0202115736605702 0.019519128995780483
-0.03261798796169674 0.021687456175322462 0.01235523456835424
-0.028931300823169515 0.03053400915174824 0.020283543627212467
-0.029227638685074307 0.038288576047765525 0.017059463289412706
-0.031560073067938406 0.026976016589115442 0.015504240671681789
-0.031502865581777714 0.02498795407961448 0.015434225938940947
-0.02794717991667364 0.023282582186249175 0.020881959644818586
-0.02928305994396998 0.036244139683295755 0.018632879621081247
-0.029956161912559547 0.04078740200609885 0.01581445530814993
-0.026577995755073375 0.02200040230452836 0.022660406359429237
-0.026547390693023434 0.02471277472985058 0.022815968447611305
-0.032021915674940074 0.04433299375311135 0.014939674762444632
-0.030579261831993238 0.03713315377494437 0.016254590708393746
-0.026950684063174104 0.02642251349083273 0.022372065551117808
-0.027389814946606854 0.03368610524099341 0.022041410951699137
-0.030102267592669547 0.024071459137901992 0.017961877183725918
-0.031002738079447506 0.026282555652831958 0.016202177327006434
-0.031185906743940308 0.021292914107820676 0.015517510583976303
-0.026097784320919547 0.025096658331649143 0.023305061454409054
-0.027067985777345205 0.02838052487647021 0.02219969473318487
-0.02958820047929481 0.029332950276590684 0.0186564611683373
-0.030498814591334925 0.024718196921407844 0.016716565717040742
-0.03207138789033546 0.023102489173306658 0.014603523030825601
-0.024966978300532433 0.0327175245101478 0.024611274394868307
-0.025587967629026265 0.03262024844876641 0.02389486436732071
-0.031397618070946785 0.02836398634229386 0.015241145628959497
-0.02841468159898085 0.03820091734366238 0.017750631448584703
-0.02781465879265478 0.025485737673254405 0.021211842102360157
-0.029413050115109633 0.03756907961904396 0.017407387333061144
-0.028244000207064298 0.028551860379863733 0.020341865831386613
-0.024806020413239385 0.027624662631274395 0.024633806037538637
-0.027052009383349625 0.03961755034013928 0.018012607396682957
-0.0261188054424817 0.024365236205390328 0.023243624037391903
-0.028085407269580094 0.025739326227086346 0.020624565548356386
-0.029903117550283707 0.04290616463261226 0.016504998726643787
-0.02611276184297886 0.028867095945799753 0.023434446505329443
-0.030430177072390787 0.037273143485800075 0.016434574669129315
-0.030636954279417813 0.02399787676333005 0.016784452209236335
-0.029263224799048852 0.04178506267456407 0.016409106525940423
-0.026395416888317428 0.029182852956732865 0.023172380757289567
-0.028322548119910126 0.03097806510089968 0.021165928573713553
-0.03002282023856024 0.02276576144292748 0.0178142269224865
-0.030407012483234297 0.02469603151700903 0.017240158476800008
-0.03097411771078287 0.02299481116785338 0.016488602612077914
-0.029455243694171025 0.030682111002984028 0.019356825046839794
-0.029601728894332054 0.029229327065654846 0.018606871702891027
-0.031067419729798422 0.03005699132079006 0.015610419654455516
-0.02619970197616211 0.03223440818707267 0.023226094767737782
-0.03238982478656254 0.020502091319397616 0.012789129028807045
-0.03174254768021467 0.021031786008679262 0.01420040043383983
-0.028078238667731063 0.02690672269000398 0.02078239128396725
-0.03263335349915045 0.020749991432427426 0.012256790369185335
-0.02765908358438056 0.040279287061669014 0.01741778980847898
-0.028809150230448298 0.02449859711272575 0.0196752651472983
-0.031543585514996864 0.02024942897895058 0.014749152485637539
-0.02582137945328951 0.027645135148260128 0.023568221360222
-0.026004930357384083 0.02773598986563538 0.02338470210925936
-0.030145022140523857 0.027577536641168614 0.017467522362120385
-0.030386770030542094 0.018170840400929787 0.01707649011364459
-0.025570146116546538 0.029269992352446 0.024089723898417077
-0.030152465883933 0.019809330347947296 0.01726216352288458
-0.031795006297938896 0.020071188578785284 0.01433011789944309
-0.025954500191322748 0.026336686463894973 0.023496285578103616
-0.025676984981537202 0.026800335290719006 0.023749396698606654
-0.025943814396594392 0.026504555481478564 0.023497518277504806
-0.03140996687375048 0.021176833554200993 0.01499671245071268
-0.0316713104157814 0.018834644402148257 0.014884074740584577
-0.030055074516451383 0.01985168232461455 0.017454102945332547
-0.03064566094346236 0.03847286573838786 0.015451095958852058
-0.031501524278743295 0.02324846452003071 0.015645921942767527
-0.030310301765327896 0.018845915502069654 0.017036510176845047
-0.031516522580552854 0.025775496931721063 0.015553020953586301
-0.030581292559683185 0.038572663705777055 0.015503632639043642
-0.02708540500646129 0.02360138209446979 0.022163865199812737
-0.02814506425781646 0.026574199909618814 0.02061641571771026
-0.028277431486216822 0.030248378458305566 0.02101373227444119
-0.03208911765060421 0.022050442447715292 0.014100987259419615
-0.030257294791664426 0.03982686325886859 0.015566827902113863
-0.029484981625944328 0.032812462543064344 0.018683467258146246
-0.032208132864615574 0.022964747343233928 0.014209188252760768
-0.029271000297841958 0.033478148095500516 0.019073975394722015
-0.027690057088533667 0.04168368883198392 0.017551453638459943
-0.029268120431518628 0.03374793361586651 0.019093252102438285
-0.029856982583856367 0.0361392899578062 0.017787592082332118
-0.030697276840349546 0.027548477957667898 0.016863606432374792
-0.028894141204921404 0.034049078304419486 0.019443379990671354
-0.031270517063256134 0.029054060179234766 0.015535491545096623
-0.031591441830415776 0.027400500739268092 0.014945039506528611
-0.028683999498234428 0.03999192136587673 0.016646481169454955
-0.027751497479696092 0.032395399389748274 0.021892755886826498
-0.028712716821816642 0.040588742291026755 0.016599852228037365
-0.026985189729868006 0.028410737414988143 0.022312858376026798
-0.029319349263654138 0.04166878713982515 0.016347349081622317
-0.027513454907102927 0.024661592925130295 0.02168396654063483
-0.026963475622973666 0.028669140545594027 0.02236362599997698
-0.03067205236362603 0.028531120226606026 0.017175058593557523
-0.02932547891926659 0.021667951866400133 0.01903592403844241
-0.028727261856174805 0.03186809119381327 0.02082488989730836
-0.02917879688961837 0.029042905742111935 0.01909178321037016
-0.028138526638108036 0.041190763510659006 0.01707852317885261
-0.028409434409492475 0.036816796648941046 0.019358147888272906
-0.028000511545934945 0.031480340905030095 0.021617786894539866
-0.02714754252678736 0.028132994819785553 0.02211973645551805
-0.027129156291038483 0.026472091416739556 0.022147225291913365
-0.024806800555600042 0.03015617654070946 0.025057860159500404
-0.029224702389868525 0.028610763036779587 0.018873329443612155
-0.02761867639436242 0.025880852334282996 0.021580690842236558
-0.025844669374191408 0.029580927192815593 0.023838981198642646
-0.027181607526271502 0.031205871507269792 0.022406168654102648
-0.029299487739258463 0.03508493229325134 0.0190861364284277
-0.028558262030420833 0.03574829477875853 0.0199274151469397
-0.029211209039197616 0.03167312190401013 0.01917815323466717
-0.028985673102626567 0.020350853583134536 0.01930732328780647
-0.028593014705771733 0.03872359296199763 0.017273318148891374
-0.02946994775141097 0.028391710951668914 0.01842218321176012
-0.02872730111581249 0.034570579157259876 0.01978889848250735
-0.03178837081357819 0.023138703972239057 0.015220250515695512
-0.03207345890008936 0.04395936546581069 0.014700893711650752
-0.029617946456932057 0.022898014627642512 0.018305575860902784
-0.02705557224568033 0.024473705577066036 0.022255784361876658
-0.02606182288103993 0.023821404172856105 0.02331617746738286
-0.027699967277443012 0.024288790604010888 0.021359043900278027
-0.02554876809858049 0.0310167291543097 0.024157264612036093
-0.025436779296475594 0.030939723590495884 0.02430594501979367
-0.02916082836496363 0.029554247336853506 0.019359610287670043
-0.02663511765607451 0.030331690869444077 0.022888011153642578
-0.03090861047742522 0.021275220757177124 0.016124271477552625
-0.03035873746080129 0.04070479026301944 0.01555814243334259
-0.028451820602687347 0.041000511815614864 0.016800826088530507
-0.029215744293096445 0.04149764066343129 0.01636691463376079
-0.028100381979546066 0.032870536612624006 0.021117642696591034
-0.026269061595371318 0.028215466774905024 0.023181566319676453
-0.028353876333764648 0.0225965414627758 0.02008623593840134
-0.029241916157890565 0.023874162005026872 0.019088397813632998
-0.02983219675281043 0.023305000076310943 0.01809532065300397
-0.026607169904252527 0.025301194089478327 0.022770011112800904
-0.027863303954883872 0.028926280762398105 0.02095694171560423
-0.029438445706352526 0.03912059436733464 0.016389597874985416
-0.030822817511159364 0.04030973459546684 0.01498994338666818
-0.031733148235008585 0.026688731931645365 0.014436858551267799
-0.02739238105836166 0.033166335191494964 0.02218662379650823
-0.028462586804013805 0.024500333892922457 0.02000947577461899
-0.027855361383192577 0.0280127054486788 0.02121291544990957
-0.030852769489476267 0.028206715567998857 0.016840436238520017
-0.02891719794096992 0.04072106982926341 0.016450338203770343
-0.027335992240628576 0.030928625839000575 0.022215693450443365
-0.027254487714222713 0.03149174119346783 0.022345187326823716
-0.027662989235174806 0.022467982890858315 0.02141589461836403
-0.0309856793058534 0.019474457952659383 0.016022980415601126
-0.027015173112131287 0.039240124305243027 0.018145058541679967
-0.0286894399181699 0.03646852015108399 0.019322262214122917
-0.024269132431224007 0.029979179005963003 0.025569604000833746
-0.03070710156999075 0.03861505302021133 0.015230073318463532
-0.028213650202684865 0.027673240754883095 0.020465385720330232
-0.03074189963415394 0.025531993726156665 0.01634691408842714
-0.027626951968216396 0.02498876649247437 0.021522050446276437
-0.02930927318424831 0.022968618269164815 0.018928129239074897
-0.02683623881005824 0.023541677199209417 0.022462597492053718
-0.030190836069026783 0.029388184299613127 0.01791674306191503
-0.02501143893795661 0.02839144585237051 0.02453804492692486
-0.027001578982706925 0.024687004373834705 0.022336807176125947
-0.028666204817692706 0.036253869751755916 0.01947435509482036
-0.030064839284939394 0.019429825610112715 0.01764447471741097
-0.030186210076387523 0.028819126247840835 0.017776289744122032
-0.027691360793112088 0.023358350228222337 0.02137648976538154
-0.03119318201581693 0.02226555751779888 0.015887603432227032
-0.028608922251650477 0.025948666685796748 0.019858605786356284
-0.030831635500453973 0.024335744750413425 0.01615309042961459
-0.027381158738352927 0.027980110653930863 0.02184406648187782
-0.029473721915567883 0.04340852154777552 0.017080848524775614
-0.029692339889894642 0.030171114319584053 0.01874731080441145
-0.03042775361960247 0.01980614987927891 0.016798611812876195
-0.02861402348482294 0.042287087914872644 0.017072136369828586
-0.027123789253215787 0.030927084764559357 0.02244841124839301
-0.027983555069950376 0.029651838583777748 0.021119787120921284
-0.027119230193691415 0.0270540211974154 0.02216328241301069
-0.026645609600107686 0.027589450963666898 0.02269666596422405
-0.03155021713526917 0.04220109101815309 0.014738126077915642
-0.028459285129899117 0.021995887693795325 0.01995514417574248
-0.03119938992676737 0.028395871638917772 0.01628477272895471
-0.031764173434161234 0.025410446418044116 0.015153459785616347
-0.03209122503300846 0.024538900310707237 0.01423237605263828
-0.029059478026114676 0.03649145397131069 0.01880774545032311
-0.030398674421114415 0.02776390244260464 0.017263392427796898
-0.02901523614983114 0.02194374239276193 0.019476931469142977
-0.029958054835509323 0.021551649371420734 0.017620371317560918
-0.03201994236787169 0.043431114135877705 0.014547936823759707
-0.03021032680590218 0.02361876324843531 0.017802087844498757
-0.026519772263640398 0.023423184522186093 0.02276549096479406
-0.03151507969058556 0.021957290886383214 0.015144316453538592
-0.028248625817011493 0.021086236684690302 0.02019068192727737
-0.032419172961876935 0.022643474621111805 0.012988082499793184
-0.03206761291429322 0.024164793204467783 0.014580033130321121
-0.026329421297283245 0.026312960839969354 0.023082622321482334
-0.026507654514450054 0.026948934402138594 0.022861432703244405
-0.02817781860053512 0.02554029155282171 0.02040882465685756
-0.027993794685996685 0.034275328601172134 0.020732421866611547
-0.028734587301184642 0.03199562341663902 0.020562521767826455
-0.02999451150731305 0.042247583016761056 0.016168917502697493
-0.02904677519785695 0.01873818038399715 0.020159653976619056
-0.029525805827187182 0.030164028350033494 0.019048722252371326
-0.027262604933771032 0.040159719642636205 0.017731166256320045
-0.029056828135833903 0.019213906586284704 0.019219056318714803
-0.029143219023421568 0.03239624289083434 0.019145851295010764
-0.028620911705502718 0.03215765304434914 0.020462973695569008
-0.028219986872704373 0.02346536038100245 0.020344862959248887
-0.030901200936288394 0.04092800393845095 0.015096390373016515
-0.03098783611326343 0.027867132287152412 0.0165759708640608
-0.030786608346169843 0.04324236815658469 0.01591639087978131
-0.031088580035842483 0.01975160583002799 0.015828473911055494
-0.02824503021806611 0.020499713436884667 0.020467398639817082
-0.025324042812261967 0.031175719063007555 0.024412138097545267
-0.02499199182189784 0.031771509471278304 0.024719620576136515
-0.028126903921974283 0.021150431145929405 0.02070812547442914
-0.027615111220213113 0.021100522112102036 0.021448821637298165
-0.02880233887975437 0.033093342245412376 0.019689776403873316
-0.028184879913122674 0.021186682108288286 0.0203470578420349
-0.03032304249040715 0.04362589738310893 0.016449181049950395
-0.029226927789764615 0.01929434471702057 0.018864023862570974
-0.02995023502913744 0.018243959231968768 0.017954097581531783
-0.02742535496899481 0.021739068971517936 0.02168913810964667
-0.029454639290090057 0.021031965510495312 0.018845747811182364
-0.029251810056874338 0.018969148606161546 0.01930607072012096
-0.029617784365187822 0.01859983644085697 0.0188050909192036
-0.03012651417569477 0.01796713699001833 0.01847592436427365
-0.029646718958262812 0.01832902637097524 0.01940834221738571
-0.031208371109836704 0.0439511294782473 0.01575234123261357
-0.031431135812677716 0.025455502026460596 0.01562588361606924
-0.028898841924024067 0.01898492650682172 0.020218058863592986
-0.031991328649153675 0.025239575163418765 0.013988262993541039
-0.011091668215971484 0.04149378267988564 0.03358579617501609
-0.010291871833565622 0.04086937179392075 0.03381206523054244
-0.010747380047518726 0.0431491169301767 0.03371843176186659
-0.017761507645509832 0.05328295768071595 0.030880758609900617
-0.023479311851382773 0.0477605703827288 0.02585706548306829
-0.023271047641717064 0.04813906575600939 0.02607382235474747
-0.014041086081314276 0.05159937108752514 0.03277472100421976
-0.013686460760372101 0.052093051281997683 0.03298468843497287
-0.01699567472970007 0.05276869995804532 0.031305254497453
-0.01566324945506229 0.053531558856192665 0.03192340204872266
-0.01514002330346268 0.05220869955990195 0.03214453015507841
-0.01475413252578643 0.051729838804577474 0.0323440234695032
-0.013884113348407978 0.05183436381430451 0.03288217297173582
-0.016286049920936605 0.05279936035581437 0.031719276804996276
-0.022594636968960927 0.04707208239665033 0.027027235371383306
-0.023031062638749804 0.047711154821369464 0.026213665609332183
-0.005267014970153203 0.052894916731246064 0.035378021995641315
-0.02288479702772821 0.052838851204872216 0.027464985893108015
-0.023224828273774128 0.05347703126560424 0.027219909631435793
-0.024355574286950753 0.053450214807549516 0.02613929775802943
-0.017315889384480317 0.04392770727099978 0.031505235416196105
-0.021744742274628377 0.04612363123680428 0.028741749001914292
-0.0012136751895849849 0.049675693972394915 0.03580029230987543
-0.012524204166069091 0.04706892872489539 0.033455737741670634
-0.023922894561019575 0.052883092513069836 0.026633037257017156
-0.016660449734425906 0.04517461163488396 0.03186961891418772
-0.0115968485495596 0.0454595361184025 0.03401231510934121
-0.02126315759159896 0.04634845394517926 0.029264787056337876
-0.021889970826088147 0.050034164962451264 0.027506592526424123
-0.015345224753147955 0.045985217745074136 0.03257478321896531
0.0009559300114078214 0.04879107648097349 0.03554552253098449
-0.020336907366992646 0.04548812791951359 0.029922364814337587
-0.021216856179816192 0.04913472075388578 0.028052910380444863
-0.018295139303196713 0.04492769057255913 0.03123203788069996
-0.017876211962964166 0.044629726241493965 0.031369157587086395
-0.018453753744194522 0.04371818916662984 0.03108537668658644
-0.017751694916986138 0.045867625808153775 0.03158814293571484
-0.017201033508087257 0.04554193134772601 0.031769553258905514
-0.017231218376920716 0.04411237120963469 0.03151529998948841
-0.0222098872783282 0.050455027809071504 0.027226256169164333
-0.016210269234863562 0.04474389522729241 0.03210119242564642
-0.012286151795366202 0.03621210399025379 0.03328645600259879
-0.011475473334233034 0.050698236870494226 0.03374644081394227
-0.002749636025901344 0.04885021366676742 0.035556460601731475
-0.02487226346515258 0.05067492261942795 0.02500015006562139
-0.017160415002081007 0.05333621949508863 0.03117165968768619
-0.02040324954906049 0.04971017006064677 0.02878580989882311
-0.013364058852904804 0.05110135956683152 0.033129093167008655
-0.025162492554280762 0.049554904324742494 0.02462493319252411
-0.0035062912368581216 0.04703866764857759 0.035913091889866466
-0.020947413592375223 0.04656858563970992 0.029376892510739393
-0.00740018815928777 0.04502831540948857 0.03498546604576956
-0.012895146935800635 0.04657152435067676 0.03362737241052396
-0.021094604609273294 0.047048330419633175 0.02854582944780526
-0.02096883602392258 0.04644907540711059 0.029436754916479298
-0.0212493539703431 0.04774223634947266 0.027920257589917515
-0.011878795749827836 0.035498737531690444 0.033357619512638215
-0.015607347686991187 0.04629812079741513 0.03235665739168129
-0.013153421749916624 0.046756348454723186 0.03343346168788441
-0.01475898736003678 0.046822179306380905 0.032540844771068084
-0.020878676072837943 0.047908842829546154 0.028274562201335833
-0.016227830398796276 0.046627675472577984 0.03191763885117678
-0.02099292325018007 0.04871217258145499 0.02818243081225141
-0.021254507630676125 0.049737083075591486 0.028030357183627185
-0.02312976371368652 0.051137797245837016 0.026639820248051553
-0.02482802575670104 0.05002477226531014 0.02490610887417953
-0.013791177508627635 0.046588469803754716 0.03321488161815514
-0.01528107480304613 0.052719014885195294 0.03214264759404316
-0.016578577293885094 0.053950906090667695 0.031225094847126482
-0.019507208006244805 0.05234590558056539 0.02996533647139491
-0.014342858739258096 0.05292161573458802 0.03264675019148905
-0.017856681729527063 0.053158353382128064 0.030856933065340222
-0.011412141916341656 0.04121818947659672 0.03371939813478979
-0.022215387920190396 0.051222075790817584 0.027342887005344665
-0.020687353082423768 0.04662095919213615 0.029543067427808888
-0.023351318781722766 0.048876668661236175 0.02617006454769554
-0.016205582959282747 0.053359033361443625 0.031714667042980205
-0.01842769443381296 0.052240143189241924 0.03048917667479781
-0.018439225904140016 0.05367062871402345 0.030416484305438342
-0.015221477808282573 0.05334592252178062 0.03218306478075594
-0.019514303318769993 0.04590118493733923 0.030467780210130545
-0.025169859301931496 0.05070225629698964 0.024827704401728632
-0.011806500275068948 0.04516022516593553 0.0339952995659223
-0.012050741274351103 0.04599841242546785 0.03397813889201315
-0.019986147492732344 0.04651858797503811 0.02994595773584907
-0.02390131075409694 0.05429414285450198 0.025689145690277918
-0.022979785698501166 0.054288343150487015 0.026397019655778495
-0.013305390560920248 0.0412290879632037 0.03317022247229613
-0.023923417429311818 0.05075412995014316 0.02589213120725882
-0.020060075950308925 0.04702199958976502 0.029537288544415403
-0.010834998357890622 0.03749669472022331 0.033590312166238465
-0.019319021151663757 0.04645185177845244 0.030370211376082902
-0.005109231199493386 0.04505994361178889 0.03518119274694951
-0.020619133078365767 0.0512184535002748 0.028649989410844325
-0.02269062760524578 0.05408581786378289 0.027063825961597218
-0.021892454354659148 0.054030465919543635 0.027715701254814276
-0.019279173375814227 0.04873211023348435 0.029386782807383965
-0.01418753736871904 0.04731621259072243 0.03263813289451068
-0.007707980629140519 0.04568195884678429 0.03497543979447528
-0.02051379786030718 0.0541843055595559 0.028444647856972705
-0.01431985379292309 0.04651202804462974 0.03294395492612129
-0.021737765642832318 0.053645921245750204 0.02821445530519122
-0.015339684271058737 0.040702872644181834 0.031999456127157336
-0.021510138812136103 0.05396325301501168 0.028057230778250696
-0.020444309608240938 0.053951525036631955 0.028850108698819384
-0.013996585570578559 0.04227781986874259 0.033149916690897424
-0.024555724692906282 0.05413962103274555 0.02515771269488096
-0.005268194598765433 0.04777147642906719 0.035407019898603
-0.024752479987444887 0.054278927464938 0.024701624906168375
-0.018908473719788932 0.04988454102729088 0.0299167994339175
-0.018380641401680872 0.047460050399365974 0.03017084096644391
-0.010575733801624472 0.04226220267282272 0.03377950934583558
-0.0010004428224152026 0.04835317615910265 0.03583375669469307
-0.018040797651894883 0.04800985772003405 0.030158236364875544
-0.014684699910518585 0.03906770986211397 0.032004130433312725
-0.012100689997414848 0.04048571316021416 0.0336131140852891
-0.012419315056816024 0.05070150681270695 0.033453683621699565
-0.01580906905455395 0.042773647503853554 0.0323987983380393
-0.021920470992708403 0.05254296758851894 0.028144741322661447
-0.021499942476537606 0.051740065131848714 0.028012202897834237
-0.021409649712292603 0.052239224890051665 0.02834995668688363
-0.02181971076270619 0.05209657059687239 0.027899138155039846
-0.02196947625010455 0.05162784852730762 0.027604641871383423
-0.02302744141920496 0.05153606607004516 0.02679819209402038
-0.023970647625438917 0.051570051631944544 0.026037867357144376
-0.024081471786042242 0.05275387547258624 0.0264457493428537
-0.02384189249175217 0.05233280877024996 0.026460448198846836
-0.02335971947478217 0.05206895234848553 0.02674541979531417
-0.0243592041273485 0.051588009817464926 0.02569973096778271
-0.015032469294704032 0.04129780437393365 0.03240049228906843
-0.024477283450393777 0.05229724835644395 0.025948013473365627
-0.024727117152622418 0.05191740325212029 0.02558041298740281
-0.016513861089162928 0.05112144402057274 0.03140975937760573
-0.013321311995045345 0.050343780549920586 0.03291213832013188
-0.015090904452300533 0.050547261397190346 0.03206462588730514
-0.013791404418426283 0.050678518874209155 0.03276980407692885
-0.012762048611430234 0.048543149579139425 0.033194655837606335
-0.011056459688585787 0.03617246642946544 0.03346993287514508
-0.01733407673004624 0.049030631393600935 0.030506408591474608
-0.017571053756829623 0.04843542148515663 0.030418254397418944
-0.005996249557898128 0.04557398660294599 0.03520780827779483
-0.015590614472910255 0.041857203877426204 0.032291847561215795
-0.015409815725190233 0.04736931892531754 0.031942342164470526
-0.012975180026376465 0.03670795213853068 0.032999285752764694
-0.014902065020924674 0.04856298451697299 0.03200524390482288
-0.019513363080138884 0.04785262113389499 0.029272498403298326
-0.01692279352619181 0.04875170996418603 0.030815405327318596
-0.01656888252313863 0.04983297412940796 0.031106163428761928
-0.017162573521480814 0.050102061659024054 0.03082270698692051
-0.020208413259664618 0.048143439204354016 0.028728049120793426
-0.016477858879130655 0.05031348402252006 0.03126125037715706
-0.011156441530048126 0.046782160074918096 0.03394821512590586
-0.008031823648493593 0.044442569006061555 0.034662735747512156
-0.016060326971867957 0.048473497717489905 0.031393722281303375
-0.012289369082146222 0.03809261125693851 0.033325290415834916
-0.016821251023215876 0.04187015395296906 0.03153132278800966
-0.020970590910868774 0.04570900744602845 0.029501587455783372
-0.01654276595987013 0.0493873326425248 0.031044682422207405
-0.023392524259773496 0.04716498567331177 0.0262320665357849
-0.01580354056232763 0.049678938486171186 0.031489097583580164
-0.00851674614324191 0.04873358506864212 0.0345353973791129
-0.02444037858688468 0.049550641305914356 0.025148392133714878
-0.02186665655846259 0.04649427669208743 0.028454166293962933
-0.016971052036317377 0.04729646619331067 0.031066523288615158
-0.019510540065664383 0.054133180958118005 0.02929318374084555
-0.017782631115179793 0.0542008851429646 0.030362340526040435
-6.745410063890942e-06 0.0478777222191826 0.035959847282884205
-0.014694200592495528 0.049961928633995255 0.032131885022976925
-0.020011488522322523 0.05422297247922788 0.02858523300581756
-0.007625369769170624 0.04456863108532816 0.03481979085685845
-0.012644928086489055 0.04831349062892654 0.03338200958112608
-0.005944497003438978 0.05015810562618503 0.03508414175603068
-0.014627156602170972 0.04057165560608071 0.03234726963547445
-0.0222696306901082 0.04669368198910952 0.027825613334556652
-0.014776278667808646 0.04380685329682173 0.03307338130682381
-0.020787826997728173 0.05425198488238748 0.027956739918124224
-0.016414867177413937 0.05052855958868767 0.0313502869644711
-0.014883268633021337 0.03976358688668098 0.03204265566382949
-0.01240915844804446 0.04833917804290686 0.033501489317609295
-0.004143829855227658 0.047006557389771976 0.03573969019283834
-0.0108261261964302 0.04771217631420729 0.03408952655450211
-0.011171767569473625 0.04806170308810204 0.03394622724679598
-0.012170233806832478 0.04086623039834487 0.03366097267964786
-0.025077939026927197 0.048807429465868246 0.024537481680887548
-0.018776349895327 0.054204813218679454 0.029738091435084022
-0.016227177392060116 0.04242917743220989 0.03204054570382177
-0.008107383825754277 0.04767161682194582 0.03489573853133926
-0.022091888377926895 0.05027487943485634 0.027323269321400993
-0.012578653307493672 0.0495232897498543 0.03304736493702458
-0.02003797077119946 0.04903543620806758 0.02892189184525864
-0.012108774413652563 0.04966770874378544 0.0331637287702678
-0.010375836531770929 0.03967223214488109 0.033758781232567606
-0.015262376298907372 0.04872045501407204 0.031781241485514464
-0.003816515077934804 0.04865156115019381 0.03546123181023903
-0.011254844791259277 0.049768366667288524 0.033432449859054705
-0.020650834381985266 0.05052675059478175 0.028578371072991007
-0.020816224239260116 0.0532186409981699 0.029067286939292548
-0.019993887310902125 0.048487326246307395 0.028837269435835505
-0.008174658483447197 0.04519486307264566 0.034721296277441804
-0.014988288163030432 0.04765665084813617 0.0321437289081693
-0.011998234533961118 0.04463003554747283 0.03394457456369043
-0.014275256104658638 0.04752000247778148 0.0325400444222622
-0.013199821412536724 0.04783746945874256 0.03311942282246637
-0.021506813336706718 0.05263624500695903 0.028478451514126105
-0.0238093252768191 0.04718634995343261 0.02585182762312685
-0.020616933048180623 0.05316437224477481 0.029248361972806745
-0.02082399232657871 0.05264231236144172 0.02902951764699925
-0.021366430135533146 0.052523790059619026 0.028551705446223794
-0.015266920551189916 0.04974204005933915 0.03179272060442477
-0.022074658041214907 0.05326968203826862 0.02819261005803902
-0.013191746346683048 0.044544418767655594 0.03367560641654318
-0.022832821735617743 0.04660648181328843 0.02735683532697706
-0.019898017821002034 0.052216943729451286 0.02961623112954201
-0.02067799474316527 0.05193832871441313 0.028828077650965747
-0.019645378857188964 0.05215191775706453 0.029789883802881223
-0.025362674727259702 0.047087262665517104 0.024237195030853975
-0.02530282217376939 0.047093411211269746 0.02429000035757899
-0.025911135569841582 0.04686639550414384 0.02386565058454938
-0.02417273538227988 0.04755270030602634 0.02523285372696571
-0.024411979083464916 0.047755370274576166 0.02499220323625362
-0.007434625508838534 0.045466586079711456 0.03504321380505645
-0.025107023732145323 0.04847424316597074 0.02441247444331345
-0.00858982740698404 0.052283981008332314 0.034725773747802384
-0.008135994492572877 0.05204670745625093 0.034818487329457776
-0.024484635434414304 0.04862790293348713 0.02502305456075085
-0.013341263372307822 0.04213056185044338 0.033387157671542475
-0.025288125383236493 0.047743584777986556 0.02397032832231326
-0.004627251381082355 0.04912293851628297 0.035131928389445594
-0.00783866847763364 0.051098175520512046 0.03485507016091623
-0.0008544927082959144 0.050220210402770506 0.036119250372884965
-0.024296645785161494 0.04840433689350641 0.025173554342544213
-0.026455290326378965 0.04702777481664543 0.02303998952665598
-0.025792408617549965 0.04732227538606756 0.02362472361395857
-0.02514985057120283 0.04833512427566507 0.02431454753745834
-0.02394047626378415 0.04857513849892879 0.02560569871834929
-0.005053271101907232 0.04990906223574903 0.034992432694366075
-0.011569793050985662 0.04708022150163248 0.03381448654397071
-0.0071593805212856335 0.05037664589813152 0.034941285807849276
-0.008566156605683084 0.04931511151854065 0.03422595189704213
-0.012604112069608342 0.049192655964615035 0.03304459231737458
-0.017999891370559427 0.04659743253612901 0.031094979286289567
-0.018624066515435633 0.04658708751508897 0.03073022877210914
-0.01933793200426155 0.045930780289254985 0.030600025198142533
-0.018970420428119278 0.04512909199864114 0.030876235563821745
-0.019440385068255468 0.04482367616118118 0.030510834968609117
-0.018711892838689237 0.044064653821781034 0.03100317141675603
-0.01299203051378679 0.03960101290693377 0.03302707147797732
-0.012408678238089306 0.052042660946244365 0.0336403816265906
-0.012406185694064674 0.04216999820139595 0.03381234331174909
-0.006582924280809288 0.05249928290926144 0.035208675796443184
-0.005437527394240685 0.04707353422683449 0.03540221480386325
-0.02371854819630486 0.04905032900804926 0.025946972794562706
-0.011605742135268379 0.0483512838973857 0.03376552298301169
-0.0061369669876840775 0.05190971941481928 0.03520869582465141
-0.004927627951295089 0.048316055371328735 0.035355968095216996
-0.0103559962898138 0.052795826363334825 0.0342226059404422
-0.007671961715495354 0.05108130493338721 0.03489395421767983
-0.014318303187547432 0.045272729634038 0.033269499667805465
-0.007028519201133013 0.04953354966221611 0.0348868259126136
-0.01028377537664799 0.05284414832281893 0.03424000658947837
-0.001172448276934837 0.048450041681090995 0.03577610011251586
-0.02326166653354688 0.049754076727602604 0.02631823664233315
-0.004113159888728471 0.05202075745842785 0.03548801985989653
-0.010925387964008316 0.051121828390288324 0.0340446782647105
-0.021234992697508937 0.048864598902298564 0.028030966801466092
-0.010183525754662817 0.05155436824572114 0.03429527067789915
-0.011602595074293167 0.03587097695891608 0.033439925122631456
-0.013051192640546912 0.03867246477398443 0.03299657403322823
-0.011572120846463897 0.03784621847633712 0.033465164075100466
-0.010616102253814446 0.03903282756074129 0.03365782803874573
-0.0058706099367597875 0.046144391766805855 0.03529914982728353
-0.0035892655918222907 0.049445738315515346 0.03521517186324936
-0.0018569610035539654 0.048080521488442676 0.036030714049715494
-0.009162913628729572 0.049164917240072326 0.0341312556520255
-0.010592952636849673 0.05052026543820887 0.0339028471440003
-0.012846074698272526 0.042698460612313555 0.033623956059693975
-0.0027590579738708057 0.05171346622716199 0.0357409043388723
-0.01729448599175361 0.043263629867400066 0.03153660781566104
-0.007740609423119284 0.05056198490126511 0.034796595023794355
-0.011872844695942191 0.05253026873823459 0.03377315971261991
-0.00848454344037238 0.050976892389815176 0.03463598420995903
-0.005149789833025025 0.052174365003141925 0.03530639558912233
-0.005040830604984492 0.051218798935638334 0.035179688043570724
-0.0032105508415375176 0.05172624460285604 0.0355933186947225
-0.0045775223118616586 0.05157519087314815 0.03529412264614836
-0.011645608601255089 0.050838431306277944 0.033762847447917826
-0.004781294538019867 0.05108733859880649 0.03516991443779772
-0.009130851643497391 0.04990742684608733 0.03410671449668731
-0.008236838646460456 0.049187777210354285 0.03442821078525709
-0.019830891762616445 0.0501850525525496 0.0293402324318843
-0.01644161927210844 0.04827725673555398 0.031214601730750954
-0.02145255025994225 0.04941391362770538 0.027838710964443868
-0.014801824350913453 0.04521047790935881 0.03298798370658221
-0.005008273640650224 0.05055664271610623 0.03504979000040713
-0.019785309944669836 0.04996789782328278 0.029319863956879695
-0.004125339054904524 0.05067335397183198 0.03515486654770295
-0.01051028560573579 0.043898533048453245 0.03376528112737532
-0.020758501768234502 0.04677204797740532 0.029327805972843804
-0.014498779543412495 0.04950743831026516 0.032198899488301375
-0.014466180967879556 0.04610649057499182 0.033011768153819815
-0.005196111417831038 0.04881431082942358 0.03511285453364667
-0.00694656077396346 0.05013499193231341 0.03498819069977176
-0.0017692767671095642 0.047672116117146876 0.03621985630440838
-0.007686303695887382 0.05005479342603779 0.03468928014478491
-0.015154445517000808 0.05003737528242232 0.031913376647367195
-0.019155009926803086 0.0478838209498266 0.029556680949015764
-0.013441108463826866 0.04930112693356309 0.03268966769861634
-0.02216401128249318 0.04883891288978308 0.027105128251450866
-0.01003471912612909 0.040980109307272014 0.0339124750762999
-0.006089741613468785 0.05061798766334341 0.03514394938563179
-0.00981069232934829 0.0502618801795235 0.03402867234247288
-0.004839145350316543 0.04886411434827842 0.0351707385668763
-0.006920220799651775 0.05120181422192768 0.03504379589474204
-0.014547239792733193 0.044730642162480246 0.03317424976874874
-0.011763401929264073 0.03708492878715882 0.03343860578209056
-0.006105518185280323 0.05018024863421494 0.03510644471813016
-0.016052712335639745 0.044392414143063566 0.032168706133282564
-0.0003945732806138488 0.04835796878472044 0.03576752151781293
-0.015365044219960322 0.049633280158065306 0.03171443643549575
-0.009685497818462657 0.045459880783680975 0.033994896957521455
-0.0030377229087774774 0.05249676800650827 0.03579431001853316
-0.018159287330651565 0.05023824373746919 0.03037392296844437
-0.013027158293462817 0.05091144756864139 0.03330816549542138
-0.013958119621931595 0.04014590828602104 0.03261121427771868
-0.007171253782219071 0.049608004968922044 0.03484009504692573
-0.022910041740024766 0.04973007860313441 0.02655244983222593
-0.00562873403498171 0.05253908127181793 0.03528382069073131
-0.009192690771576613 0.05223989791624561 0.03452089512077754
-0.02246965661576967 0.049995994685490514 0.026947421155795848
-0.016856682440613276 0.04671057826696608 0.03154702090022525
-0.022767287364521424 0.05074596777463332 0.02689082340963711
-0.012399800484374526 0.03878893440563676 0.033299250205793864
-0.022915974104244057 0.0473417073106351 0.026473132236806377
-0.01781900503549939 0.047037288076353434 0.030762554559866796
-0.002751678198873838 0.04934024579096411 0.03543995213696383
-0.019185166488459623 0.049863500659645364 0.029726806629350698
-0.011888128839895326 0.050482443809395317 0.033509806802366815
-0.01612217405879795 0.04170590525174306 0.03192272300349386
-0.009242314311846174 0.05151629935421336 0.03451625444489641
-0.011531011275498701 0.04911530240910805 0.033340224071606334
-0.02179727417290893 0.04868785927590238 0.02750524049814655
-0.016378974501145765 0.04103220979308566 0.0315048515297215
-0.0065908767844194156 0.05087988904417724 0.03514028877272733
-0.007137206333886618 0.05082125311059687 0.03501866658971967
-0.012765203093650531 0.045777339249094086 0.033826534644417844
-0.022277040565305762 0.04799041762270074 0.02690253662432577
-0.011532843485191934 0.034050157780425826 0.03341015057126684
-0.011607975965491638 0.03431485434372535 0.03338836204961687
-0.014765797100620126 0.042993589219398255 0.033005975717599854
-0.019421914151275976 0.050234984811075196 0.029670024813581115
-0.013007411715416424 0.049576665672705 0.03289598657436009
-0.011017916394410472 0.04697609177128673 0.03395951698513821
-0.013922411417866024 0.04150814811864401 0.032961656719670926
-0.014521058908900288 0.04096986363801066 0.03254216641491697
-0.022375076238006494 0.0497930946722262 0.02702006687792632
-0.013959669980380927 0.03934360341295998 0.03250087300561461
-0.0028275375309297817 0.04995622887816203 0.03552790663257194
-0.016012169543657914 0.03973369782502862 0.031193961742569914
-0.021686058609165726 0.049431942411026546 0.027640231798837556
-0.001969144240344927 0.05019148057251342 0.03594770032308457
-0.011541111423944676 0.03477204137109445 0.0334072819482906
-0.0022501158083446564 0.05076075041131994 0.03588176843536766
-0.01263863574997285 0.03762515563017708 0.03318291073929262
-0.02007017198365039 0.05111554683265737 0.029193523553514695
-0.013329324481458396 0.05384150479572384 0.03291958125866652
-0.003588997386960286 0.0501323970325655 0.03526236403250739
-0.002244303149143282 0.04724761974688142 0.03625169865728616
-0.01678747463990648 0.04095322306649816 0.031186355320955497
-0.016645634536986458 0.04060467437145045 0.031110300304079287
-0.00800524357075505 0.04731981620575132 0.03494405343509841
-0.016321411384284487 0.04337899316947293 0.031996801585275965
-0.003377596669672858 0.04727196156217457 0.03596830310075694
-0.011176938577817496 0.04498554334657798 0.03390619775966633
-0.0037254343854166076 0.047423136674561855 0.03585824018572143
-0.008128940659077601 0.044120506163729756 0.0345681431952001
-0.013865063052384309 0.041481832218718505 0.03297919584229786
-0.01287165084422772 0.04092314664464656 0.03329569417272919
-0.015621422111287994 0.04365211803491735 0.032546006573636085
-0.012577057329860445 0.038319425159850165 0.03323759788763857
-0.004774537086948835 0.04541870426541913 0.035276906781429244
-0.011222872775233185 0.04254337073672904 0.033796169573449386
-0.0046490940557011515 0.04667406934007602 0.03556272247918157
-0.01228340276625415 0.04176299877852841 0.03378011654213414
-0.015397623327831933 0.04305971910441016 0.03267986016579107
-0.012169412115350916 0.03928801084131027 0.03339019975427773
-0.013782928631260202 0.043131679223294216 0.03340719598121202
-0.004128618500817304 0.04595350950830684 0.03551115606072398
-0.00447449204693734 0.047179041597966334 0.03565980043501433
-0.01628707432960048 0.045870553375020814 0.032132928270301515
-0.012184456340612587 0.043528672447654744 0.0339761454557386
-0.014153595996466872 0.044012144845982266 0.033367888859483025
-0.005665905423428841 0.04721717176125419 0.03534936963912806
-0.012222917666272544 0.038721863687394206 0.033372351741895304
-0.014561466094584372 0.04288544610347301 0.033088119415791
-0.010161588553017072 0.04715353169809525 0.034350813739235465
-0.008749167781664327 0.04504121032162142 0.034368116092451516
-0.005772181506507845 0.04733607779839328 0.03533050245415098
-0.006417665609390933 0.044776702456875 0.03505100311906911
-0.0027289048330444055 0.047541999457309345 0.03614690118682492
-0.012243121052718445 0.05402204408130831 0.03332159478145869
-0.011946959420512899 0.04301950227726872 0.03399261465816106
-0.014227175794126518 0.044281437683731446 0.03334848571701754
-0.006826860852768875 0.046074526950075925 0.035195548495337674
-0.005983122393229798 0.046095081432859876 0.035281960883168234
-0.006790686140226394 0.04621922881266204 0.03520360797866191
-0.013754140747272202 0.04556414346582874 0.0334640737854742
-0.006148288530267519 0.04824124190815883 0.03522836760910727
-0.012784247880589725 0.04413202596696318 0.033796118910273676
-0.012707858330267349 0.04491467029954292 0.033815634170306655
-0.00432654648873198 0.0482090762962602 0.03551611552762287
-0.008845534564398613 0.04550390228092714 0.03440316317233077
-0.013769997984987778 0.045306739529035744 0.03348090277140804
-0.006543249815168569 0.04794785729699612 0.03522105840048954
-0.009377343971214883 0.047106680090296296 0.034557526983126564
-0.008463319947736862 0.046290363654516976 0.03472389564931703
-0.015215453249859349 0.038869716448835315 0.03151454250090058
-0.008913809845436806 0.04607562520320134 0.03451587002170474
-0.009511782607083246 0.04458582991617828 0.03393602169763115
-0.010431034234180025 0.04759937909357071 0.03427246129537618
-0.002728395924444147 0.0507060675986072 0.03565156512468694
