0.029484392447182383 0.011470376993953032 -0.022425874031601838
0.029442918891022945 0.011620950763817476 -0.02294538235871032
0.02936780582088437 0.011860679655419983 -0.022811073863851984
0.025605193609471454 0.020545455548389033 -0.015122635420063837
0.025874057632109475 0.020243814026291006 -0.01447765143873692
0.02578319348743063 0.020364496753180934 -0.014026990365818127
0.02597440429853908 0.02013315180709698 -0.014168505008691254
0.026287694254707655 0.020035480111166643 -0.007884639321405245
0.02655586454181653 0.019687459037862617 -0.007367533655946617
0.025705575018137323 0.019851407753374246 -0.02730047643656192
0.02571489304674917 0.019842059618336905 -0.026922823766656195
0.026489443827133682 0.018654201243486827 -0.027055976178403177
0.025773021694650365 0.01977339691528796 -0.025360882467419733
0.024867567404600967 0.021716515775076634 -0.008257169404647744
0.028888832775890515 0.01587113772109687 -0.0031150108026201154
0.02567587563481838 0.020777780671845297 -0.005976172056007039
0.025473432436190838 0.021051409044592365 -0.005896594830777218
0.026553737623897546 0.01968148481971407 -0.007786176667896308
0.026197645816720763 0.020145163197711126 -0.008497342648317092
0.026601360367529053 0.019620315970654178 -0.007635405230642421
0.026550217551553224 0.01956155398015779 -0.009967485772426378
0.022394940070385925 0.023865303591781052 -0.019852269988753557
0.022176906437766708 0.02411816763713213 -0.019703688828622154
0.021730389494476053 0.024540942766653695 -0.020419947045962852
0.028741882637717563 0.013890260118996633 -0.022568209943308687
0.028692786393119146 0.014060678128189383 -0.022435254187963875
0.028512089101063284 0.01446683383189458 -0.022753394313286317
0.02835324674942654 0.014886155898128682 -0.022805528319573103
0.028303441461903448 0.016902035114454726 -0.010639938954297719
0.02811991014298696 0.017178150437962676 -0.011807247502858892
0.028160009413613973 0.017119601713787222 -0.011353176563411898
0.026537990477755832 0.019695694839201347 -0.00384627725149684
0.03009488367726259 0.009775957255380961 -0.019794834424720985
0.029691531411353455 0.011622513556401202 -0.01885871436372483
0.029855160516166584 0.010725890669900992 -0.01954422366715733
0.030084036665213365 0.009753457810832276 -0.019919208774822308
0.030000888514634012 0.010380799660984992 -0.019214965455749577
0.030098912183637576 0.009575027523972941 -0.020182395095284838
0.02965470056908672 0.011777243366721972 -0.018802007826847992
0.024720221826665226 0.021706511762937954 -0.036170257758573875
0.024903110097597755 0.021665994703627525 -0.03735328693940779
0.01901606842210145 0.027153459734318104 -0.037473289976860814
0.023301354483772407 0.02354253956859077 -0.03836510375583778
0.020200593372125583 0.02631961035182407 -0.027402103207744298
0.020256319085071337 0.0261945990960572 -0.026339923189871713
0.026900802207649184 0.019134946051365676 -0.03905836907317431
0.02370708227861759 0.022435113327574037 -0.04702098244058538
0.029575526910548884 0.014115163746582417 -0.012187965770413537
0.02968395223047798 0.0137574582669831 -0.012808941578609356
0.029612502156560187 0.013919234807210542 -0.013084502702344373
0.029435332452886098 0.014456575808418422 -0.012506534227954232
0.027378847635765247 0.01849105713708864 -0.00762711167104631
0.027209512033738746 0.018650078694005444 -0.009258863545031365
0.027192033223632853 0.018707586409715114 -0.008743808196149502
0.027753535296469706 0.0177623953818353 -0.015274795112430637
0.02796347382205961 0.017456911984887188 -0.014880128050164882
0.020038819440566808 0.026486769921746 -0.03219577515931127
0.01944619996894811 0.026889322689682207 -0.031850264999521545
0.022682228773836202 0.02361764220954525 -0.025497657420641542
0.023173801848015353 0.02308064202477762 -0.02566049992078135
0.027438522914931276 0.01748085578711856 -0.04619939027009149
0.023620941231829284 0.023093290874783554 -0.03639589900478178
0.023611522782761005 0.0231301415643222 -0.036892218607040075
0.022875172629330635 0.023184845229546305 -0.021899793425024072
0.02206253516066415 0.024072983234603253 -0.022532542339130577
0.022650348825807833 0.023416697383115217 -0.022365597401362697
0.018540297243948463 0.027165156032317304 -0.034994426939548864
0.026814269212245535 0.019193634859317393 -0.009990832574433183
0.026423121091705803 0.019715460155235506 -0.010662460876359466
0.026075354685326194 0.02018239263867996 -0.010830769076453774
0.026684067554907105 0.01935957404322508 -0.011330436436191655
0.02664336837304284 0.01929626700141756 -0.014704747737732818
0.02706328345795489 0.018733885051935167 -0.013906435178682479
0.026982814632256595 0.018850193536303312 -0.014987540155479647
0.026849557891356585 0.019173632134450187 -0.0010010523031345141
0.027119008916208002 0.018965410755015552 -0.001672126303122052
0.026839663253944872 0.019291043698202 -0.00637520729819715
0.026659398794150847 0.018375693688794097 -0.0473953742319081
0.018158481130631933 0.028067051581726198 -0.04290548858138293
0.023654439969562183 0.022608257691843322 -0.0318263740141733
0.023622420950958352 0.022647650099433345 -0.031688614911744364
0.0241966167281079 0.022080361408020107 -0.014885539892134626
0.02359286667546715 0.022757720320811255 -0.014275970544798053
0.025767368532843397 0.020661398168164445 -0.005680562754009095
0.0276223808293301 0.018150391168275534 -0.0066077122003303755
0.027330059740237375 0.01859865704553994 -0.006773296921612337
0.02753858101446028 0.01823397882751538 -0.007866351163735652
0.02774716653552803 0.01793115434887773 -0.007288845539868622
0.031421261407275816 0.009982900340906821 -0.04726426580949862
0.027889546126038122 0.017705629218580397 -0.007718085470458053
0.028172940852796733 0.017333775751691576 -0.006350940301145534
0.019066062267799815 0.026878228568906495 -0.034446802192427246
0.01917398155765751 0.026817037908854025 -0.034417966669997246
0.03052248593321362 0.008775624352049705 -0.05022708909209794
0.022182084869247217 0.02463945733796948 -0.03368228660812171
0.02171783068682217 0.025127421830807822 -0.032793727158742986
0.021602700875390547 0.025241825353841497 -0.03171671718618008
0.02212852797936348 0.024687489682340105 -0.03250869131740537
0.02763536772787848 0.01681370951294068 -0.04667906642880264
0.02097803935609259 0.02595559849465792 -0.04286771079714158
0.025858922319637993 0.01983494186100354 -0.020502066734484504
0.026045747917522746 0.019663730511805366 -0.020107176585511987
0.026672013337611013 0.019518479507988067 -0.004855353113484586
0.02804779207352974 0.017216648249230894 0.0009090650947200854
0.024963574705064377 0.021647029235684016 -0.03811235232155209
0.0254865861146183 0.020655814046392156 -0.01616478058634137
0.02579092050264 0.020287031354112084 -0.01640843982209984
0.02631111797248297 0.01965586042512472 -0.017193151271549776
0.026234728594147043 0.019748817525500024 -0.016954784378118273
0.017967757029287188 0.02760297134980284 -0.033813124240242354
0.017922847820694133 0.027614824008067276 -0.03399119786839482
0.019654905895139248 0.026838208309208522 -0.044192031205199635
0.028928933223868622 0.015111941556173375 -0.046317354196894214
0.028454111359007824 0.01670028975565921 -0.008828661892034009
0.02846979007298392 0.016725447306084225 -0.008450075921342576
0.02482190735554999 0.021903521339419283 -0.005352032534465862
0.024768014238136293 0.021965319012965206 -0.005398745912583739
0.021083586375516702 0.025804658973412605 -0.04415806529120598
0.02654450694828337 0.019101720133446385 -0.046029921267184165
0.021672660780008585 0.025267484847178667 -0.043846661360700825
0.021443096662576294 0.025219337218561424 -0.04467603816341581
0.028580704094802623 0.016518963837278765 -0.0409551069209781
0.02390979704289889 0.02296068960736535 -0.0039943786077619075
0.023257610240709096 0.023654972983032055 -0.044947687751365734
0.021825844108357806 0.02494500948583574 -0.04528932132120776
0.02331155474212487 0.02356413973331622 -0.04481249713037659
0.03051565946898021 0.01270249753022332 -0.04757976714033482
0.018670318372321165 0.027612456321712837 -0.03965069049053941
0.018514636807014005 0.027675766320743637 -0.0391723089994283
0.023632460776939326 0.022246755604562265 -0.047243494939091496
0.02431610136463841 0.021510524989648245 -0.047821057504795525
0.031166292796960565 0.010690643509817535 -0.04279166695909327
0.025113561476720024 0.02070949556543333 -0.04736641447474922
0.029832554404355397 0.009141680581373858 -0.05053515556983531
0.02887087230591982 0.014545026752748016 -0.046726986107532106
0.029904348680270736 0.008717827432631307 -0.050555600231158404
0.026831161747582384 0.01858624946874979 -0.04619308508924029
0.027171161065729137 0.018546313409344817 -0.04545769138561595
0.023413484456319446 0.02345269808717231 -0.038624261721621395
0.029724631098704206 0.013720929957230139 -0.04648008701472964
0.02729878943070678 0.01761015721620028 -0.0463035994479588
0.02665882915983718 0.01814226250563803 -0.0482103594079014
0.027980799583840282 0.01682590167813683 -0.046044711451071085
0.027249327567490524 0.01709978455313117 -0.04763471215800415
0.02011767157123262 0.026569900406712747 -0.04170616703083121
0.028200817010985327 0.016072959877297382 -0.04830708348509101
0.029045614272210776 0.01517780747335615 -0.04608634108473607
0.029757087869620072 0.013711263480149043 -0.04642104430904312
0.02442612095157253 0.022398457913093153 -0.007070924414603275
0.02418586758346289 0.02266689649172481 -0.007312175987183902
0.023840816088580314 0.023113759833927487 -0.004353998122461027
0.02381009761901519 0.023065112452062116 -0.0038996952243368264
0.027250932966208855 0.01858417925137022 -0.009331228367105914
0.027152544674618112 0.01871385260290204 -0.009686233221334866
0.022533609962258783 0.02444605721834474 -0.04242809278526507
0.027600370812351855 0.01823402550007621 -0.005397408499571297
0.027500040126442193 0.018368164302988023 -0.005923216082435376
0.027195692859109714 0.018871595571545816 -0.005297965947926018
0.027323803117821528 0.018696223884620333 -0.004720704302023722
0.0273655607968245 0.018557414371160607 -0.0064104991733114295
0.029494673896023785 0.012251572826860483 -0.01895728529091103
0.029436471358672278 0.012609674576249567 -0.018584919870909485
0.02941475295771256 0.012381183607659246 -0.0192679269732312
0.029654758459130244 0.012901240649985707 -0.016373329600803847
0.029640586315725956 0.012852164787924114 -0.0166205349563708
0.030344640132030164 0.007865314679642264 -0.05051215375733269
0.02537131786916287 0.02111095615877993 -0.008022458623711825
0.02866747734757764 0.016477501272861902 -0.04363292225666904
0.029370365183534863 0.01466728552102488 -0.03784854923757215
0.029223412276265025 0.014760190382769512 -0.037549527084769045
0.02898839063982199 0.015407994987231914 -0.014867958749771207
0.028810148281904868 0.015797310293701586 -0.015300922241055047
0.02404625860575148 0.022305398761790923 -0.016789834514581693
0.024758230107575684 0.021493593540333197 -0.016392048800453664
0.02467638522191537 0.021184865380509888 -0.02114917668150567
0.02436088330455257 0.021609310793740566 -0.020521276727313388
0.02438493740583553 0.021579771032910453 -0.0205226834025376
0.022111245465766306 0.02487069129109197 -0.04269937260211655
0.02186249161648644 0.025092342915156215 -0.04275544182123803
0.02182610651425186 0.025041392114668836 -0.04079557722952777
0.02594918292957157 0.02011351521867308 -0.01566629503718386
0.026441398016500584 0.019526138544978207 -0.015413597633226899
0.026510930040888534 0.019436237871172032 -0.015536600154436607
0.02439784816266475 0.022281595444115496 -0.003074484587082151
0.02462584062140944 0.022005473784426445 -0.0028498527319086964
0.029156861138226235 0.015503910816713614 -0.0074799566585243
0.028844926675189952 0.01602942588467457 -0.008375484852289079
0.02821354253480019 0.016484892603101042 -0.019459302380399734
0.028281304425000108 0.016031473650362955 -0.020094024120843417
0.029150531096366436 0.015405687683880783 -0.009792142153386495
0.02896219795543969 0.01573029310623052 -0.010639938666905303
0.0283178978421667 0.016929129332754207 0.0005593419808511884
0.02520151381501566 0.020535861800868728 -0.024808917553015068
0.02550086175566782 0.020135630863337653 -0.025042956669883713
0.02521942690980206 0.020510213024216253 -0.024729921938307038
0.025082590868660052 0.020681368243360847 -0.023977180511202487
0.0279583578770595 0.015894171096036074 -0.02421051572256893
0.028158607119321027 0.017174975234116086 -0.008925170678416278
0.027942665688857657 0.017483350033244444 -0.009842696917318186
0.02753209011951416 0.018085019384231137 -0.013663647815531463
0.027549487627895452 0.018058054604843343 -0.013932365490078848
0.02768599927314132 0.017853878887655113 -0.014760821717650675
0.027788769936966683 0.017707586394511074 -0.014102482874856919
0.026641384899714102 0.019559578392588317 -0.006411376251218393
0.027731049797205653 0.01781438861577895 -0.010166277437024834
0.029200949764304422 0.013705483960574827 -0.03551134181690293
0.029669025608473204 0.012955502784215332 -0.036069071832341815
0.02950797569366048 0.013349831335403087 -0.03612108682879495
0.031615368243933836 0.008993768804988029 -0.04563518518466795
0.02248288427056512 0.02449763680334948 -0.03661972901459227
0.03067732178536428 0.010869191923545593 -0.037340096124139355
0.03078588592799339 0.010516488485330964 -0.03732824032460505
0.027089233202342047 0.01872391308856512 -0.013359617809696994
0.026696801537262702 0.019238490363108724 -0.013856846639962539
0.023468921888204274 0.02273277084553207 -0.02540059670973529
0.0227416938711129 0.023488411051636463 -0.024450866430946534
0.022848349978068835 0.02337798547865615 -0.024595393271420123
0.022830300751380574 0.023396912799388464 -0.024574100555326953
0.025299213194717105 0.020457496069394784 -0.02652287382095897
0.025413456113750746 0.020289954081374968 -0.026841226866171068
0.02508379525266114 0.02077308050049768 -0.025999109556925408
0.01901196307445889 0.027335048088174017 -0.03813642095860813
0.02865111928046133 0.016464023862843943 -0.004940068067470977
0.02836070588162195 0.016990386277060232 -0.005384193920261331
0.028640505157096017 0.01648474884341324 -0.005088013700155467
0.024248170663646873 0.021976350375062976 -0.04640016714407946
0.02679735461889869 0.0181359989444816 -0.024220755664391795
0.02583590619083292 0.01965287599978044 -0.024322247168850737
0.026028816408092317 0.01933634150255517 -0.02371341326696543
0.02638977929348111 0.01877028375020344 -0.023841188763298653
0.02624161984725035 0.019006393624695958 -0.023970789001034186
0.02018939970015329 0.026364543850205074 -0.027908790976727226
0.02065201539590665 0.025934470838560368 -0.028669511545653677
0.027580703229500382 0.016716646527509052 -0.03130693612850693
0.027477278380115665 0.016915151537222253 -0.030740708331285144
0.02732270810599974 0.018101887182265824 -0.04607089972942241
0.023092016537166388 0.02319151850317196 -0.026042684656922832
0.023457805836758973 0.02279384740009307 -0.026301667378828678
0.024491413767437444 0.02177262380242132 -0.017578854617143466
0.024543815398944922 0.021610736741790863 -0.01839812415763451
0.023660734448021588 0.023041360203600703 -0.0016223139244917948
0.02430445989764306 0.022466679030602683 -0.03972633936931259
0.028737783482716862 0.016085206744097205 -0.012205287723673039
0.0287616991507014 0.016027413055693565 -0.012332382445495366
0.028602639544602126 0.016363221500694986 -0.012270210010784623
0.028475744680865174 0.016560092436157227 -0.013365899362399925
0.022499052829777932 0.023987550872146712 -0.028155574417171626
0.022378001045430685 0.024119214483468206 -0.028053807632440315
0.024690211160499128 0.02189208367508864 -0.0023279337638917605
0.024365952625257765 0.022266875028055626 -0.0022244636481837917
0.029095204964664934 0.015204329797896704 -0.014393839743940873
0.028956387510531926 0.015489365236506044 -0.014899457113712298
0.028364337642452064 0.01679090634036654 -0.010873243682326061
0.028426789114380763 0.01668340097556025 -0.010843183203153155
0.028233549133445324 0.016987978568435112 -0.011642587954667145
0.02398153502204442 0.022686392370588372 -0.009791328603322836
0.023310029104193185 0.023317497283541537 -0.009792877611916998
0.026546166682235438 0.019117618636274973 -0.019818036873053946
0.02657802611625291 0.019088490602971422 -0.01976318461862951
0.026049194738810913 0.019256984324031116 -0.04856187544126232
0.028022954247485077 0.0175115426381262 -0.00162399841333763
0.027770088575767175 0.017914731626030845 -0.001696528535175407
0.027845285536917504 0.017642709179461948 -0.039126655969121654
0.023882223503499132 0.02229728138256386 -0.02982170727040101
0.02383245175856706 0.022362820405617205 -0.029560232740897224
0.023023632313142042 0.023618789224443593 -0.002732316980606997
0.023547599728964592 0.023140944602736763 -0.0022961810111045335
0.02602989837054927 0.02037560840474894 -0.0012616934739609045
0.02313983498581971 0.022864561352006256 -0.02246349466970274
0.02311778509869729 0.02287970317832891 -0.022666871686618215
0.024170552742945987 0.02260217105534805 -0.03817333493366984
0.02600029980260652 0.020461345689525536 -0.0021810957521428494
0.025216759940406633 0.02130295926758537 -0.0029466930055084
0.01891218898102416 0.02745049575234304 -0.039421892195839504
0.018716050983801306 0.027607733116213135 -0.04017857428282291
0.024439014493622294 0.02161867698927805 -0.01940322641354476
0.02428479987805955 0.021766805682093406 -0.019619920794487704
0.02714327865428539 0.018750428287453734 1.1354782887215166e-05
0.027255127619773212 0.01858625927441613 -0.00014084374543916442
0.027801543511797977 0.017850251480421207 -0.003493260944538798
0.0277931060276636 0.017895546161581302 -0.0039880674165197255
0.02749960929382299 0.018425816765860234 -0.004510572605122385
0.028456933271491923 0.01660382038043763 -0.012023314188477862
0.028404204857488714 0.0167211477944958 -0.012984547907448681
0.028199890555166904 0.017061632749977535 -0.012849309581383847
0.026641219951634383 0.01924690948707856 -0.01765459306102782
0.027146650113017888 0.01863486550608144 -0.01655053427159818
0.027148597971217856 0.018634060908239092 -0.016454103325326833
0.027137428692956017 0.018648496804941826 -0.016424493183412752
0.029493764574990804 0.014917816760691056 -0.005216326485892582
0.029167075600873022 0.015532815985689865 -0.004729368674433471
0.029445956947409056 0.015024765980779746 -0.005513944520226111
0.02178992003019154 0.02506730045418333 -0.03642738039218548
0.02571612335769911 0.020696765238007554 -0.004167950986735
0.0261496539764196 0.019805487504704795 -0.01800578227844844
0.02567556826339841 0.020356174779762013 -0.018069646847018297
0.02222732439328659 0.024635646530254025 -0.04139490550859464
0.027242180740438146 0.01845111479138255 0.0009267365679030482
0.02605293915957478 0.020328049286844237 -0.002954385056355038
0.02861512664356147 0.016220117897193 -0.015310663347079888
0.028724857732682716 0.01601021012994778 -0.01472467755602509
0.028629963119962548 0.01618952677401815 -0.015331382060644714
0.02859323712851255 0.01629363553804173 -0.013996415138097705
0.023958077505901867 0.023037175342924217 -0.005809638520915762
0.023928646048536374 0.023102956687271786 -0.00511414346876202
0.023881188244607637 0.02314595899897545 -0.0054518657155122495
0.023483654668308235 0.022661529561267782 -0.01973490585396425
0.02359947625254229 0.022564265885373556 -0.019405061700653044
0.024246787750877408 0.021786327602690444 -0.01984830565622767
0.028298045241743112 0.01681747865622056 -0.015716291595753704
0.028250747511835497 0.016910497554866295 -0.015675512179021953
0.02366682708835289 0.02159796556120158 -0.049552016257865344
0.028076013467752233 0.017278569698940715 -0.016887883682811765
0.028452769012343716 0.016532377528352658 -0.016146069743470083
0.029164228981482847 0.015391177258736326 -0.002663074491263297
0.02454356435549483 0.021401321081047284 -0.02405399331760156
0.025067194399075947 0.02067968343414346 -0.023400227531989698
0.02760312143391198 0.017870972302204226 -0.01895763250897655
0.027651834458465502 0.01761846007714252 -0.019470877907773743
0.023678026543191923 0.022393520074246182 -0.020277408060593194
0.02310790350420405 0.023015390986583614 -0.020595554673050027
0.023244607079702488 0.022822841154766776 -0.021068320473864872
0.026743705924534487 0.019277204235422375 -0.00037713784118977234
0.024314407308734187 0.021729334024589785 -0.02508202644833775
0.023952341727101548 0.022197060253383187 -0.025883622109143398
0.02430462098005778 0.021726803233677427 -0.024691665710946234
0.029125656014760647 0.014636877026773978 -0.016563432366256552
0.02898754067055803 0.015163375231322395 -0.015860312924681992
0.028729958323535525 0.015796858955677572 -0.016310307915596522
0.029105248491463717 0.014873607719036206 -0.01565611074599982
0.029176728166420265 0.01266044613780767 -0.021426137449991455
0.029043895724307846 0.012931197341075468 -0.022830549663327215
0.029261397800918562 0.01224725934337463 -0.022240195149704222
0.029154266188974702 0.012569932319464266 -0.02263187965682341
0.02869879269394493 0.015833386950290584 -0.01652842280807893
0.028178437765386394 0.016942886806526464 -0.017739043981877235
0.028422713763013516 0.016287980696365834 -0.017781794266341286
0.02852548244990613 0.01635829361873311 -0.016223418857516308
0.02816066189437106 0.01711127101247139 -0.017185646697703078
0.02587934083096588 0.0205879337030426 -0.002002737182964484
0.025226896776138263 0.021293283916168734 -0.0020914065353713754
0.02608908170357489 0.020027313301645287 -0.036848506834247945
0.025924557406142846 0.0201516569008396 -0.036339887431248274
0.02237570329180024 0.017449211328434983 -0.047704902989291746
0.023579646860035164 0.016550758258293913 -0.04793728760562274
0.021967521583143933 0.01830495099991229 -0.04778635950561853
0.03039106528840867 0.008598801320586108 -0.01996671554619676
0.030237235654841682 0.009879041703371316 -0.018452530375082155
0.030329363705404577 0.008849741558669416 -0.019921737315924552
0.030168894813646423 0.009408726907714557 -0.020005321428322363
0.030605981843770468 0.00819532358814008 -0.01911548229391006
0.030394592387676833 0.00896171841482226 -0.019161271147633104
0.030668566197560747 0.007845285214952235 -0.0193656619073033
0.03010982433566662 0.009856206831434268 -0.019518395808056387
0.030686907447459028 0.008061788000878074 -0.01875556420912297
0.025333757979885276 0.020447317711079487 -0.020594588632741582
0.025618793708755458 0.020208842606472013 -0.01985006960441511
0.02517049387617977 0.0206652859429649 -0.02035269028667183
0.022601651301290007 0.01687719163979714 -0.04758810852447726
0.02460986739400752 0.021973672461903668 -0.009879002792187841
0.024683602884927457 0.02197150467428234 -0.008987198643934678
0.02382002365640677 0.01590664525443649 -0.04787416990735481
0.029428846636095955 0.0145264721113692 -0.01174708980869625
0.028205158354202366 0.01728517867832923 -0.005900456087668
0.028345231860049534 0.017067755054615764 -0.007060949156033149
0.02912237825798624 0.015458909408432643 -0.0017605487905004024
0.023999235039748927 0.022879710510918607 -0.03947139490484005
0.02885213417782174 0.013500010020651636 -0.023904981213685783
0.02867403861530383 0.01397801388096751 -0.024229660510226524
0.02841897287787549 0.014591506468668317 -0.02357731128565522
0.02871783569295397 0.01392135569525799 -0.02510678290925917
0.024041050777966894 0.022118154917945804 -0.028823052690079193
0.0238204951943226 0.022385782930027374 -0.028798124937941975
0.026684201686552517 0.019588021476189314 -0.003568573594915363
0.031993164686832255 0.0012463837125810655 -0.018365170801459496
0.03205380007641578 0.00017770150905951755 -0.018821724362589533
0.030168856605336004 0.010571042405677772 -0.03443199389282593
0.030197832946877026 0.010617084847494473 -0.034685727755699114
0.02988906615455195 0.011458972584426555 -0.03403192351750992
0.030270490653906194 0.010298371957649776 -0.03465404114840396
0.03028950167412829 0.010369278920509619 -0.03488312455208479
0.02990527597766793 0.011303932776834835 -0.033895727421547596
0.022712611116630036 0.023386508167473445 -0.02114228583081022
0.022087283032698777 0.024003891540982925 -0.02122827244060617
0.027422043292165195 0.01712281503302604 -0.033347356435676996
0.027498941952006795 0.01700265456842747 -0.03422537295710602
0.01811511695517252 0.027714470308627965 -0.03187418861913715
0.025986972405835588 0.020378574660815225 0.00024445492801076954
0.028422624242571484 0.01675850734493827 0.00047030703473495997
0.02798785288338082 0.017470000605069022 -0.04077996905943515
0.027389145869486133 0.017822896998655656 -0.020393328350600544
0.02464548164962959 0.021908862580975397 -0.000834890944052656
0.02483873124049133 0.021687270495741276 -0.0012015849404425007
0.02449894367402789 0.022229079290591577 0.00033227540576072535
0.023889805265750894 0.022618199315150068 -0.04559936049415324
0.024713311043016845 0.02126855032421743 -0.02994517314632202
0.024541154832009155 0.021478134728374326 -0.0302862412719103
0.024618992512359432 0.021391214782259714 -0.029712191402285183
0.029176209381833365 0.015007409617809544 -0.01430109027008577
0.029286975995298628 0.014786049283727816 -0.013197363814641755
0.024803544643826274 0.02114548809867195 -0.046977990524815556
0.032629301725346525 -0.0029597477674726726 -0.016890688130536343
0.032634889307113495 -0.0026828114689578047 -0.01686196312991149
0.02592243728234001 0.020433712265984807 -0.0003620974395422546
0.02847189055306062 0.01658386237339257 0.000718958048293543
0.030933333361007568 0.011353125032285078 -0.03914073645047911
0.02739464923204817 0.017907904667073288 -0.020062987140506243
0.023816573968999458 0.022858203596775036 0.0006183533537035919
0.029974090120391993 0.012293989507177262 -0.03616460067506503
0.03017032516567445 0.011537315055413475 -0.0360413526106146
0.030334860901661532 0.010864985130609569 -0.035890383711005794
0.024923451474600185 0.02159063668600847 -0.000755640512190662
0.02867845471084787 0.011571739487486672 -0.050599160178448316
0.023402217762598456 0.02319898325628726 -0.010233941558036912
0.023349969596542442 0.023214549390308325 -0.011007519929368353
0.023292447984447177 0.023275922490961533 -0.01096433007979123
0.025498510769378074 0.020969455693860065 0.00034755065210922666
0.03002664250832905 0.009594963726449851 -0.024431320435154037
0.029960647619304018 0.009824339522375203 -0.024049635787343787
0.029709136266999153 0.010732081015113745 -0.02285174084578064
0.030101234115368188 0.009143663535961086 -0.02339417682761555
0.029673177710791598 0.010802366094910905 -0.022225528971478465
0.030129230193120887 0.009080711946939365 -0.023818789064664843
0.029787085389698834 0.010525610666874727 -0.02379543826982241
0.029718791925294523 0.010675903843168097 -0.02273463216574096
0.025361667534391473 0.020446281626571364 -0.030363939690634945
0.02560299642646763 0.02012151638714634 -0.030964049501852067
0.025374918802876578 0.020377602173522472 -0.03190866692333192
0.02535288321040012 0.020423331671202236 -0.031375917802877545
0.024780620499244115 0.021164186729974693 -0.030822840000339795
0.02721223083519922 0.018194957436434518 -0.04623703756668328
0.028165294789295053 0.01577577798020658 -0.035434964145434324
0.019825236580826154 0.02683157175114512 -0.04143139725701322
0.02203959003858314 0.02418980009449188 -0.020467259063526373
0.022487538646038824 0.023682778964088068 -0.020424353011895418
0.019130932872445355 0.027295566986521844 -0.04097069111858702
0.030460185013191643 0.009822849553939438 -0.03513432049491525
0.030642097031541794 0.0086559466383513 -0.03451109416223147
0.030425184887827156 0.010203683439652405 -0.03549554715468819
0.030546079918900515 0.009768320569880862 -0.03560644551503966
0.03046336447928817 0.00876267850487666 -0.033518288167809
0.030510305396930247 0.009366988191479885 -0.03475519844834016
0.03090366643221802 0.00853044319560396 -0.036011419491348805
0.029125550113154677 0.014025531708994501 -0.018032085756138946
0.029074446776155317 0.014142308194747051 -0.01821390222271156
0.0284224358631005 0.01667248714753496 -0.044463099227709926
0.03073753609276693 0.011849195684150288 -0.040254287386731064
0.02812696739609403 0.015487907617380909 -0.031186731877029587
0.028206170759804063 0.015308198377134518 -0.030232408732766263
0.026498365202971007 0.019570037421219943 -0.012555939683158183
0.026329675366879544 0.01974331224164927 -0.013293402970083128
0.026549449987222272 0.019510431150887436 -0.01253463511260251
0.02635248385240176 0.019677996978279332 -0.014380024412908496
0.02460917691538791 0.022082791143948777 0.00018403687014564477
0.025214365310372248 0.020785698447409625 -0.01897561604784473
0.025273408700171772 0.020782186061635847 -0.01846449909353712
0.0246256187672114 0.021403045875626157 -0.019479459828865127
0.025435015048297205 0.02063957444532893 -0.03539510745566922
0.025087842592229816 0.021138638593119215 -0.03554132594182799
0.026644655200536774 0.01931751347602701 0.0009381502207015961
0.026830645373346094 0.018147940005907023 -0.023822174526581405
0.026841913483324445 0.018291043338523723 -0.022803060967446262
0.02700584667203917 0.018015972925100373 -0.023144983068328826
0.026867640742538133 0.018307122680441726 -0.022475430729812337
0.026470856626972575 0.01885715747414045 -0.02239272325542158
0.026326523940918157 0.019134631634166906 -0.02169253211122798
0.026579894000963337 0.018859319850227256 -0.02118223559896933
0.02606147804271987 0.019480748372550975 -0.02174605008645602
0.025786508870701462 0.019733410464442293 -0.022658455263268852
0.025730941835706116 0.01984061890524193 -0.02211149677465903
0.025427127215627388 0.020239010678787823 -0.021564735558141493
0.02490329239005295 0.020858382936079046 -0.022313910833039838
0.028439747030152694 0.016831664067928888 -0.0023186190974037162
0.02800071378185154 0.017525371814769056 -0.002145824264662855
0.019951342043531634 0.02673548652907171 -0.04127947433922012
0.026984035164011273 0.019092249501572067 -0.007604455374358448
0.023869595911869972 0.022803970396626315 0.0006726821049178618
0.0253985270830398 0.02121841439216941 -0.04082464876234627
0.023666856873893707 0.02253524904303183 -0.01896030634876768
0.023289834973060503 0.023064235188111477 -0.01817575485044368
0.028808491914697865 0.015010201962452691 -0.01844818939773981
0.028712709288783573 0.014869554734329389 -0.019410989930590716
0.02852365411249474 0.0156948889575157 -0.01922588057319769
0.025206061229799633 0.02142524046493796 -0.005189527662105504
0.025365676453929828 0.021206584509690936 -0.005284564708052331
0.020486143554045634 0.026195738468104912 -0.03849396067518974
0.025302800520228545 0.02122149888982776 -0.009370242114934703
0.025345571735606573 0.02117084531987943 -0.00933377090606599
0.02541574821265144 0.021069178394098494 -0.009614600490462605
0.029868786466274604 0.013209168130022122 -0.012714131522117108
0.03012207089754765 0.012456622063466129 -0.01245649884968489
0.030205992262940913 0.012220023669054147 -0.012286869292354126
0.028059517693887717 0.01575411758723013 -0.03322496057731594
0.02819794210994431 0.015493866681469865 -0.03366868437140345
0.02834941876456328 0.01699664777154806 -0.003929249582040477
0.028375003523683398 0.01692154694116082 -0.003202019209635024
0.02788470140219624 0.017689165209741436 -0.00300491714537093
0.027149493132022737 0.01784917864186819 -0.02229945290597897
0.027179157376449062 0.017590876099428283 -0.02352846019694502
0.027045605881180657 0.0177842530722064 -0.024249631999391976
0.027072501482594196 0.01777345990157759 -0.023922801811097905
0.021579761284065517 0.02527809469374904 -0.041518870974058604
0.027258755225107876 0.01761373427071347 -0.022259358833222755
0.027275450296599106 0.017617008484429496 -0.02212918208093879
0.029512862226186664 0.012358986080191144 -0.03374679275638673
0.029189940909782996 0.013274764236177888 -0.03418135312767247
0.029041081778839704 0.013448211222544262 -0.0333857898790872
0.029374384249740662 0.012823252438421933 -0.03421966812113824
0.02388084721203358 0.022099605493201765 -0.023023103989336435
0.024211255601500073 0.02170730086677661 -0.02300270807608603
0.02856911419609064 0.016602903911972493 -0.0028599000917889643
0.02365432348740542 0.02234099390491584 -0.023007341994576932
0.02349825828330393 0.022507464523290256 -0.023101349472374202
0.020377410391339047 0.026230092739040416 -0.02884609278621303
0.029215609319240277 0.015381176031635437 -0.00022060583507892365
0.0294827350182501 0.014822018913931385 -0.00011280184089971346
0.02079043642038642 0.02592159665872244 -0.038061598961397235
0.02422743799421996 0.02205165335808239 -0.01772298355823537
0.023977245471995867 0.022294817951484268 -0.01804484021656613
0.029190983968449005 0.014027670015122382 -0.01756807949520571
0.02936937899586413 0.013453346098675314 -0.01739709640104095
0.02842162478136456 0.016909761740885015 -0.007547231557378344
0.02255833246243043 0.024383823723921283 -0.04455064506892224
0.020218635300848817 0.026352409403769518 -0.03821785976323738
0.02411028710578004 0.02189401497509111 -0.02041027242177772
0.024005643601743693 0.02196323569263428 -0.02132910707822449
0.024022472411456247 0.021947677793910776 -0.021269538814353256
0.02768682723653068 0.016645288886466866 -0.03475818351804423
0.02476354591914519 0.02173870273022145 0.0007915413828845872
0.026875934464908456 0.01938486138409471 -0.0027872300702529718
0.026650139081240753 0.01967034294728348 -0.0027743435818228207
0.026677240589525926 0.019635939727081532 -0.0028975289132896665
0.02638252010877687 0.01989886068931006 -0.006112685368161713
0.028707016279750697 0.01626309585612826 -0.00899338014440275
0.02892940881978745 0.01581058970442418 -0.010348703001431567
0.028798609473934943 0.016095175303051747 -0.009025801932050988
0.0277433440441289 0.016460575351793814 -0.0331607901300322
0.027524969932754093 0.016880980170066107 -0.03266044374223372
0.027846815035361034 0.01613995522410346 -0.03255742399726669
0.018201116934330828 0.027754486402352507 -0.037944978408188244
0.029429209023667476 0.014030064168122358 -0.015192315119436944
0.029599457570992464 0.013816846426083489 -0.013987056112475797
0.029803529086668893 0.012840474582961878 -0.01480544412412936
0.029501407339726136 0.013955512259225516 -0.014631370744195914
0.02958148581854935 0.013902222457024663 -0.03739758047012365
0.029182891673037892 0.014621210804792728 -0.0372306133404398
0.02252462745403699 0.024032317847082423 -0.04569236802362811
0.029422747509548645 0.014621161222323686 -0.01099163933493371
0.02942055178114875 0.014564906598378584 -0.011528810879573213
0.01966678604973229 0.02687011238942254 -0.039875068827108756
0.027575738691797403 0.016698720420835183 -0.023816255756570617
0.027711564616412325 0.016432055165518288 -0.023280696408766025
0.027557691551652393 0.01673428994819987 -0.0238641626902992
0.027727469946587854 0.016848037641228206 -0.035515934121958095
0.02763489790932743 0.01714336620561066 -0.03571441193105537
0.028850103731728315 0.016112489370034597 -0.007028831531207501
0.028803710624075322 0.01614934788564531 -0.008041177805462095
0.02892025875062547 0.01598766015470256 -0.007189127241147354
0.02414482977360497 0.022540395689885563 -0.00952184196172656
0.02415231521336529 0.022489644151980563 -0.009963838084460842
0.02317580899171689 0.02383420187500225 -0.04432201410949869
0.027551339173766922 0.01575428943239034 -0.04989227645420731
0.020341787239285987 0.026358791347067055 -0.03909268012840505
0.02941747791076412 0.013557687711312952 -0.016812649053056027
0.029857924011861846 0.01032732283861557 -0.020637900925158895
0.029938899534844562 0.01004756403813668 -0.0204457834413841
0.02967920796915475 0.010853416764744793 -0.021590366051349567
0.029727160088620024 0.010832706265190513 -0.0206379766909231
0.0297492378984245 0.010741558697234796 -0.02067163472922587
0.02986923914515758 0.010303646103731929 -0.020521872447745206
0.024569357056132127 0.02184647038588969 0.0012340091645803007
0.02497043585125807 0.021217028741550122 -0.0173833356748312
0.025191968429639354 0.02099063408456571 -0.016552788865680075
0.023543254106539298 0.022971151217101488 -0.046583219533331784
0.028868794381100203 0.013783746645168592 -0.02086658614336925
0.02858312039709712 0.014665041759475876 -0.020930114456432107
0.028480882617214986 0.015100319520039294 -0.02061351512896435
0.02406743296465512 0.023041716566999958 -0.04257528609569315
0.02458076378697584 0.02223489224586124 -0.04223314958966895
0.025840547477250987 0.020528859047851487 -0.004645265173513146
0.028292668904307542 0.015034745386457944 -0.02284328437458627
0.02831099574856559 0.014977512824155888 -0.02288074941584401
0.02804536633177128 0.015806043916126847 -0.022341322045996474
0.02578378409024067 0.020726433311032345 -0.0394692534441945
0.028105446818714405 0.01736767266946306 -0.0008098491134839585
0.029829848386185166 0.014049023266360317 -0.04397449311891491
0.024944062566234666 0.021775888917950778 -0.04513834394002323
0.02307020331501374 0.023326393027368816 -0.016154772110365874
0.0228809968850673 0.023516887280283026 -0.01638128798663037
0.022899979381460905 0.023498243261909253 -0.016272291386422874
0.025192503334901178 0.021605360952394063 -0.04312778419660851
0.026055115559535075 0.020419348066375832 -0.04504628086086537
0.02635623245154352 0.020109292211280078 -0.04467314569241908
0.02398488064951197 0.022001436175951083 -0.023529166872887176
0.024090681833382886 0.02185381577476775 -0.023219373102718252
0.023840731516238774 0.022609242343790418 -0.03430877762679508
0.02375778085253915 0.022640111187384626 -0.033637504318500835
0.026443596146122177 0.020061972496578116 -0.0437952470258532
0.025269855601606488 0.020483601151582053 -0.02729379580712743
0.024958295462220163 0.020906632288197884 -0.02699696545119422
0.030517770624964212 0.010831152992482078 -0.013142346451541283
0.03026442404419887 0.011516417569758436 -0.013848009646491178
0.030643291199148215 0.010402473591962069 -0.013067440112916738
0.030256026974134004 0.011872093848076127 -0.012845549186321074
0.0264278326001157 0.01974950768041842 -0.0414491825148379
0.027749120374104687 0.017795249676469144 -0.03932262843928903
0.023034535196967777 0.02352038619894827 -0.03326552061719765
0.023413062767750008 0.02310627000168602 -0.03387184766454249
0.02393973143279282 0.021881982526908175 -0.04803929826321083
0.0244910512828217 0.021768937188072116 -0.015549477193394029
0.02502661878850305 0.021172519664630185 -0.015816111080496256
0.028773308013220544 0.016140032699969005 -0.04198192879122584
0.030223119008855312 0.01265379966118211 -0.03780743573803335
0.02749841819241289 0.018262095471267028 -0.040726854317070744
0.02806131009814961 0.015650570982011138 -0.0245767515308616
0.02810144953314317 0.015563108873566458 -0.024948891313630574
0.023867045840295732 0.021903925330219915 -0.04765127920310332
0.028198224233187283 0.016175542859051827 -0.04646186553049738
0.030327549108120966 0.010692884052255791 -0.01565039345633186
0.030080932028138413 0.011139770602170938 -0.01685899314074833
0.03002345024298638 0.011324802282768644 -0.016912693219553375
0.03027594300493681 0.010507629474765294 -0.01668924006407734
0.018070311548123837 0.02810708956088989 -0.043878003719374205
0.029399844691230387 0.011909023552600281 -0.02623907977696506
0.02987433392548485 0.010293060250014863 -0.02527949809777783
0.02920239023028834 0.012543638532901465 -0.026345814562487687
0.02889859491615051 0.013424760626533125 -0.02577364924439399
0.02889392341400988 0.013436709851830151 -0.02575248463913636
0.02947211361764144 0.011722511984465145 -0.026553707355184555
0.02969193120276719 0.010906420338310772 -0.02558772652911731
0.024873905731624332 0.021608289843903068 -0.010504128760608595
0.025721603575845818 0.02064829518826861 -0.010360469488190202
0.025755068509601242 0.020590863402284002 -0.01054270707149898
0.025039912861483563 0.020778785368407698 -0.02512347034646591
0.024599106652747102 0.021371895507496318 -0.024825386568327033
0.024577928641097164 0.021381676280204133 -0.024551090831453737
0.028432177158591088 0.016805869638414423 -0.04081875826725293
0.02799206593157638 0.017673533125974073 -0.04276958011458675
0.025602285973075505 0.02087829838832055 -0.004955472559529567
0.027380652711355792 0.018308155740390717 -0.013177379301657794
0.026897521875694802 0.019028643778983344 -0.012719513871414668
0.026750473248714476 0.019248362541829076 -0.012499201586509568
0.027550167805015027 0.018066483598981428 -0.011227390834906772
0.025968222181018425 0.019879806209729886 -0.03467253977871007
0.02627528810704888 0.019324102702997448 -0.033740639121058694
0.02588239366762125 0.019933980319294782 -0.034278958587792424
0.025363258323048515 0.020461919110199078 -0.033193318474140025
0.026233956319489007 0.01956829383766894 -0.03496138591872505
0.024365954059080062 0.02225878301915154 -0.0017916590975315361
0.02445063341602798 0.0221496698746533 -0.001181471487086428
0.026840907279464348 0.018070719945844103 -0.02768309417086936
0.02679080037211574 0.018155161477939524 -0.02731235750923791
0.02736919169059635 0.017077566178449848 -0.0284911438993819
0.026898191497889967 0.017971186000569177 -0.028016603852416885
0.02702446931645862 0.01771728682924293 -0.02771238116674398
0.02741109858040363 0.017020637643331567 -0.02921395572259714
0.028413026689616126 0.016809431524332494 -0.04164509096877831
0.026791127399670024 0.019295124000347663 -0.03867877694273003
0.026577356193591216 0.019648940842098277 -0.03840002366158439
0.028245438271106142 0.01716739669129602 -0.007844165887865155
0.02622044770017528 0.020122854088028025 -0.039020212245208914
0.02648784600332526 0.01946182713153218 -0.03668583006597481
0.025796693168569907 0.020190303281264168 -0.03561867809155857
0.02360367032663315 0.020589881574970555 -0.05001110021086647
0.030285002484856535 0.01001241462823892 -0.017708200633919535
0.030702396003834363 0.008210424311523844 -0.018193579555388924
0.030442712769853924 0.009454660079086902 -0.017554217185174123
0.03027373374679066 0.009941802105907659 -0.018021908765884782
0.021721011833742677 0.025213521118932755 -0.039587536484504374
0.02928654295448604 0.013941302251208975 -0.01701468162205705
0.029205428580640687 0.014394383409812094 -0.01647440698839512
0.025996349306862256 0.019592343749827552 -0.04791056771683755
0.02966868665947379 0.014328308451768726 -0.008834891229514048
0.024963924823496624 0.021610755478688168 0.00039151891753096797
0.02863902380156437 0.014117062962323079 -0.02497753076978959
0.02835984252561316 0.014831365539442443 -0.024360563673547705
0.028488341091581618 0.016831741727736563 -0.043023532766636216
0.0287118254576871 0.016383028314668608 -0.042595380476409185
0.02895773714755094 0.015870540854948413 -0.0008408799328456658
0.029300420001141046 0.01262841469674359 -0.01964562633154169
0.02899591090855502 0.013526623084672408 -0.020339050390865775
0.02928319266947035 0.012692488195439944 -0.019635239475619754
0.030017109528950876 0.013112081258967182 -0.037923385631176164
0.0269191318952875 0.019248593116684084 -0.0017325419109641606
0.026734913974229967 0.019530113069322723 -0.0019351980929167702
0.030408242535347445 0.009810406053164224 -0.017053943259241363
0.03032276700685796 0.010128077906668281 -0.017097393386933085
0.030396500543435068 0.00996135693843069 -0.016844819233239005
0.02350783504683429 0.021187411853405815 -0.04975288936150448
0.028423045885774833 0.016593815998305866 -0.04536111950558217
0.027262167710249224 0.017757598405099474 -0.03505068505742484
0.026793277942659587 0.01847264399299552 -0.034079444752690875
0.027282839285520274 0.017659677093445243 -0.034922191232887555
0.02898195431351072 0.01587151972392444 -0.042542210899323155
0.027188359930132952 0.017515948233407994 -0.03147780778708968
0.02715539704124652 0.017561031266300993 -0.03082472109794125
0.02712296677609732 0.01762432712802254 -0.03085620299733199
0.027082677926913108 0.017696689974570964 -0.030672162452858275
0.020033464349441622 0.026600458256784826 -0.03993155269103627
0.02736888040016992 0.017097230552917658 -0.025025347343208635
0.02781054974657822 0.016220782597567526 -0.025113901695080394
0.027859386057249497 0.016089622696360162 -0.02685257548711756
0.027706688595033162 0.016410756232983808 -0.025907224391260895
0.023699815082720215 0.020878993742685002 -0.04975581511842729
0.02831765064567157 0.01701766041741801 -0.00019831597416257015
0.022988239371819603 0.0172617830155012 -0.04789710737058682
0.02730081920667069 0.018768115094444905 -0.043052417752368594
0.027501698995176207 0.018516160160638 -0.04345636261898831
0.024263211323551644 0.015224520531943043 -0.047961711515680586
0.02378303047129668 0.020414927789782045 -0.05015253929242767
0.02654687952110673 0.01512355093300545 -0.05034972922580379
0.029807416478031826 0.010923975065799446 -0.04999769418006921
0.02501442263188048 0.020947931217371298 -0.04715572777235433
0.023742251165634443 0.02047374247069185 -0.04995593392584746
0.028806502050896403 0.015998149008540404 -0.044957000101599115
0.024235534002631464 0.022607504814626405 -0.0403223311826078
0.028171018173818282 0.016271305497624514 -0.03655752399188376
0.028148753504862022 0.016299232391840526 -0.03651996486561168
0.030063760775015533 0.01385967100295095 -0.04190005332246218
0.030316662965861923 0.012708990495483203 -0.03894769309093735
0.027695735319535345 0.013268661029649322 -0.050582843450903414
0.024506130619187327 0.020850068952455024 -0.049483660255019504
0.02724841238914693 0.015285567233085988 -0.05021913945093333
0.030182566022675935 0.008987137044165124 -0.021298197784528794
0.02981331123621006 0.010274356674402078 -0.022071629426596545
0.029767625205800036 0.01045971003559991 -0.021972876031978953
0.030053206321894406 0.009437116824266976 -0.021576359463824468
0.03022266525802813 0.008791721013787331 -0.02162878004909667
0.03017676902435714 0.00885927861798687 -0.022413774645979132
0.027589483452729085 0.014571752693509587 -0.050446888865979395
0.027389500592240282 0.018554884372321123 -0.003195247781442328
0.02754123106222873 0.018283537563158724 -0.0029628865523167363
0.025400652439034072 0.02023219852266967 -0.04824846517922035
0.02499622301254185 0.020739717906645923 -0.02253548461637839
0.030963514386453197 0.009670084459247373 -0.037256272567384965
0.030806943074134154 0.010284505629013209 -0.03720337393297829
0.02782004751915399 0.01616748640791309 -0.027366349167306642
0.02795890878412359 0.015837693734298823 -0.029300174412612387
0.027643672649393873 0.016532672957405188 -0.028373644258530294
0.027497741993461854 0.016826873080006924 -0.029719909326571377
0.027592960475934136 0.01663715821854953 -0.028696481750554458
0.02580447568985714 0.019834103379733094 -0.04745563208147879
0.02716609264556614 0.01873582263600634 -0.0009651881213417197
0.02740598326210732 0.018414923600916455 -0.0008804255978112396
0.02450490570386229 0.02151392293483649 -0.02650384655842758
0.02398361022305638 0.022148140966743616 -0.02626477621510103
0.028700249317054383 0.014016358100505489 -0.02641683456268036
0.028568892445162926 0.014332429864441661 -0.02628718516247097
0.028684285952217926 0.014089785213157525 -0.02744521808325987
0.028108854431910846 0.015467667555047358 -0.026676741578976284
0.028601471831832745 0.014262168435501713 -0.02656180806670869
0.02813037668091929 0.017224247517934648 -0.03950624918747189
0.028181930668905453 0.0153566523898943 -0.029131290482881496
0.028325804728220032 0.01496630312688096 -0.02751156921507692
0.02811371025777201 0.015477143186341946 -0.027315563280763296
0.02835109088734733 0.014911555553763882 -0.027781128363067495
0.028611663742692195 0.014287908057656555 -0.0281801258008837
0.03093017641099137 0.012460441169050124 -0.04691215638054717
0.029278200072989206 0.015066471491117906 -0.0450004263270344
0.02911142202581836 0.015669094397309697 -0.04287145486905282
0.02369812650719287 0.022660588431894887 -0.017571029230571786
0.024140175915523216 0.022187715304349168 -0.017289766822827776
