-0.025861573713221335 0.020507356505719204 -0.020942422280122826
-0.025933912244045124 0.020419055641969292 -0.02107198198060453
-0.028848985719537742 0.01615302676210404 -0.02957665162990611
-0.03280777998331347 -0.002436240798680808 -0.0007847481374144028
-0.03250962143798835 -0.004693598670250817 -0.0009342377345439091
-0.029753173669706284 0.01417234196147876 -0.019486469556467902
-0.02951093337163902 0.014680626029337557 -0.01952760808836062
-0.032629382243757075 -0.004137459103437811 -0.0009695231145758206
-0.03215801432181559 0.007650193803249631 -0.04599700823763606
-0.028526947687566043 0.016573001584945575 -0.0222179530262714
-0.028564861390574355 0.01651880236599733 -0.022537343827513365
-0.028676480460215682 0.016337967116160847 -0.022797481243670425
-0.030980399498450537 0.0116137873329808 -0.0464371807180253
-0.03136541772033019 0.010039706093389777 -0.004648172292206215
-0.03065472398597752 0.01191483038406476 -0.00806153088160098
-0.0322991998540776 0.006558258583310112 -0.0024448785662781747
-0.030307898689399287 0.013274481491012298 -0.03779955979495332
-0.029051870851930103 0.015447350472610324 -0.009932728491104761
-0.02932084427159306 0.014925200519661163 -0.010580574847356215
-0.032689654428746995 -0.003100246819329618 -0.0027623722279137407
-0.0326937679380117 -0.002906668228337035 -0.0027291050458095826
-0.032326986269175004 0.006509437724332744 -0.002103494787604056
-0.03233655569702851 0.006385281870976303 -0.0018693044199048529
-0.032928067688578144 0.003608908106660511 -0.0349863071763231
-0.029897767529936687 0.014176003763540251 -0.0360109909854341
-0.0288589780588095 0.016172420530360915 -0.03950379831889658
-0.03228234444132065 0.007076048880310221 -0.037825438698077155
-0.03231329795211072 0.00605116264525476 -0.010340993815666527
-0.028977978623409534 0.015938453318070644 -0.03579531850004224
-0.03045320323406255 0.01294346737848661 -0.034973075263774016
-0.03039317893969111 0.013079906837896726 -0.035755237029774095
-0.03217970533168164 0.0063922165077575826 -0.006889266965234689
-0.02783914808735396 0.01770777911321385 -0.016138176268720293
-0.03271577084486693 -0.0019443376635959308 -0.0027063414252913687
-0.03270102277421234 -0.001955075680053999 -0.002849918632252279
-0.03232813074800529 0.006126664106902408 -0.0031189480000305895
-0.03238746398031076 0.005480007140537346 -0.0037570529530212837
-0.030188805370053088 0.012792280890831636 -0.0016529053690542042
-0.03088595246742242 0.011263013377768643 -0.014247661896695836
-0.030914777665057257 0.011146834267634801 -0.013565566004405989
-0.03105786264741769 0.01070069689917133 -0.012748314762492616
-0.030929309276427498 0.011079331887305947 -0.013045957282285057
-0.029595094191555805 0.014399152268781277 -0.0005526831843892562
-0.029488773369347413 0.014645392102369984 -0.00048088260816577216
-0.032458281065621986 -0.0049232966113354855 -0.003087133735371098
-0.031443834688147675 0.010207150177512692 -0.02940182887893224
-0.03201141389241661 0.008618095100717368 -0.041658292719878975
-0.02734187255407549 0.01854175812789376 -0.02842375152977617
-0.02477699140843971 0.02174762429695283 -0.0019783189921283354
-0.024534850800629476 0.022052708813930975 -0.001822852749610704
-0.032512247592880704 0.005834978292486254 -0.03798355156290152
-0.030293244798625926 0.013206444657752402 -0.02773081348380213
-0.030142973469728655 0.013303899636422624 -0.019708984127368788
-0.03022925168975302 0.01311613703365426 -0.020379379497730114
-0.030271013119793404 0.012982456509429101 -0.01959325343160004
-0.030308943058161363 0.012908170799312547 -0.020102305215205396
-0.02763522027951095 0.018041717396893316 -0.019640778710106218
-0.027477063567794995 0.01827759493620279 -0.019849025950727645
-0.026398865408228743 0.01986554120156645 -0.0008328837274007449
-0.026562157673452862 0.01963032538931835 -0.0010721681797811785
-0.03053143172667004 0.01250839851364201 -0.02692530863975598
-0.029835204134686648 0.014026695639819939 -0.0029979727833132014
-0.030233965173192306 0.013317578021948585 -0.027382871359120514
-0.027700659736810948 0.017911832874828764 -0.021842046534589866
-0.027942131533413968 0.01753339869937524 -0.021312493755793936
-0.029989763826971976 0.013786880950485966 -0.02629122962351081
-0.031024612051795623 0.011043037725690059 -0.019764261046319606
-0.031016216572059756 0.011109889631841544 -0.002684335716086736
-0.024964412069254226 0.02149889118128833 -0.004184625149349783
-0.03266390530847305 0.0030377131060887186 -0.004126703727254862
-0.031125853032057713 0.011466676131980824 -0.04486221493122389
-0.030455180098792424 0.012375734558026834 -0.004806338539596709
-0.033095751779796435 0.00014934902954056868 -0.008489954094090948
-0.02664435735780595 0.01945536642820901 -0.023146604148718043
-0.02709754126271576 0.018840211464313493 -0.02328234506187704
-0.02729312381987852 0.0186572240372105 -0.039715515775414
-0.027128057101757832 0.018898012465876725 -0.038675104578186736
-0.02984939459756371 0.013972907678247562 -0.020225547303506956
-0.02990663527400976 0.01385470487227392 -0.020686409558601813
-0.029610009617924347 0.014676726563227835 -0.027501847933982037
-0.030819869258495766 0.011490858255137761 -0.002082929658711521
-0.029913379017585114 0.013904621712552766 -0.022634953767900024
-0.03255130343068851 -0.0032245810434089446 -0.003867943887866201
-0.03189324860662404 0.007795525913884884 -0.013309328444583948
-0.03216007054043628 0.006814272070279501 -0.013184932007927736
-0.031846183543282044 0.00899103228602754 -0.03574042674609896
-0.030156519688988546 0.013289489125601638 -0.0033897426542876547
-0.030227660825425665 0.012914168240370255 -0.0031561078771191356
-0.029684329198798168 0.014981060235919904 -0.044460953629844716
-0.031137704946223553 0.011078605264888793 -0.03068903243641989
-0.03246741937557094 -0.003439577965015319 -0.004128995358684562
-0.027538601304847275 0.018226852369134273 -0.0303804908881692
-0.031871571760232344 0.007966813334505688 -0.005989435600837688
-0.029385363150751957 0.014747048887234392 -0.006692697718256161
-0.0297795119169307 0.01394015001213516 -0.006373422648078995
-0.03098872550562226 0.011113341571649955 -0.002165517306737443
-0.03278289150005265 -0.0005596332072328161 -0.005461803176528011
-0.032673325444336924 -0.0014434891390327589 -0.00475435294476096
-0.031229805915558625 0.010600827272496345 -0.02564170024417063
-0.03137356291317758 0.010763188999355234 -0.04137796025945822
-0.030302714632297105 0.012720250480913662 -0.006803548305904255
-0.030449079285168826 0.012362072794705144 -0.006492592656982045
-0.026375772114215358 0.019807842554350197 -0.017907147963359134
-0.032825987610541785 0.0040556355689333416 -0.03281625803306915
-0.03294664237757563 -4.7927896533719514e-05 -0.028000985655717108
-0.03306633219439786 0.0006906294641010209 -0.0325275538723136
-0.03289062905553677 -0.0008464436819656319 -0.015255311805166542
-0.026988364847984704 0.018871331103533326 -0.0013193511126722022
-0.026650108986770796 0.019484688987702083 -0.0014702614359824034
-0.03189761156857532 0.008513192547175414 -0.030999180893780103
-0.032503593337377616 -0.004725397632336816 -0.0013958277358183638
-0.02930176151506194 0.01493367711871216 -0.006409129270043213
-0.03218738853690639 0.006813627520523011 -0.007971632156896214
-0.03302254156074267 -0.0005628526523310512 -0.0318517338429941
-0.029324225169964552 0.014975524110957157 -0.015176339984037574
-0.02956152784964397 0.014500133704178247 -0.015391060887115697
-0.02959921263611945 0.014424584017267287 -0.01539613864211423
-0.02900739198881533 0.015843356685022937 -0.03072364558047416
-0.03293170690413756 0.0017124460817915907 -0.016913340750615267
-0.03246480772758336 -0.003950991761749551 -0.00431694789668212
-0.03265561855870068 0.0051111451193321025 -0.03236953219145158
-0.03296146445817064 -0.001681962605229586 -0.024302450829732373
-0.033015462789026506 -0.001508303521306077 -0.02354364708048328
-0.02869845555317421 0.016348684608787325 -0.026631758925980516
-0.02835927782618436 0.017006354385079175 -0.028758924532594977
-0.03171290126125178 0.008698946795798804 -0.008237424778460652
-0.028285334474448545 0.016866952684604947 -0.00168014561613832
-0.027931388449779805 0.017422288758323922 -0.001920870943429304
-0.030372022203649634 0.013142564296753204 -0.034073395194078065
-0.028136066451717817 0.01694904999950384 0.0008089287893609531
-0.03139438251719464 0.010345188730340942 -0.03456586148015132
-0.029894703011990893 0.01366943246796692 -0.0063839680913583535
-0.02979807115862347 0.013898460148296389 -0.006385142269880239
-0.029745419996624677 0.013978492690336273 -0.008186456844237227
-0.025811074654948953 0.020691563092000122 -0.0076298460612592295
-0.026359984278232593 0.01991533677156946 -0.0074825954116586315
-0.030314168822758596 0.012636747982229296 -0.009347845530949507
-0.03047759805236405 0.012291038085412806 -0.010124578876176621
-0.030048563928825416 0.013265656877377168 -0.009386658775173869
-0.030348869486536353 0.012584933770369379 -0.009931661997976427
-0.03148977830405944 0.010013670130318408 -0.030788521125548786
-0.03231933328750712 0.006029194265214014 -0.008336697831190865
-0.03244046723746486 0.005629279803590792 -0.008627132185174677
-0.029957720480764602 0.013752104188331758 -0.021143471982357234
-0.03254289206473755 0.005421791494146254 -0.02369187423666242
-0.032390655962943465 0.00623438755212744 -0.024791449087897082
-0.03255208655477925 0.005375815472808855 -0.02351932540483571
-0.032849374088147136 -0.0009098432150221004 -0.0064562288682967605
-0.0278571604579879 0.017832320002995384 -0.04183881253697324
-0.03292496056848648 0.002974712388561715 -0.027778723098294926
-0.03138834286116761 0.010377528368583425 -0.03204428496098934
-0.032871811643445194 0.0013604817601984163 -0.007946772333720917
-0.03221503062838134 0.007521543070945808 -0.03545975293664577
-0.03278253233818502 -0.0010355271499627827 -0.00590649474519915
-0.032723761817116004 -0.0017100666396590249 -0.0054691291716633395
-0.03282736813055965 -0.0019420348574040276 -0.006400033909277291
-0.02383566898512609 0.02275355972119659 -0.0014569312257097383
-0.024062910272204075 0.022609777482185265 -0.0021407670386020105
-0.03304335701873789 0.0004755256259816209 -0.03128159120953818
-0.0279248744041566 0.01766159385185255 -0.02793392371033817
-0.03025787071518311 0.013267780782195163 -0.031200868484965942
-0.029745698845266375 0.014481706255197527 -0.029384971659264653
-0.030795952712380156 0.011985218892224574 -0.03110006999878475
-0.031724289901684626 0.009140092734405638 -0.04632061885879394
-0.031048798670548782 0.011092975960265239 -0.005355406499146955
-0.032355285867963275 0.006546428192035107 -0.03450547828043987
-0.03304427695607071 0.00028061339265294833 -0.02964624045202948
-0.03154687874103402 0.009818423284254795 -0.030808965241238495
-0.02804717333558386 0.01745331319842603 -0.033649832634596484
-0.032193450037616554 0.006729869014071636 -0.012601815480699882
-0.032197872118679825 0.006654447565357139 -0.012962335993570303
-0.028989023921341395 0.015725064415536484 -3.444711629059386e-05
-0.028613116986324884 0.01638637660974841 -0.0016395950503211138
-0.028807634961919744 0.01602723004000882 -7.918132623338026e-05
-0.024340379434489055 0.02228654864855743 -0.0006212593655304786
-0.02968888390850834 0.014169526939375229 -0.012120118076447639
-0.029538459157119612 0.014488818190043405 -0.011276990173979904
-0.02973922258745498 0.014069740568078328 -0.01097653286199235
-0.03269624135559011 0.004772936641328285 -0.02948341005944162
-0.032827649577675685 0.003411645602965031 -0.02377324965438926
-0.03262575267678014 -0.0022258337145613255 -0.005138969526469598
-0.029359333753118923 0.015010408215265305 -0.021543013715308243
-0.02939518948416682 0.014962170179510485 -0.0219401377102821
-0.03190213606662528 0.007813917318801569 -0.005751454281357943
-0.027249687275823144 0.018531286386213444 -0.0022767940418069533
-0.026989964387396242 0.018952756065962126 -0.002132950099627842
-0.02717523320759687 0.018685608882310974 -0.0024430464821541846
-0.032610168773225846 0.004875628143446958 -0.021248251454008063
-0.029495676732268668 0.014506441856552692 -0.009615253298040114
-0.03196259817076709 0.0074840648806294395 -0.006771333508518576
-0.031061204401829863 0.010832601414855585 -0.015966163107923897
-0.030720853056270828 0.011749741891261541 -0.01574933018968087
-0.031141994619878162 0.010586997145994535 -0.015375199571531472
-0.030742694163318554 0.011727066804594193 -0.016596336771348107
-0.028175291019559255 0.0173399880257159 -0.035531271266314376
-0.02879523562438094 0.016247133115603246 -0.034154182914303166
-0.03279303477364136 -0.00045546501028585925 -0.003968760246095695
-0.032758638009970975 -0.0010648523471680658 -0.0033972202418168854
-0.0328341001576206 0.0034995268876679363 -0.025359570254727452
-0.03284114787757151 0.003428033679051412 -0.025475178371883303
-0.02901011900788861 0.015844157364535934 -0.03200026814799487
-0.031147477443592406 0.011038183871561386 -0.032002258211091025
-0.030044407740854134 0.013520547576958593 -0.019094340572518485
-0.03093764186070483 0.011698051749825106 -0.04593080861007938
-0.029920147682433576 0.01414678693848556 -0.037821738060487664
-0.03109892589203493 0.011197076430234881 -0.0296771212756166
-0.029839084777796537 0.014214628837176474 -0.03174144124802733
-0.03130143492472512 0.01062076117608614 -0.03455090283978397
-0.030484883218572522 0.01226995797177411 -0.004283907328340476
-0.027076430486583807 0.019001762811072208 -0.04128967815342552
-0.03303070996358961 0.0024030756021079587 -0.030786653590958758
-0.03306110168878527 0.00023415271445901864 -0.03286656497372914
-0.03303342261760397 -0.0001771152641022681 -0.029757224577525554
-0.03294906798019668 0.0034891142851184278 -0.03624250570997304
-0.029650355684145695 0.014234519512274032 -0.005814464932250147
-0.03301679609672797 0.0027528578317251307 -0.037859078119145365
-0.028441487602406806 0.016912676903639644 -0.03942418159386507
-0.030147198566294588 0.013115963095428671 -0.00039815505189746926
-0.02958505676555343 0.015054205494767926 -0.04300853239622436
-0.029409169104796892 0.015380877590656013 -0.04263666273241415
-0.02929804106769491 0.014962287578990235 -0.002681399216389017
-0.03302487930741894 -0.0005296557154459891 -0.03391950022444331
-0.03291430626324604 -0.0019830928584216173 -0.03019310696321828
-0.03285483660133792 -0.002188743829656801 -0.030900481814960214
-0.03289336784742443 0.0034674734776386383 -0.03387158437277262
-0.028716596525022977 0.016387014425856536 -0.028652680576944072
-0.03235746272839256 0.005924863968805929 -0.012634638041886952
-0.03245468979596321 0.005326762363509289 -0.011776935603905678
-0.030091995028423423 0.013775669292053138 -0.03398293012499044
-0.030220458067292042 0.013510344725155433 -0.033580996948977856
-0.032382171414246555 0.006499314627220777 -0.033964216731040754
-0.031144533928878622 0.010703074084440057 -0.02024084294968375
-0.031109514408130524 0.010797783723515197 -0.02034455744405874
-0.033037048149809754 9.24285583864015e-05 -0.029967841995889064
-0.032949029704495994 0.0030402767004510715 -0.03151598995857986
-0.029337801407615816 0.01527623585602115 -0.033223217607075306
-0.03157177011507178 0.009903938240241099 -0.036423686992894444
-0.03159790662021801 0.009741829879701938 -0.032052685447148364
-0.03296683373343627 0.0014118811864518286 -0.025740735090374722
-0.0330469338570495 0.00018311267801605395 -0.03200896549202249
-0.027831731267037942 0.01769701043938461 -0.004940394641730588
-0.027772888704974907 0.017799066741523432 -0.004994091601101965
-0.028007114669145763 0.0174093610671865 -0.004903977030096804
-0.027672950252551277 0.01789465140343762 -0.0073368431230940315
-0.027630123902717213 0.01802517412623266 -0.006700901864983481
-0.031870966914274865 0.00880271054282834 -0.03279175440022302
-0.03295366045390817 0.002894871200768214 -0.03353215513881866
-0.028832323751113356 0.015816848941150773 -0.0037762881968595808
-0.028801727675932403 0.015820586671064785 -0.00326718124526897
-0.03303476001714066 0.00234129909539842 -0.03122752842179987
-0.03294857920812869 -0.00034553062100485174 -0.017834079825903796
-0.029226936197242325 0.015468134182832376 -0.03458922891288921
-0.030688743626794145 0.012335043340983511 -0.034288926598875634
-0.032977493910125694 -0.0025195750848681997 -0.02073893828529892
-0.03274324256674949 0.0036601620504308303 -0.013482409001504051
-0.03264398418670411 0.004324260569618109 -0.01347034941165723
-0.029143656757569428 0.015419027886824574 -0.01915351829500639
-0.028953258053182093 0.015773207212912026 -0.019196492196713266
-0.030500935953221106 0.012373513642553647 -0.016360280043677542
-0.030630423740162366 0.01205397146137406 -0.01718850048076571
-0.03269357738929749 -0.004556186204800444 -0.02640507755065752
-0.03279404423643942 -0.004222071948921155 -0.02737636382715706
-0.029721561443290422 0.014063727917422735 -0.01008682387233302
-0.030464897358249466 0.012550218347612725 -0.020806675047797752
-0.030437683219111437 0.01266952114767043 -0.021998008421147932
-0.03028109768982315 0.013020991892628186 -0.02120360896444389
-0.03045575936803273 0.012412031662176965 -0.013807412916447132
-0.03034310260260555 0.01269232009660219 -0.013934578128181396
-0.030323589713539385 0.01275259796086868 -0.014276626776473554
-0.031883198962979684 0.008631943062907132 -0.03048295686560156
-0.025978003098853064 0.020354069233350317 -0.022711048564095646
-0.025875084499647594 0.020486370628188703 -0.02267754797809005
-0.031715718837040295 0.009347877586661002 -0.033962802781815425
-0.032105659128312675 0.0075693527799020515 -0.026993701574976416
-0.03211125047538165 0.007562788489380067 -0.02753031096660759
-0.03249371035412935 -0.0038826159219173344 -0.005203407642044549
-0.03292743001937331 0.003702548294395312 -0.035318456100124046
-0.03304152609126601 0.0014084684206526784 -0.030771534715855663
-0.02931376382396406 0.015329919047335478 -0.03573121926756907
-0.032964532081830734 0.002870126060615807 -0.032837756126938476
-0.028600681599985755 0.01638900373520094 -0.0018782875782982738
-0.02856307997409489 0.016400356178460213 -0.0023123918993968647
-0.029829131654001986 0.013778324588855612 -0.008652825724890595
-0.029831685240563593 0.01378284625723982 -0.009391986341219564
-0.032895097034006816 0.0036629084049211304 -0.032689686717567154
-0.03289046825365285 0.002583629537843935 -0.001062821436635162
-0.03132780757477402 0.010924736629910337 -0.04499703631090946
-0.032703655956014904 0.00462326862365726 -0.0334350550444771
-0.03156675233162167 0.00926753044025712 -0.017141501979528496
-0.03148256166881796 0.00956651977209314 -0.01740837393024635
-0.02811272359170843 0.01740157980939237 -0.041903803830344345
-0.03293822452582529 -0.002005817003701267 -0.024267268405149128
-0.03168857683512108 0.008993923512952855 -0.0466695220240866
-0.03236869398852553 0.006564081788350308 -0.029578524203675745
-0.033074884030553794 0.0014248927341895578 -0.029779106233228672
-0.03086537025506062 0.011897253095384513 -0.03624108462392278
-0.031851171855517654 0.009034111183578258 -0.03650859235396621
-0.03278507261848543 0.0033368171031841576 -0.013600071846449853
-0.03163435505578411 0.009955996928069265 -0.044579050096006115
-0.0328984469023192 0.0020911196403248255 -0.021487939059040895
-0.03212985995679876 0.007903135571967795 -0.03726579294891174
-0.02923553126872656 0.015432921501376963 -0.03253767879391815
-0.02779650855766834 0.01760622215485003 -0.00889765454609727
-0.028049290916451645 0.017156302986681714 -0.00866966739332198
-0.03206781649307482 0.007903464357778778 -0.03896105477368761
-0.03277986862855432 0.0036380063127503005 -0.019478607375206722
-0.03001553094935583 0.013884068457235199 -0.03645295989748161
-0.03268452768289508 0.004628919802450292 -0.043832479668683345
-0.02974046116909768 0.014514799975546121 -0.03700184028180142
-0.031228236098165833 0.010935507047211392 -0.03790250308886961
-0.030998491599702062 0.011599753036062008 -0.03709003544268336
-0.030441826940907794 0.012433899539031821 -0.01305180223648356
-0.030165051219964885 0.013101025024777505 -0.012632647922169872
-0.0304517479016084 0.012406578297664088 -0.011474838674790046
-0.03279531265155731 0.003541915219000466 -0.02168888345673831
-0.032738201987724466 0.004070165138964489 -0.02102529144979917
-0.03230200166775561 0.005880277386939522 -0.005977719690151994
-0.028670101494155803 0.016401239564733584 -0.030842730621192655
-0.027098438246299556 0.01884820495696305 -0.023834738660066263
-0.026390813362093618 0.019806853542565988 -0.023494869971185113
-0.030592454792419246 0.012582184489658609 -0.03634533347891119
-0.03254020909558857 0.006248565516338221 -0.03882798802983016
-0.03214191686128395 0.0076629598132222365 -0.03145742276468865
-0.03231153532887388 0.006861629322592448 -0.03621928781747049
-0.03301013189890455 0.0022592698559295065 -0.028974291176054545
-0.03200523140009559 0.008276039114435746 -0.0327296997443735
-0.03035111594287409 0.013171881633500849 -0.037065393672137896
-0.03291583992614005 0.0020296306640406716 -0.015178904871932176
-0.0329148389019068 0.0019621999670439414 -0.01483962261797073
-0.027312859302912326 0.018530464814217315 -0.017551945676531462
-0.027091347644265427 0.01882646912351812 -0.018544422718056282
-0.02719617518901803 0.018702166900339778 -0.017364070768252082
-0.031114772035801826 0.011581936713950872 -0.04214811781130608
-0.02940443672561723 0.014998743237474924 -0.024538535993993017
-0.02924035059313356 0.015320308849620042 -0.024252141434778482
-0.02954072615046111 0.014708148335746334 -0.02355655212547788
-0.03293193859229056 0.0020316626277404703 -0.020188368355727893
-0.030785815409515353 0.012106091058710642 -0.03482816533351401
-0.03268827760997886 -0.004602357598145528 -0.02907097698024113
-0.03091164601528244 0.011489841899666184 -0.02473847812142762
-0.031087002211124596 0.01098748987461734 -0.02476332997793248
-0.03305920710903515 0.0006106807308166324 -0.03318807090875553
-0.03240165776774551 0.006694529010947518 -0.04111973431853247
-0.03243894964611037 0.006410654533431333 -0.04147304659243841
-0.032046520444913434 0.007011252325464364 -0.006674870567937349
-0.03274419252731403 0.0038539466306204873 -0.01710282596989278
-0.0301942264674623 0.01379888071142577 -0.04421964766094324
-0.030258039450059993 0.013645384858814523 -0.04400055137668857
-0.030229769485411905 0.013183315717468152 -0.02306221339679497
-0.030364896031754046 0.01310322367540926 -0.02911619976077942
-0.03265471383693232 -0.00390926190203361 -0.0003229393038036676
-0.03200894829122032 0.008439125320003335 -0.03625621335724997
-0.03072294164799309 0.012292122682680809 -0.03732226642621057
-0.02779075718992554 0.017575768093311454 -0.0012443330702313253
-0.027588075364297145 0.01786993119673885 -0.0010683966606811848
-0.028034045497873826 0.017221191253043312 -0.0014924507660940504
-0.030723717194490793 0.012491958300709177 -0.04466357721864354
-0.030597916923834324 0.012699642303928563 -0.04497407670768662
-0.03295950339474848 0.0008956846389275249 -0.01200313703054929
-0.03176151326915967 0.00926479940797176 -0.03749771585537984
-0.0321263078429172 0.0073594890202607335 -0.020011272392993443
-0.03214568433284699 0.00727376987139706 -0.019972759318999757
-0.03252442305039431 0.005813899326798894 -0.028848381751114992
-0.03053242563536998 0.01274353095387507 -0.038329487451838215
-0.030944298006379756 0.011655065276749706 -0.03345941889173639
-0.033035505494075114 0.0016525619743865238 -0.031147155256346752
-0.02948731996375658 0.014918715017142606 -0.03874739887911015
-0.03162473402728627 0.010020858129363291 -0.0443415497193059
-0.03305431348214852 0.0014962106581287082 -0.03203771551357922
-0.03305522989336162 0.0013284754152761708 -0.03186846202218876
-0.033035452525949444 -0.0005778931571231676 -0.03239349957161941
-0.030560115491206005 0.01203207970637582 -0.009121292384084238
-0.030695292407652376 0.011697255725229621 -0.010358076070826868
-0.03064087914461011 0.011835420000005318 -0.00995016893604643
-0.03297546916060476 0.0019203935196168017 -0.02797756755395918
-0.0253380471207584 0.021051699874217584 -0.0005675738480487414
-0.02500683374508634 0.021464266012369476 -0.00048796511102106943
-0.025021760959599473 0.021442437799194785 -0.0005856224755387813
-0.03252860412164969 0.00557489012912508 -0.03406853756013829
-0.03246449863203867 0.005931239041661113 -0.03421711688795362
-0.03300146117772748 -0.0007852580440091091 -0.007585881144367851
-0.03209087239923496 0.0080376255851671 -0.035380165359317414
-0.03248632074417891 0.005925962325331826 -0.03051437714006924
-0.03164215075721538 0.009432765945095494 -0.028474543584637815
-0.03267061470492897 -0.003092747094591371 -0.001746020497798349
-0.03270118868048688 -0.002334977501421974 -0.002402211574541853
-0.02588922178330253 0.020609950133318174 -0.04155048704679096
-0.033033815356138876 -8.194611582141141e-05 -0.02898773447807645
-0.03227550270133469 0.00724173840920157 -0.03998800018187117
-0.028593457917764648 0.016540308841248824 -0.026665533721621795
-0.03302212892163884 0.0020878393971809897 -0.03248224180613078
-0.03164988131452566 0.009663694700583423 -0.03814226875240739
-0.03241458414330256 0.006364009245871962 -0.03644951508616696
-0.03288025314442739 0.0037700258905961825 -0.039041739124144145
-0.03262824745911807 0.004796090410847511 -0.04305967077383887
-0.030451588878958984 0.012637778890019645 -0.022226901561895544
-0.032410920237172465 0.006400091303570724 -0.03170352565203846
-0.02462562909278072 0.022137791663614074 -0.016901958641818506
-0.02556675895040307 0.020899951909625545 -0.016334937953139853
-0.025385725793329556 0.021133330273293383 -0.015879653889566414
-0.025439500174316836 0.021064986176822627 -0.016131721537668755
-0.032046465109127405 0.007402140238883045 -0.011572615285408138
-0.02760037015105482 0.01808553267788156 -0.01578161607237558
-0.030472078326702363 0.012217349665030346 -0.0029871214343339158
-0.03101021397709288 0.01132014403182725 -0.028038908895508852
-0.032952982585168225 -0.0003341332736946962 -0.022251802363517613
-0.03278205875903608 0.0034866876808869623 -0.0011858318409614928
-0.032780939254941424 0.003489311520161307 -0.0011942508294819076
-0.029842961441114223 0.014336275935032613 -0.04517640025178872
-0.031340427484651864 0.01005928118185823 -0.018420015391515925
-0.031215367827912045 0.010426207839138644 -0.01840931686576111
-0.028434704627921283 0.016482326018932698 -0.008328889793004909
-0.028236472076800287 0.0168457301948634 -0.00933214968745432
-0.03224440593188071 0.006785533467618752 -0.019045615260044058
-0.03219163181825803 0.0069981070437962565 -0.018185066019748314
-0.029691625523877996 0.014780771891545925 -0.03986911430274285
-0.03281371122576858 -0.002642142513794544 -7.84180080529953e-05
-0.032496351961050315 0.005320181443561897 -0.008468530983631603
-0.0298634732331284 0.0137855402776789 -0.0005223752325408962
-0.029976258485327006 0.013515535712551168 -0.0009271358719725565
-0.03179968826324135 0.008266344612702913 -0.005633195408868056
-0.03194217488714793 0.00761918821589668 -0.0047397118952594245
-0.027578352125666002 0.018048871262015938 -0.01235458604537977
-0.027539039493981246 0.01811057317712382 -0.01199442147962201
-0.02755512038034764 0.018205312978779878 -0.03479299712720208
-0.03299428009546315 0.0029283582808007293 -0.03625833855825954
-0.033009205064092155 0.002683663407491839 -0.035946084528482525
-0.030338229877348806 0.012976696817991658 -0.025912669796857805
-0.02940320000446075 0.01511431139347079 -0.031408338137604935
-0.025438378317498248 0.020991763263865 -0.005231823607713529
-0.025598679990244927 0.020832516299868924 -0.005606744944590601
-0.03246565153780018 0.004925702245690902 -0.0075053208272076125
-0.0324018861543067 0.005261405634470219 -0.007705072678191053
-0.03290138533635043 -0.0022439883158820646 -0.03136679953778488
-0.031144708902818487 0.011200044923452975 -0.04583311069183299
-0.0301046186135284 0.013732779826072107 -0.034670198939351554
-0.029654448233229595 0.014670081261392139 -0.03504283473769823
-0.029073658100995263 0.015742261549060266 -0.02755771754213831
-0.027793867544840527 0.017891210857989615 -0.03478473298567521
-0.030713846643803132 0.011933412088296977 -0.020928503582935687
-0.030976716609736873 0.01123608998836946 -0.02187896294933406
-0.03089345961293418 0.011464823439630751 -0.021895610806297025
-0.029032237614582238 0.015813775449013648 -0.03334629351012094
-0.03296085802770708 -0.00283409240687025 -0.022262174022054222
-0.03298491859762627 -0.0023812106585108387 -0.021955206347082805
-0.03293207873092427 -0.001305984426886066 -0.014073430758218741
-0.03289526330115354 0.0012915396196657258 -0.0022791191194215105
-0.03291110277771539 0.0015023000802668659 -0.0004708375432085164
-0.03291417987101383 0.0016089210365568874 -0.0010526435707606456
-0.0302412496069945 0.013664313554545792 -0.040336381264960676
-0.030255886921174067 0.01359661754694622 -0.041265862006487075
-0.026971764450350922 0.019005481062646615 -0.019985309252742355
-0.02647543427632014 0.019707902803410424 -0.019963540320252802
-0.030704176403218156 0.011784474090952464 -0.0012258854150983386
-0.03141447606286871 0.009780244106054629 -0.0011298247713449358
-0.03149416969414591 0.009483571430295108 -0.0007382299818752635
-0.02684411614380495 0.019366535014930894 -0.037118477684558795
-0.032881846648831814 0.003740516462740573 -0.029859218218186837
-0.03294441689665221 -0.00018709710503701156 -0.01885568150140004
-0.032946047092146546 -0.0002889573222551164 -0.0186328655225788
-0.030471649044185672 0.012825737031606029 -0.03207983748770711
-0.0325106316979072 0.005778892990232625 -0.04214903655120099
-0.03250442529979516 0.005848444684904307 -0.041800058276894723
-0.03289540721802363 -0.0022052760541264706 -0.02922986309293192
-0.03266502908585919 -0.0031285749038718175 -0.001491474692174458
-0.03267385574496534 0.004028708327969007 -0.009947117996675348
-0.03256649381967439 0.004803447177790568 -0.009851382605209317
-0.03102771225018642 0.011184951458111877 -0.0063426203909422735
-0.027783690288868377 0.017779188378000032 -0.005458190741072852
-0.02789788090653908 0.017584317441440726 -0.006301352466661529
-0.03251538366539058 0.0057711935167208735 -0.03550722450338687
-0.031567879810754526 0.009767743303968223 -0.029933652445388974
-0.03238120830456242 0.006880053738961426 -0.042956423463043375
-0.03235446451006532 0.006977839201378981 -0.0434482604385171
-0.031419895949468916 0.009959351995463004 -0.023695586673416893
-0.031138588572384725 0.010850456866022831 -0.023841004429540277
-0.03154136999706307 0.009573466584956494 -0.024330990617538274
-0.03278780121330542 -0.002258900708271239 -0.001289955106099607
-0.03276289160263845 -0.0019415918989909163 -0.001957594973644034
-0.030649710798361048 0.011953666388391798 -0.004935648925266191
-0.030648887228023045 0.011963877388579423 -0.004703647053441989
-0.032510498911881194 -0.002758768025527625 -0.004953337900140227
-0.027334174320028964 0.018613221747093886 -0.03984594468629972
-0.032846907784398915 0.002815731115219193 -0.014005151327111071
-0.026662333465524404 0.01952950681423824 -0.002303338179055738
-0.026424448829664143 0.01983798368573256 -0.0024091705707944724
-0.02676483549414388 0.019367205141680995 -0.002615319366977456
-0.02758707917492853 0.01824545471317089 -0.039706271184284526
-0.03210976279123147 0.006714305311008232 -0.0058788333883275255
-0.030847447266592685 0.011971401598942999 -0.03687853694205956
-0.03303557488238223 -0.0019789474185183363 -0.007922654529878679
-0.030449571892495426 0.013255712246141523 -0.039460660637632816
-0.02652538680942511 0.019668967730619533 -0.005770587141474402
-0.0265409381099136 0.019648494456234865 -0.0057115084407695655
-0.026397229031921227 0.019836732320291886 -0.005846538766151902
-0.026129929511741246 0.020218667049745384 -0.01876532733831445
-0.031554779613270634 0.009286241001586815 -0.004785468857412875
-0.03181513200847429 0.008264542325750256 -0.004669514081914055
-0.03197000082800641 0.00809918515610136 -0.025625207464132195
-0.03192261101098156 0.008274010469042688 -0.0255055128389415
-0.032918449312375336 0.0015452828514877425 -0.021483307650757573
-0.03293155351242081 0.0009841239267493341 -0.01853721310513481
-0.032963003999862406 -0.0010395646788165732 -0.027837201893996952
-0.027017223062757622 0.01895788385990779 -0.008779077156532164
-0.026664294629963108 0.019441526022280255 -0.01692892153694689
-0.02679803273495751 0.01926131708874658 -0.01690694623344005
-0.03210319100071248 0.006793740502163 -0.004588915285914415
-0.032130963718643775 0.006651278366066616 -0.004574167451059041
-0.03308955655579946 -0.0017694522465838828 -0.008343379884013409
-0.029333246047529946 0.015049702182587062 -0.018772758942939085
-0.02936891806703075 0.014976960797163081 -0.018850417975196612
-0.03297020014989576 0.002884655142482058 -0.029159412961402807
-0.027901889675612166 0.017686323450186982 -0.02976595648309765
-0.03142281224119613 0.010256050357835392 -0.03407144730268237
-0.03277431879156362 -0.0024249987103879653 -0.0164526143813347
-0.03281639021716899 0.0013489753434711956 0.0005483284120895763
-0.03269056943468799 0.003379378307115276 -0.008421913457167918
-0.029727702465969612 0.014222231012638541 -0.01853724240252623
-0.03266419860572584 -0.003679897206908284 -0.006293764709775735
-0.03259658990498051 -0.004187422656259864 -0.0064529953598440794
-0.03280046867489829 -0.002694788383548692 -0.00650327351822063
-0.03268815242843738 -0.0035285035559065054 -0.006635745134189772
-0.032935346679758 5.009076825349773e-05 -0.0004999557448265395
-0.03268206363542373 0.004042140596831462 -0.008854680448736425
-0.028180604234913646 0.017215135981379956 -0.031154313941150057
-0.026943374367408936 0.01905798273563462 -0.016385394555664467
-0.032205970372484384 0.007485293368575932 -0.033219451580285685
-0.032850703843382074 -0.002540281049387191 -0.006862985397250984
-0.03297035337331044 -0.0025569508049563335 -0.007869796261039681
-0.032204511127437906 0.007532993328219251 -0.033524571396757755
-0.03195326485764376 0.008557643364296468 -0.03328612997766268
-0.03148570342533861 0.009391186516098693 -0.009054350852959537
-0.030652675559784202 0.01220013964013279 -0.026611648948614997
-0.031078268040685253 0.010991934988798998 -0.0075165485546124025
-0.03148172552043769 0.01055893184204987 -0.04424384273646119
-0.03313392474525624 -0.0019077257588238456 -0.009352449802267838
-0.03316268561805959 -0.0016993072804908083 -0.009564765327308333
-0.03141821880403098 0.009946939738443041 -0.022766196244068223
-0.03130087838887384 0.01030333895294625 -0.022598110518347585
-0.031161677669171352 0.010736727170914605 -0.022682368057646257
-0.03248760775221309 0.006169348484373093 -0.04346429103150179
-0.03251741015573293 0.005812361375154663 -0.04308807388209663
-0.032210607491626325 0.006339897584449368 -0.005504223372489593
-0.03303605005426782 2.2563792448646844e-05 -0.03377825140758583
-0.03294958941533275 -0.0013406498242574554 -0.0072318367707427614
-0.0317312206728032 0.008551879066008666 -0.0059813289753374715
-0.03154794155778654 0.009396469490001263 -0.006475786785660756
-0.026835439201396458 0.019165671588163142 -0.0001759646984362346
-0.02880510099520125 0.016199962423582587 -0.033484978298473196
-0.032573550805571276 0.004253638080022706 -0.0076268590973040395
-0.030083279160141693 0.013933963729288868 -0.03949599719335514
-0.03200555591405112 0.00755098913459133 -0.003531033633883905
-0.02975084375772801 0.014557123020066301 -0.03919863448185491
-0.027620125871107203 0.018189065161690186 -0.03289116415612582
-0.03277966023361483 0.003553534194009795 -0.016365181397847255
-0.03280553817949076 0.002430189929955984 -0.008048903372136165
-0.032505423377518765 0.005285423935933802 -0.014659905633977843
-0.03253433248698463 0.005063124513834298 -0.014056037233852644
-0.0320151126777717 0.007887940393967875 -0.022029438344236478
-0.0329260577752473 0.0019249697283292943 -0.01627218144803213
-0.03290762861073032 0.002144562941896924 -0.01623170603167426
-0.032768053391833446 -0.002616661798535585 -0.018387315259082403
-0.03281383863926992 -0.002728761992690323 -0.01904404405883606
-0.030670279964163175 0.012371025878704695 -0.032546618332759236
-0.032932592076124756 0.0008998368733206261 -0.018559793896928127
-0.027276934136264523 0.01873981802111489 -0.03676918488152268
-0.030898568603093462 0.011340683453685491 -0.018213799798967062
-0.03269097440825221 0.004056846867086029 -0.014070030330660076
-0.03268556912795919 0.004133743422397279 -0.014328054483930791
-0.0290172971024045 0.015501174354717786 -0.009472358891811238
-0.029271347652762847 0.01497375114373845 -0.009027171505013037
-0.027498950248221427 0.01838838113564389 -0.03768963569205747
-0.032990679198114825 -0.002783446278078891 -0.008875152237459126
-0.03269464812717207 -0.003785571926583405 -0.008139689084734709
-0.032803189527987664 -0.0034190601243166726 -0.02847501516358041
-0.03269564913163022 0.003141881453775246 -0.007811628761586232
-0.0324084661997638 0.006322236413486205 -0.03714915104337079
-0.0326604252127473 0.0050370143213823 -0.032722961228429555
-0.03302367174410835 -0.00037842594292416507 -0.012351099076101917
-0.03300952144344637 -8.696767992020055e-05 -0.012351186202021292
-0.028820579071965547 0.01632184018345781 -0.041964437980181526
-0.03254501455306322 0.005655634678341151 -0.02990061468839214
-0.027800869416218853 0.017947594447841463 -0.035401161187939525
-0.03289021332845374 -0.0030499355654583413 -0.01166118826554004
-0.03301435862779514 -0.0024254530192407793 -0.01164403502630058
-0.02605499426516468 0.020367831810272945 -0.010157054915271324
-0.026187212183274147 0.020198003827245688 -0.010230423348848189
-0.023889102803769983 0.02282159514688454 -0.00025695039894706504
-0.03291351431127072 -0.00039770093881432014 -0.0005966560218400566
-0.032871117319170036 -0.0006396001655710509 -0.001015653439463355
-0.030063333887255163 0.013114409809816239 0.001131897909516061
-0.030319104163086617 0.01252930948395694 0.0013019013708638347
-0.03277424913829367 0.003793349543652079 -0.02392196213963878
-0.032602385169579924 0.0047253549378151035 -0.0031255125405333186
-0.03305942844965144 -0.0012316356397982422 -0.011904492833799876
-0.03307075710955945 -0.0018768649169061558 -0.01154802395906565
-0.02902215365412586 0.015547240773527381 -0.011457643293583328
-0.028218955920896842 0.01697396800163044 -0.010887584344243872
-0.032613220438886044 0.00496746776048619 -0.02378665366063359
-0.032666202970347336 0.004598686154378081 -0.024081489804412395
-0.032112958974600044 0.007534297108662831 -0.02230495097084837
-0.032962506846544816 -0.0012353929294507437 -0.028700311619957532
-0.027586265760831563 0.017839211684632355 0.0009113120278291043
-0.03256406866908615 0.005180172448120835 -0.02160239036666682
-0.032673233257974256 -0.001684736357748101 -0.004042938417992204
-0.03270379893900222 -0.0015734023216367526 -0.003504842788388838
-0.03271386976421143 -0.0016716670545105013 -0.0029510752094494227
-0.026678941412790938 0.01939609556995761 -0.018405713133088995
-0.032936328094484074 0.0015327440282529219 -0.019398463898658264
-0.02981850765162166 0.013876170103649487 -0.007187208450284257
-0.032940144490792564 0.0005853288726634494 -0.014743063203203169
-0.03293956133151827 0.0006734330267714638 -0.014485518741539364
-0.03244258800563397 0.004938693591973397 -0.004826480775970526
-0.03244245531230614 0.004940152155088567 -0.004466130805495357
-0.028065426918479665 0.017361338880668507 -0.01831337902304644
-0.0328659541427364 0.003685418660908562 -0.028206681740465048
-0.026844898574823955 0.019257494822535113 -0.02712286332764707
-0.03257419516454656 0.004002928900842186 -0.0052125238260443
-0.03294591326173749 -0.0007223879167449492 -0.014166314349719617
-0.03289107785394532 -0.0012199700062984489 -0.01471314033993225
-0.026223079400036667 0.02013895705563426 -0.04068904474007336
-0.03287148844637476 -0.0012905258746255667 -0.014948211033799074
-0.032697761397764286 0.003992564124670273 -0.002971113277745062
-0.03291526884705403 0.0022275239303491167 -0.020757323356081336
-0.029129269415698607 0.015654179469775337 -0.029606971629367502
-0.03266470887583052 -0.003965447893374979 -0.011211634971247662
-0.03267077684448089 -0.00393739611881653 -0.011203406318031683
-0.03288736468300231 0.001713417563489822 -0.008202956649858671
-0.03301848746183619 -0.0025507317863359105 -0.010686455575072683
-0.03295564773558969 -0.0027402537683090373 -0.01096549743055917
-0.032430947765407905 0.005898304964198793 -0.018382044121086943
-0.032441653722888986 0.005850293584657399 -0.018415792516604513
-0.03284900537415625 -0.0018061677873381962 -0.0009708126090364884
-0.03284400732576361 -0.0016236508057535942 -0.001071191333003624
-0.033164778404565165 -0.0015033208445957595 -0.010448638656168675
-0.033148915258953505 -0.0015163169313796776 -0.010783168421215687
-0.03082309610812093 0.01222149600412047 -0.040314676223085454
-0.025021614565588875 0.021468124629247062 8.547297845239353e-05
-0.024762093363747874 0.021808972605559983 0.0005137240434089928
-0.030532984717376702 0.012651734858595554 -0.04622519952566924
-0.029725228801038492 0.01452302888323114 -0.03543541268446419
-0.03256784219191318 0.0042869572083982215 -0.003962710466622302
-0.03294907471410493 -0.0020945228345557168 -0.02723971096000475
-0.032879426079310006 0.0006897652982877996 -0.007712101877035115
-0.03013137918309815 0.01358449615682006 -0.028092652505353304
-0.029897582984847366 0.013835730097418463 -0.018184594303479767
-0.02974485966282036 0.014158049422127849 -0.017661481138881198
-0.028923497579927463 0.0162669395587618 -0.04304834953326564
-0.029181981874391773 0.015870539465590465 -0.044128880914672416
-0.027352765488312294 0.018456547860355096 -0.018414221958744887
-0.032914630735197056 -0.0028057826774553624 -0.024422198220206155
-0.03293550439501149 -0.000636463127171843 -0.007294079694455903
-0.03118447646792396 0.01069042449471837 -0.002272493842460474
-0.03293694588491896 0.002812677202698804 -0.027442665546175263
-0.03273579860125138 0.0023178945564313884 -0.0035160905838744925
-0.03270048399449701 0.004770177753512172 -0.028407748950748702
-0.03277695372320297 -0.0020733587224547757 -0.015317003858935656
-0.032783753558962445 -0.0020666235388912676 -0.015237671855640744
-0.0298237223323351 0.013818206356478586 -0.007835660083804402
-0.03157121376477534 0.009223939047609984 -0.016324461804554543
-0.03136368591770919 0.009914716546331505 -0.016027291285800233
-0.0314366755370138 0.00967674623281239 -0.01625480340748353
-0.031455375040054176 0.0093550112280779 -0.012924729440640053
-0.03130807254878188 0.009843188000253827 -0.012561310830404775
-0.03256124205664589 0.005027495103802784 -0.01643271899357017
-0.03136300230448994 0.009680363824525147 -0.010203895597769776
-0.03130678365544277 0.009851470902561724 -0.010174672887823236
-0.03188671639846647 0.008194609012462205 -0.018207990283927392
-0.031826686033002594 0.008381125368894592 -0.01756991323626832
-0.032634089823636935 -0.00437538985410182 -0.01312211834278458
-0.03266896800823602 -0.00421162205870796 -0.012508487811879913
-0.03268918680386392 -0.004168198160737983 -0.013075904175502567
-0.03293010810700024 -0.0007280883292970295 -0.018003344481206413
-0.032867948550287296 -0.0018728193107607153 -0.018849052288784925
-0.03290698022494251 -0.001371103651854624 -0.018644249238413253
-0.03293146233173071 -0.0026054258098908776 -0.020099188622002145
-0.02793148535990063 0.01745468709616345 -0.002797714672230443
-0.02784663073066182 0.017585529725587908 -0.003360791279865349
-0.032823979389100706 -0.002755750630514555 -0.01445876089285797
-0.03292287957855132 -0.0024032918065333498 -0.013948261811230187
-0.03294397546988152 -0.0003770343154113159 -0.01726826926642438
-0.032704459575223666 0.0026738744219517445 -0.003960081057408912
-0.029519052474291298 0.014537777137153238 -0.012558266081620896
-0.029246574610016826 0.015113632055622576 -0.012413684421626135
-0.029477682089794625 0.014615088924351531 -0.01206106250593136
-0.03230783203308514 0.0065807507179096395 -0.020869791059795646
-0.0321873918723255 0.007115696381099613 -0.020724055139741203
-0.025360453761152008 0.02120251575226669 -0.018390161446471147
-0.025335344613943576 0.02123544884376201 -0.01841805526344127
-0.02510476750040009 0.021517285305801506 -0.018171639082555254
-0.032765901998890186 -0.0037252590480842712 -0.013351840996969825
-0.03284816161458371 -0.0034877084459322078 -0.012988237101630364
-0.032599975113984686 -0.004218368594215745 -0.01405206306124802
-0.03163288020191135 0.009526876002449865 -0.03100258231300139
-0.03199345115183524 0.007662590795501332 -0.00857578225968849
-0.029219581010782942 0.015436507359107182 -0.03735565844540589
-0.030109616638202608 0.013467817437196786 -0.023078431473177438
-0.032809028513820795 0.0006876961534863991 -0.005982263596405099
-0.028547183853614978 0.016640782502920434 -0.03214582458083606
-0.028800251036663657 0.016224485911072492 -0.0326368546031242
-0.03062158402662464 0.011870759901381575 -0.00247728855123536
-0.03258441329299787 0.00417425407504638 0.0010352285081549808
-0.027594745769839762 0.01795941937672124 -0.00021571651706865506
-0.03184428419294829 0.008848606923915163 -0.029786629899969636
-0.02736946214513478 0.018292602708355594 -0.011195666738743955
-0.03280995301558636 -0.0017356219068664718 -0.01766348975966984
-0.03277372141887263 -0.002055292902042223 -0.017681331987262246
-0.032806979781374014 -0.0017585449153093122 -0.017610206704210703
-0.02503744828087357 0.02158980496706911 -0.018871780368426863
-0.025890881221143656 0.020537231745659672 -0.01890357143956772
-0.032576184506497984 0.005423534518947926 -0.03536460899626452
-0.027039233749188978 0.01893305401637518 -0.009106085089746778
-0.027018523919177074 0.01886172745028156 -0.010283063359054732
-0.03004491795083335 0.013415152570952533 -0.013578050055965478
-0.030020761698948732 0.013484349251581467 -0.013949698320583443
-0.02921308389122499 0.015162408051806298 -0.011107640404934213
-0.02849369251276377 0.016568863055552364 -0.014285184740303748
-0.028504242332589982 0.016553257707915173 -0.013924438748087579
-0.02833426045494655 0.016849090811471755 -0.014085314301612795
-0.028058880182509176 0.017324502022898463 -0.014836713211759923
-0.031546828548590984 0.009928486967083908 -0.0035261314165813454
-0.02845806652274459 0.01666386196753941 -0.02058566040931684
-0.028480308865773053 0.016636665143324493 -0.019909856480362028
-0.026723325921253552 0.019500911894056564 -0.03941026732856273
-0.03191308706680515 0.008051262465767001 -0.016267808480860915
-0.032801375444321705 0.0006764801603521816 -0.004150203723055559
-0.03279503733068806 0.0007763809277345986 -0.004229103732024985
-0.031348004265582624 0.009822893477572444 -0.013911975039095806
-0.03130862940118803 0.00993844875878064 -0.013624527066759724
-0.031221886438175014 0.010294011557728423 -0.014327446019622162
-0.031190514363713583 0.010340638746288322 -0.013497216995125712
-0.028799854217679187 0.016137493077953653 -0.02485616274835547
-0.029048696810692783 0.015690660906824576 -0.023955080926568693
-0.03281057787431881 0.003379783582051225 -0.020950372007267355
-0.032692820418067876 0.004437895507646997 -0.022753531273821414
-0.03294481905425072 -0.0010534090946330945 -0.021145259247107844
-0.03254153380003955 0.004169319876498115 -0.006500822069620585
-0.032911157831770343 -0.0007815366027446644 -0.02161569894460233
-0.030256794701631798 0.013351312002185369 -0.029291358093752717
-0.032612158391666535 0.003769596802661661 -0.005622917794848217
-0.03264751050605532 0.0034681927325098706 -0.006500350837399691
-0.026687210369150203 0.019401970687907194 -0.01898819470407683
-0.026635715434825555 0.01947381757394793 -0.019247949813464994
-0.03042003649168027 0.013000320720865313 -0.04570121517358508
-0.025589468814337688 0.020787687968121075 -0.0048362046029585696
