0.011896012851313547 0.0232691660606813 0.045335133460750285
0.01798665132540443 0.018274064594184944 0.04534611542794381
0.016592603372104362 0.022859208488181685 0.045587430850746076
0.02003344305122519 0.019661571384453735 0.045424796144161415
0.017581298792657706 0.018570056739076454 0.04530054295207924
0.02122595065623522 0.022331191274765655 0.04526445289654939
0.016881007984337514 0.019011688712791495 0.04533496225728037
0.021943624400911296 0.021059496877593547 0.04528456796855919
0.02057534989837915 0.0181621013317408 0.04539460792394278
0.016368005204558 0.02595058567580545 0.04532026310005827
0.02093462863721022 0.021774948174808545 0.04529173883083153
0.017301982321551022 0.025354883308647658 0.04513892304951423
0.02239584889332137 0.021236704050129163 0.04511612449152984
0.01399801423420093 0.02282609090421959 0.04532441191840443
0.015669774024452413 0.024789858599529098 0.045607492767334196
0.020931532118855675 0.023859389199045292 0.04573980081925741
0.019756961432074636 0.02445717860280597 0.045550645144309086
0.01648415350637883 0.020065504028507826 0.04525983293510924
0.020238241931713672 0.01676607679748206 0.04530153194887611
0.015017114414205689 0.020573750488641643 0.04526198591812017
0.016761422822697592 0.01875111894278872 0.04538789591310795
0.01505762928514554 0.021060215806200842 0.045278970423858464
0.015539343260037544 0.018928385309429117 0.0454789492005696
0.021372537703923278 0.02334322482553488 0.04565015385690109
0.017834115931345533 0.022971134996154222 0.04556520536696939
0.014303443144736725 0.027441297359154338 0.04553244856034762
0.021619683406877754 0.021818540759146295 0.04527350326186254
0.015346231669779812 0.023435958869344416 0.04552928620193636
0.01512257197943318 0.023730163062810034 0.045558605444461754
0.020273719772270347 0.01760331503430816 0.045271748367442424
0.02010403231210755 0.02427643680463464 0.045622139148514984
0.018584016387899374 0.024468855362518464 0.0453210940156009
0.01566683545954189 0.019754808061133142 0.04538110053901559
0.018797273861173282 0.022644096766158413 0.04554078090959447
0.01317212719896797 0.02608669875339003 0.04562058107833494
0.015394878303065788 0.02219569250648998 0.045418901573115705
0.01705682755405038 0.018160193759059952 0.04546173256254486
0.01759500554143766 0.02570010182349281 0.04536481094672647
0.017570127388828245 0.0220847632886417 0.045558247924037634
0.01810487518589628 0.023039892757912656 0.04555998740838218
0.017135144730503794 0.024390157446121767 0.04553882004010101
0.016239077613724954 0.023625156249730946 0.04559764649588371
0.015756450755909944 0.025421773778498153 0.0455472900635809
0.016775975712372736 0.024247518090025122 0.04559241529928563
0.021372275135178184 0.02110138069505565 0.04540251976157776
0.01579224696544262 0.026367141986871706 0.04536354987822418
0.01700304882208226 0.02393566114138178 0.04559889347025737
0.014948425594548193 0.027730344074899414 0.04572814813880282
0.014693461058164731 0.026852443950714372 0.04545780348694249
0.017288616999456868 0.023835750446163352 0.04561102870888915
0.017825554567826894 0.025944653961098216 0.04562752045418176
0.015879321215278283 0.02666753299519615 0.0453600042552328
0.016512120637866168 0.017998937125319397 0.04552580182874601
0.014997815671564866 0.023888903454380158 0.04555689531734995
0.01829835691837993 0.025105722831740257 0.04526894148785812
0.018375782410113083 0.024199582860986713 0.04537820174371843
0.01939513847264439 0.018940235528021994 0.04536617298024322
0.013141268156131895 0.026886071868970164 0.04560447195946019
0.02164375767453091 0.020780040782282932 0.04544223870107742
0.014594553232106473 0.025865072441094417 0.04561435837286976
0.017161961423611764 0.026324906837857466 0.04560190524636996
0.013530284786819951 0.024800136776817694 0.045549022180938724
0.01932737900024868 0.023532263719167192 0.045437726044454875
0.014577766589691841 0.024594368505817157 0.04558894692824059
0.014127392892870436 0.02327627632486496 0.04541419379519665
0.013454482351712085 0.023064182732020162 0.045348860638318195
0.012889677883953628 0.022936298874285846 0.04536723062113396
0.019974761581312804 0.02280101040762804 0.045364528218903896
0.012500344810443207 0.02437631820963155 0.04545736076337438
0.014620375600001814 0.025080841084797387 0.04569573412822245
0.0182708400726142 0.025448829224895695 0.045391078064226806
0.016719681576093007 0.026887705586993223 0.04566400782033382
0.018978201519795457 0.022098645559544 0.045537766500901605
0.017782642721150686 0.024796923497833842 0.04518646321872767
0.017858282760455528 0.02461691688377089 0.045276161363016196
0.01690514447808548 0.02430687389115975 0.045591794096375635
0.015578436359632046 0.023050469657824906 0.04548695648295072
0.021195773569429407 0.021513834982463814 0.04531911922375287
0.013880358419062488 0.024122904080736335 0.04555770060900481
0.015691791813247705 0.020950656690990492 0.045324139418083845
0.01660752426778849 0.020421797505439543 0.04523971685213598
0.01327343031333589 0.026486539812455034 0.04566332470396474
0.014757886373971303 0.022958711274977846 0.04544208540276243
0.0050960967538016076 0.031087033538907176 0.046628197036805145
0.006144952587564743 0.03085263614995699 0.0460565867034553
0.005328464630738773 0.03106365789262608 0.04663107732731775
0.009502887931326405 0.031485593091876624 0.05047523030116762
0.0074112184013560385 0.03144835954298854 0.05042918888118971
0.008566244887286328 0.03129101109886594 0.0505962968407248
0.005852960667039126 0.03143028378295596 0.050243190301482846
0.0065951004467900125 0.031213980264393898 0.05015811011071068
0.010093755014053333 0.031250332620843785 0.0502888587357468
0.007545659572105942 0.0308506680464627 0.04973215360401443
0.0061321739243812195 0.03109958733043298 0.04970706290107752
0.00701618263474101 0.030900833670312017 0.04941075633450099
0.006328513583127776 0.030996226559340853 0.04898416670466124
0.007155883538517858 0.031095623305499667 0.05012097607143452
0.008618606495269196 0.03062267866267319 0.04951257864598177
0.008510475487565108 0.03102312976083996 0.050338842747262004
0.00708128320126418 0.030839859631620642 0.04917285979346593
0.005477295572421691 0.03123967290430254 0.04888529446081051
0.00930772300409445 0.03055892084137419 0.049939568173482184
0.009044946972911628 0.030709317899270186 0.050094662605550025
0.007962782872611351 0.030606132099391833 0.048333722178473634
0.008310597742255694 0.030556787834747585 0.04839221385028172
0.010019827363641359 0.030930875744800572 0.05059313457421713
0.009717376651056868 0.030336486392412345 0.04779307986483123
0.009784906898963332 0.030144695493443712 0.04640098523750965
0.010135617411331224 0.030263611907827205 0.04779491110950183
0.004934409111678198 0.03129639016919099 0.04706000113104189
0.00633425542988735 0.03095303490955217 0.046609282506134345
0.005915260668135845 0.031007902660394444 0.04712286530964853
0.008954015204425002 0.030304796146955082 0.04639036742243846
0.005604033125383601 0.031158201946429192 0.04763447319017429
0.010352535321170014 0.03126362264239295 0.05071927958561177
0.010477071372309622 0.030631081213376137 0.0504794605550163
0.011207575778053081 0.02979581610204543 0.04693885695736797
0.008639348569747261 0.03050829670146786 0.04726619079501576
0.0041578792669533125 0.031529467742193895 0.04689734261570384
0.006817150254614492 0.03171120345499961 0.0505414844716892
0.005731082388471838 0.031162980773942382 0.04900556045187708
0.008169388987375273 0.030640984312795876 0.0472792315180205
0.005382628501336834 0.03127406276367469 0.049054719544812234
0.004522856087023558 0.031550509418208895 0.04791889392131323
0.010345892972702088 0.030302143687612318 0.04984410982665615
0.008638215905399883 0.029902729672320896 0.045705342390437276
0.006400270455962257 0.030765964509790217 0.04591173479533264
0.008145508631636232 0.030615107060313757 0.04895859411796547
0.007238679190936592 0.03060567433812596 0.045677646458816605
0.00943274313958735 0.0298403426515121 0.04576176680707757
0.01131055482785266 0.029647101955184985 0.046257765111968344
0.010910718331862253 0.03000055905408245 0.047662468115305
0.008526012599198482 0.030433172818729176 0.04637887148363365
0.006569101908104142 0.030912365920007248 0.04761636513484418
0.010050121562515786 0.029647609944932252 0.04569957504511059
0.008768765430021705 0.030209638827177396 0.04610492291508429
0.009190694185695682 0.030434561922675095 0.04897117414574029
0.011248402543083322 0.02944772310982118 0.04592072732054461
0.009579706350193647 0.03045574231884846 0.04975545953423538
0.006027608420647859 0.03108805368850042 0.04823673123417096
0.006855164497140013 0.030883798692403985 0.04676787082959087
0.010717102569074257 0.02933215765348421 0.045614685112770836
0.00683171506019728 0.030844436082670908 0.047905736660281376
0.007812415106276209 0.030733781280677403 0.04693848604703625
0.011818542281846943 0.029493748410503565 0.04672419630183721
0.007098447816605483 0.030718579888592504 0.045983623015701545
0.00943026616387127 0.030394335677112062 0.04893363974870576
0.009628711120210853 0.030364198292967902 0.04864533458375223
0.011859680956624836 0.02936233952398875 0.04620359796515908
-0.0007898316421711771 0.033173917871063247 0.0494489148153515
0.0010234694966899944 0.032621747906873846 0.04778592376870203
0.0020753743324485106 0.032654197956866644 0.04822971368195539
-0.00019176671380511745 0.03306953496075293 0.049873796118673264
0.00022598821841359983 0.032952932112184 0.04801301693972925
0.003615643050120781 0.0322817124572483 0.04711499648387524
-0.0005538048743242702 0.03321403185717446 0.04935892665904521
0.0006740308058831967 0.03333478568942474 0.048699933010842356
0.0009040172191608019 0.03308262503647184 0.0496444044326317
0.0031774806699676654 0.03259507145362539 0.048081710890727665
0.0002222773883963422 0.03312235778381591 0.04832897962607673
0.00045193651299783356 0.03262078287455695 0.047475290857947716
0.0011632009909854787 0.03262335436622523 0.04793859510403098
0.0023319005250871444 0.03247062538828851 0.047630072790564124
0.0005996468742620435 0.033108480040732934 0.04833569276851215
0.0015371226520961552 0.03324125827644011 0.04935383658146224
0.0027162667103268804 0.03238270602979022 0.04743018038175467
0.0028202138058309057 0.03243020745274018 0.047729655723300964
0.0038313779098368577 0.03225838037562186 0.04741172756021832
0.003723053201616526 0.032612798799725284 0.04807379718523544
0.0020667011043117548 0.033090869547161283 0.04909405595896689
0.0014760443235190147 0.03244785043242189 0.04763589394769596
-0.0001944393387476445 0.03175637133404402 0.04959092808111212
-0.0009384473833569752 0.03154311693660748 0.04864324015441611
0.0039057903840818836 0.03158791893821117 0.04722537232389609
-0.002090195568709098 0.0314770567996139 0.048357535096150976
-0.0037132997822048076 0.032596865188561724 0.050429693479228044
-0.0020717240911564934 0.03226526491571558 0.050581579022258225
-0.0034786659205942876 0.03284658294065464 0.05022197912656621
0.0018199760542194098 0.03156466453101154 0.047463422448254654
-0.0030829961438084193 0.031654116372922134 0.050031053242018474
0.0016474952424815888 0.031703339934208694 0.04817446482383979
-0.0017390835669408905 0.0322087683512786 0.050570287509517614
0.0034298746624801006 0.031653599754486006 0.047827648537140804
-0.001858728954187894 0.03208208867192472 0.05046580659745693
0.0011090086753561303 0.0315819888159523 0.04781245678967504
0.0007621833100527537 0.031560801875791994 0.04788447487541865
4.9945081661292905e-05 0.031697926301166246 0.0489741355890084
0.0002782267853227979 0.031578134971652315 0.04812622098565689
-0.0011683145198480287 0.031948275235214416 0.05024324645748805
-3.0498465973547554e-05 0.031384048657135566 0.047487201271025056
-0.0009821223372604327 0.03155153580258744 0.04873142854279597
-0.0013040815151212721 0.031695467215082096 0.04971696159841941
-0.001209221120675751 0.03199865311011912 0.05032722287277695
-0.00035702293095680077 0.03151153887577358 0.048089199290282755
-0.0011269883888120908 0.03150084807178466 0.04846211367120099
-0.0020923965590499667 0.031858831544016336 0.050221251517476015
-0.002708455030723782 0.03156628213633889 0.04892408920435361
-0.002983116295805034 0.03154043829090148 0.04859803376656123
-0.002947578862909412 0.03159773711960685 0.04956187302809928
-0.003397694623679811 0.0314780829871452 0.048179519456173936
-0.0023484259333124142 0.032133416537469046 0.05050296788743679
-0.003096112007542715 0.03158449175321768 0.049776562004819384
-0.004890521103771872 0.031429479822419774 0.050126061686430815
-0.004727144573758567 0.03192852673540368 0.05057062835713688
-0.0035569323248831647 0.03218978717522709 0.050555284008149126
-0.004825180033316882 0.031665175629648205 0.050414748466520505
0.0067166702470073635 0.0323673758282289 0.048520748863971806
0.007556026626561362 0.032108467060150206 0.04916205075068762
0.008044471819301693 0.03174585271272669 0.05025993642923973
0.007146591370837122 0.03221125097902711 0.048312785036661865
0.008574846377651263 0.03174780582676065 0.04793019612747075
0.007784897598981434 0.03170725523357751 0.04737413661617812
0.006907047724790275 0.032321266213864094 0.049127696397102065
0.00943473759210986 0.031868368564583464 0.04896563641275428
0.006293988345068668 0.03250178363031779 0.04967967082869385
0.006458638267991455 0.032056582674284705 0.04684791572310558
0.005297784573037069 0.03213333436818293 0.047285030236863604
0.009301343417872941 0.03150302193597758 0.05024668229760726
0.01037610353882331 0.03131807254702409 0.049687264539951106
0.00776386020312574 0.03185908988026245 0.04751822471461727
0.006621546467974862 0.03233214138081531 0.04966050231846999
0.008243429237701744 0.03193241806458198 0.04919922449042456
0.009300013891175152 0.031505929844616164 0.050344183019488245
0.00837237676330886 0.031971980032458616 0.04858152202081214
0.0038079857748175216 0.03271618574512043 0.048451514543777746
0.005297749232201913 0.03289895383659412 0.0491793234959793
0.006286612329805442 0.03244858964497442 0.04981960840886458
0.008008024053280174 0.03203061042962959 0.048631567071472516
0.007394155935038834 0.03215793273323175 0.04844564203391629
0.009596443899358419 0.031572520187921935 0.049530698403924704
0.009470807079829396 0.03183401313747651 0.049074884690844006
0.004382118784411205 0.0322882295685016 0.04697308541011724
0.00472754354460773 0.03237019330173609 0.04789708344848479
0.004242719127937102 0.03233160557346568 0.04685116411554094
0.004153209747157504 0.03294761217307124 0.04886535296577313
0.0044695499566483965 0.03297924031846245 0.049041341405325053
0.004606728056718657 0.03228813591399115 0.046904876433427764
0.008287392111638403 0.03131796476467884 0.047010294886002515
0.004913482468555311 0.0323468232902412 0.047752263021912184
0.008578078123797924 0.03180703540037155 0.04812498323065739
0.0053079089360996414 0.03241964546880106 0.04620956008216832
0.008846783348226488 0.03175061786605762 0.04799676795431631
0.005665377447575884 0.03231868916794261 0.046581579511175475
0.009576872284980933 0.03170022764226465 0.04838497463165618
0.006181570364512126 0.032463155510326504 0.04852516142827713
0.004703955198693166 0.032751325392378336 0.04850497457482489
0.007058878698693076 0.03162828120581053 0.04713971169519543
0.005378545447527933 0.032134835282318176 0.047255810797242365
0.009175954233665323 0.031731871560060486 0.04946375667602294
0.006724865816404189 0.032055258021212674 0.050449125547246454
0.00043557215711594434 0.03292079323485958 0.050217683213935764
0.002260083188647086 0.031968782101745516 0.050271179866289345
0.0033456495045627154 0.03178243039889579 0.04953514882557866
0.0035982624313342874 0.03176528731517762 0.04956611601554517
0.003828460709870893 0.03162332730591514 0.047734687758788974
0.004173941635062834 0.031565234485923806 0.04721114042913897
0.00486512147526985 0.03148959759881558 0.049314556445200206
0.0037118754291402237 0.031671476254507745 0.04914967839825627
-0.0007757806044260522 0.03271946348935303 0.05038654488148753
0.0012242288413428376 0.03177937649310365 0.04907050796524928
0.0019301880138914138 0.033129541975509796 0.04980400281092791
-0.0011271905810631216 0.03264362522155291 0.05049858369602232
0.003867935327736764 0.03164227219749611 0.0485546578480137
0.002188636544459399 0.03172149467076548 0.04954190016165687
0.0027009856141246213 0.031659448613145874 0.04824120451042477
-0.0013169185204650947 0.03299977169141461 0.05001639256165906
0.00025954586045607344 0.03210764064423769 0.05038338274111611
0.0024198753702212228 0.03167678955764631 0.04914561769638191
0.0024098575221334173 0.03166591891800129 0.048699519689372965
0.001030733614040867 0.03224044976765018 0.05052691023537989
0.004162749900627066 0.031909863856606886 0.05025240014529168
0.003883098152342098 0.03241977616434412 0.05038434316094971
0.0018639795363388947 0.03174134394193577 0.049769575723037834
0.0019627856292735164 0.0316891894609144 0.049181341805329376
0.0007858705759030469 0.03179476341737578 0.04976104306700164
0.0050640532457515396 0.03237995837460665 0.05036886411442089
-0.0002760627103706113 0.03188180191802814 0.049885802699887224
0.004774524225741232 0.03285695117277442 0.04991385311700406
0.004531573276691473 0.032906490730772134 0.04986275713021886
0.0030778744940272267 0.03300741374682438 0.049750372374062796
-0.002371503537664445 0.032846914575719435 0.05028797842120922
0.0007309301755341482 0.03240908593895461 0.050470812527963156
0.001599241370496073 0.03238624268428969 0.050441806855847336
0.0021036267430952094 0.0324912450135614 0.05035407589409209
0.003236737234576989 0.03251412787801447 0.05032974066860303
0.003079195707630897 0.032328461202380775 0.050364062868242465
0.0008153367896364494 0.03274218986879365 0.05031416729010743
0.0024869842265457403 0.032993840393787846 0.04954295244671316
0.0025321286320044104 0.03273491996033376 0.021740328698939194
0.005504597822791167 0.03240182596670677 0.018360987405660015
0.003380461130147304 0.03280215610184644 0.015347972908310983
0.002999672254626266 0.032721472723479784 0.02294421390138454
0.002930683249855885 0.03272845844617399 0.023132985959517974
-0.0015930970643071429 0.03277045546072202 0.024535310522440512
-0.0014658007380582527 0.03285061828029136 0.014602127269959792
-0.0019593042986573 0.03283552756048259 0.014688456009891672
-0.008570833462139951 0.031539536848223776 0.02887058048305638
0.0043177920979248895 0.03260373986049751 0.01931127025294254
-0.006599312716435194 0.03221982805941821 0.015268820111608615
-0.0004737316058781155 0.03285508803739216 0.01986989099912023
-0.0051236168346591535 0.03246271696392961 0.019097685761298493
0.0014926496935715886 0.03292107086531434 0.013106329894253869
-0.01104537982304371 0.030942504164471685 0.013270235613476494
-0.006714865408364242 0.031998267077043 0.02749831505235713
-0.006492796834963881 0.03226358197125401 0.020249282784056674
0.0052578058427556595 0.032446437820512694 0.019645093258672166
-0.016650795599944687 0.028240939114303826 0.022618217006168763
-0.02153678424246224 0.024501245359334435 0.028735713494317243
-0.010360036382515132 0.030938987188903012 0.03337893071375965
-0.006396074608228216 0.032290243555487756 0.014046060461249846
-0.0015685397210587959 0.03275666883229303 0.021520474688230387
0.0051543573038038025 0.03250932035081282 0.017120000642976654
-0.0050987957062820135 0.03252087408263045 0.013311753668265165
0.0022705683991038313 0.03286313017403937 0.010885944177319671
0.0008474759591581712 0.03292735321997627 0.015238241096841115
-0.013211669167219827 0.030088312821444717 0.015220402639774998
-0.01328108258120773 0.030035845104259495 0.0149192051735831
-0.005588221459303051 0.03230546380298087 0.026419931148908414
-0.019053377244725323 0.02646274547242243 0.029246303945056847
0.005057798557885035 0.032466187555416616 0.023117423367537027
0.006538308642040281 0.032156892167538864 0.018418525454996545
-0.022974749704759878 0.02321120854468913 0.02765553452746298
0.0056726156037433285 0.032431125821049796 0.020192138158532005
-0.0074263728707065196 0.03189959340542486 0.02692700519946988
-0.009964039733072985 0.031333348657816874 0.014637259898968746
-0.00893204580422557 0.03163994938733187 0.01090900145283592
-0.0016679518045903132 0.03273361597684932 0.02511200171940552
0.003343486441699295 0.03276484600627204 0.015576884957309887
-0.01266050151276716 0.030205316929735583 0.021905743840773748
-0.009180467277091667 0.03150996007384846 0.019182446318494754
-0.007833265405132581 0.03175685226033489 0.029885752550352262
0.0004703762180390444 0.03291318801783072 0.011408910724742856
0.00046338882610591416 0.03291114565011207 0.01666504021222845
0.004016884811643099 0.032622104140842746 0.018676091855900807
-0.014183190863275378 0.02936072186364371 0.034703363387607794
-0.0161252327983682 0.02872969077523153 0.018047840499142667
-0.013429299794175648 0.02975013900059341 0.03330475717964789
-0.0043767370035100875 0.0325595702182367 0.016260937240538176
-0.016489685872553332 0.028340076612892368 0.0318519670936742
0.006864885830810418 0.03211782134640298 0.01809371261531678
-0.012973462382870586 0.029861206534726063 0.03470596703982097
-0.0058318274013247975 0.03225974031595623 0.0268366971460686
-0.013372958165068371 0.02976656883061498 0.03421807659668755
-0.014608892009731147 0.029157825653471824 0.03474944744878049
-0.01328885032735364 0.029821448630995246 0.03350433695841571
-0.007377841213093167 0.031918407536275055 0.026115031748944556
-0.0042578002458726 0.03236529126794486 0.029785180881274236
0.001285533969226147 0.03294504052214954 0.015689384225723066
-0.010747780407914988 0.031065846148268187 0.018304571852928553
-0.0009870166971678357 0.03269720114331827 0.029693764387751266
0.003509360293608965 0.03260957468362251 0.027523673120932488
-0.002412550651855031 0.03279115151571559 0.017976606376819373
-0.0025760289872711934 0.03281528868749666 0.011575178775005484
-0.004850635371976423 0.03239779621814964 0.023305821506177517
0.007653067433299268 0.031994731338922694 0.017786272815550667
-0.0075133664537871455 0.03194421689259352 0.015114351387709769
-0.003454919406800541 0.032577254743607974 0.02348070037250147
0.00017210941286331723 0.03281911136466067 0.02381223946432464
-0.002279650420183469 0.032675184198431025 0.02643214840618323
-0.007927502555548548 0.031720980336384805 0.03277343031042897
0.003496232322394932 0.032780782059607945 0.014648837450442168
-0.004492609820072262 0.03256937740738465 0.024552685113645275
-0.013760572908437317 0.029938964409186416 0.01937902470448843
-0.006639350760545325 0.032072251613484926 0.02292927537250381
-0.010852286436544319 0.031004124623750722 0.019872154446581622
-0.006665853396541765 0.03201875880685423 0.021397365724490316
-0.005383896740017022 0.03243803449111256 0.01535336111950026
0.004331733531038834 0.03255788334667465 0.0242242632699185
-0.0026319996632164686 0.03269823485394746 0.02659085603572054
-0.013394313376740762 0.03008771835719355 0.021728092314528612
0.0026426139164098467 0.032691275474341 0.026752602583157252
-0.0016804410124554039 0.03283560964962343 0.011197035617062144
0.0012841518676496532 0.032957068482062174 0.014459496419775054
-0.01992740048002534 0.025934289064480767 0.030686960352870732
-0.0011151706622071584 0.032735690451735626 0.027396406213211315
0.004865289272996681 0.0324956678650081 0.021203203703200366
0.00038136267215511737 0.03291862292758008 0.01649327668935294
-0.012762036984821413 0.030311449484082462 0.02403371321907853
-0.005750937410175665 0.032265094174132494 0.025467972012042192
-0.004614373952976084 0.03237063726774436 0.030617635280591783
-0.019012105707711988 0.026846990289304516 0.02810379402402918
0.007235255185609336 0.03210601188390461 0.0157994313111388
-0.006988910591272091 0.032151073774034554 0.01073407501413181
-0.0188547211830607 0.02672198016096453 0.028176718804143425
-0.008225779743046384 0.031646029352223194 0.03153226576734686
0.004094269405904721 0.03258903972677789 0.02527810575818279
-0.0063693104614161765 0.03219737370470524 0.02385331475839429
-0.01949523054699112 0.026496347310513573 0.027131467421658857
-0.006827042345221068 0.03198128661379143 0.022172345591059944
-0.0033934648565806017 0.03255915938086579 0.02377226073305245
0.00022152166433864697 0.03273507298724915 0.029106192487576357
-0.004199388792360977 0.032383474513490294 0.03013876241699751
-0.013283333815750725 0.03005729941473575 0.0200016900950082
-0.007297801754564934 0.03192897764483509 0.025586023329461683
-0.00968178775624075 0.03138487136584801 0.017711785325020546
-0.00713682793919759 0.03206282759655526 0.0179394647174443
-0.003597830392125184 0.03257955933855548 0.023063664529779794
-0.021046099058722498 0.025047911347558457 0.02996170982133725
-0.0023684439489332133 0.032607852445656144 0.027925945619657527
-0.005172863192606481 0.03243148970470463 0.020708945378790755
-0.0015124511450771891 0.03262339945047163 0.028772693591892714
-0.01118329566673014 0.030953085026765966 0.01969164179787814
0.004499125495244182 0.03257269477492623 0.021741706546758596
-0.0005703648015465674 0.032870837641182274 0.011883050047966096
-0.004446518898352359 0.0324095958111267 0.027480965479923083
-0.001855342022737389 0.032695207020546 0.02554907477944784
-0.012383673842611269 0.030394873217484828 0.016150163055503396
-0.009884916341548406 0.031322012016621895 0.013619767376690104
0.003094774248006878 0.03273313342988727 0.02344971111551163
-0.0035390610187958174 0.03257269966465378 0.026347479260082213
-0.003679407723416367 0.032516724263775026 0.026092762636431115
0.00042204016422234595 0.032823967586299574 0.01775054418274722
-0.02206224797849652 0.024256284102139973 0.02760003654837966
-0.0029404748218061745 0.03250589040096908 0.028325297377962425
-0.000580224900905676 0.03274050179514441 0.028555995867423842
-0.0079489296896807 0.03185095423948077 0.017971439404137625
-0.0067008155200739185 0.032117247458505714 0.01574201495941566
0.0024270752312721485 0.032803777717097735 0.02091720690950342
0.007047687639674242 0.032106955938423706 0.016588118221370404
-0.022856854123648795 0.02348822533947132 0.02966935319371605
-0.0025605219105481877 0.032565603429733886 0.029889263101335307
-0.0016087184659221072 0.03264882535103139 0.028900581627069186
-0.005926426402079674 0.03235029954984878 0.013537945400630575
-0.0007482884605469998 0.032736771347957494 0.02792899594666761
0.0026100922948571526 0.032725530820357236 0.02528094716853406
-0.01756420997020267 0.02753747895583534 0.021402183164999304
-0.0041785584366308935 0.03247255948602162 0.022040954312142487
-0.004302268617141227 0.03259752587348585 0.01921260850691764
0.0029947449919475884 0.03281069933673763 0.014306724648243337
-0.0023176838952288794 0.03263090559335841 0.029059738296424897
-0.020623720714415247 0.025546029540587847 0.020912609425271983
-0.006833547843346986 0.03204839540821748 0.02516108042666474
0.0021852086092538883 0.032877827343547876 0.016777834898112805
-0.0020403840147932076 0.032657467543556785 0.02734012871239645
-0.0007106908713367412 0.032873175583920285 0.011438529174421912
0.0018978617075860612 0.03279415913573339 0.02667952355960401
-0.0044191061065382295 0.03252377169357727 0.019887615446211485
-0.0011480362867560428 0.032722396829071534 0.028381082959044186
-0.004575619902791165 0.03234008555472708 0.02972714526173796
-0.0035248150999352993 0.032453714124739616 0.028613355224108905
-0.004611087079464078 0.03241020447535322 0.02915024768381574
-3.863281881494172e-05 0.03281982211631131 0.02672928006081411
-0.0036262605829512095 0.032464902300004976 0.028836561272482138
0.0041924174016159865 0.03267200651535795 0.012466520008580576
-4.938482891034714e-05 0.03279913722827104 0.022999562318607156
0.0012692782800319217 0.0327576058054558 0.02710241491331976
-0.018246406176741434 0.027227131381386483 0.022656437934782978
0.0028072133310153924 0.032832959870734146 0.011685468360178298
-0.012234494907032496 0.03038953938776523 0.02141089587388325
0.0010230799941223874 0.0327554719061251 0.02554927682801339
-0.006853269308620084 0.032008775015052185 0.0293076592102684
-0.0018986962250160052 0.03281074629741512 0.011541611795457561
-0.015386913057971276 0.028906460617364786 0.01974394567429865
-0.005037630334450431 0.032522297931435684 0.009850741483795798
-0.0040802463554387314 0.03266935000828453 0.017766075821505765
-0.0013726946540044515 0.03285200564622048 0.016833935338455425
-0.0019244430041005056 0.03276844060791634 0.021691630058126993
-0.02215332613373454 0.02411908612894175 0.025419450142017762
0.0038879554546163665 0.032688408498490605 0.019995171857191168
-0.006095401761446994 0.03214051130479974 0.028612822491669177
0.003987784163679141 0.032617510972431665 0.02602997542610356
-0.0024256972033160746 0.032590481657922915 0.027552919370597815
-0.00662410087588227 0.03209022741151475 0.023319033161598553
-0.0027148208886449776 0.03259364121091699 0.02733687302414676
0.0016786739503856065 0.032722768570332586 0.02894025981666167
-0.0019380133877018777 0.032856081194330936 0.017752395815457955
-0.004852444458781132 0.03253849853043814 0.011101514078710496
-0.00018505360092888496 0.03285679216415552 0.026309403548649277
-0.017770352227771367 0.027461765172398532 0.01965446994300701
4.750567453636846e-05 0.032735538071295915 0.02851167460134188
-0.006915238393578821 0.03202782957994393 0.02976235700165846
-0.002083132635063303 0.03275419478949557 0.016402631499396917
0.00016455024573923453 0.03282709962033994 0.023197457049321083
-0.0008323253603577245 0.03279323890686404 0.026295062713963237
-0.0031435448480208986 0.032559031580162184 0.02748540888370432
-0.02166700032977549 0.024609214573390294 0.026107969018236962
-0.0035594988699493867 0.03263777609456073 0.02701288139521462
-0.00258506733533659 0.03268861836198417 0.02574974537678249
0.0012779577987301082 0.032702430897027304 0.028781937882151012
0.00038521517217504365 0.03291267461849562 0.01504698864552206
-0.003967895099502952 0.032410427447486845 0.02560847326717337
0.005814146973191155 0.03240027495306477 0.02063747141019369
0.0011110614647309829 0.03274222637980013 0.02583908419187332
0.0015387371606823991 0.03277826597492041 0.02644668378653322
-0.002986102594162329 0.03252660911305322 0.029949625494490744
-0.002230610695846328 0.03268967789616042 0.02485588538890543
-0.014629083749102262 0.029605565837909104 0.01941157957672201
0.0028652237946479317 0.03282604745942658 0.019285568201521067
-0.0007863636448969607 0.032749776735404766 0.025124700288989048
0.0021477766259200767 0.03284067417528271 0.017210660559337843
0.002260264355837442 0.032916668288578546 0.012970596797732003
0.0023503973831346414 0.03290893761924379 0.012916690528635175
-0.011700447596747451 0.030405797834705765 0.03370960948039471
-0.005977059804008768 0.032186639664678926 0.024600922775464804
-0.01870830368990025 0.02697898041428722 0.02656934357148364
0.0031660851034295396 0.03283251472598243 0.012234115731093821
-0.006196279656504829 0.03222775501216542 0.01838562708291606
-0.011720389711001736 0.03052250725847288 0.021424910683856154
-0.012237528699290939 0.03023436433244675 0.03370011496500026
-0.008949018474843196 0.0312898155442123 0.03136714998103507
-0.002139119968174238 0.032788696921188694 0.024630812063998163
-0.0016696131059585994 0.03282434891268646 0.023473066113736514
0.00044269257012796205 0.03287369885314256 0.02149207220810824
0.0017225970189444174 0.03282732064948417 0.019744867112731736
-0.002110281582598279 0.032765877994441764 0.016230653458183922
-0.011568852807336463 0.030579479349985852 0.03215981183645716
-0.010214785754041063 0.031000902210142574 0.03249473821196356
-0.005100849574001082 0.032478214521585114 0.015663370196798688
-0.010442519819603629 0.030933369279996306 0.032487401315071385
-0.011459181305440092 0.03056870023515508 0.03293174017980022
-0.00501625803856654 0.03250056992442081 0.018979419026727107
0.0021611636911861706 0.03290533265844653 0.011931584701082071
-0.0024682017953335422 0.03284669191083521 0.01251132350113228
-0.004795925528990533 0.032488159649634196 0.016919646990000876
-0.011691012116492297 0.0304643113725197 0.03265199847405793
-0.012639910112172971 0.0301215682872136 0.0322264175837479
-0.010878127076970221 0.030776990329255877 0.03270895437378138
-0.009319459375698372 0.03116053745553296 0.031213489950180504
-0.011668744672564816 0.03055441848318334 0.031239118161959924
-0.002804087476646569 0.03280370503438102 0.01048242734468575
-0.019709762793856583 0.025905229035931086 0.029550207364899942
-0.010704624219639348 0.031045622890615868 0.01299768510340547
0.00452471295362334 0.03257507323967334 0.017889201723162166
-0.008642266728223243 0.03145087405451956 0.030885486665060732
-0.012222042212461886 0.030320781938727424 0.03156100667314083
-0.006044101189502556 0.03219198434736886 0.027312609194787923
0.0043047450359008504 0.032633797407712536 0.018909193425092403
-0.007123220800995176 0.03209277913867852 0.01663300617896729
0.00678545414785549 0.03222710932351642 0.015397017164566033
-0.011403071930475324 0.030586370990885868 0.03330996917088407
-0.009296922619034871 0.031204079793544143 0.031871680586254045
-0.012005193961579553 0.03033007905658642 0.032819872819818526
-0.011656335210347438 0.03055624020495161 0.03139894596929206
-0.01676739093901298 0.02813727147331983 0.03231699217483044
-0.013345948564968232 0.030095384071273767 0.021361857928528998
-0.009998660660618157 0.03097971350081659 0.03188079046650896
0.0013077976749790205 0.03285047863517428 0.023474747361902512
-0.01106546287017856 0.030760001204101214 0.03149088018567853
-0.007822314281206109 0.03170536093946761 0.02828236427296151
0.004901781053611597 0.0325820601311804 0.015217240416329447
-0.008651292076005103 0.03169405895797156 0.01195894907644611
-0.00810001393867512 0.031901685561930834 0.011180720834282488
-0.00946207908961521 0.03147621474914702 0.011550797072090824
-0.01175795566625611 0.03044607662227218 0.033361928975877995
0.0059419177853723875 0.03241085627824432 0.014909182500637776
-0.00921119912213074 0.03151211421896741 0.01708839703871813
-0.008038616162281902 0.03181868437411002 0.01579695958388358
-0.010481637120992213 0.03110414910266824 0.016959323989455603
-0.009789602125569384 0.03101173163726112 0.031679942047551424
-0.005289093184025394 0.03234283741364713 0.02712480537615785
0.00739624267972219 0.0320534034644867 0.019965448821580526
-0.004422235516530248 0.032556673721277914 0.01237610609302188
-0.010187700317556439 0.03104869112640751 0.019980013810409942
-0.00959261561119817 0.031096884364023813 0.03112908414549024
-0.006306089384039827 0.032149785082118985 0.030147705230259232
-0.006215034233824289 0.03226062194117218 0.019842648146761108
-0.004093663095536196 0.03266338018930585 0.017606621857657632
-0.015194313183956832 0.029342867931549797 0.017828680122948932
6.505800305604486e-05 0.03273320763727405 0.027315288474425586
-0.0030752214201062705 0.032668495430894916 0.02490033727112807
-0.012358798463476593 0.030454164718093313 0.020428686730068545
0.0014161616288322768 0.03274961974999155 0.025189593678295125
0.0011069600015844228 0.032806924093205084 0.024421138317746737
-0.011858142628960556 0.03060367030031339 0.0151237058257178
0.0004570886263275865 0.032898236518028035 0.015696155133526537
0.0008696233575001462 0.03282440089008354 0.02433973205557422
-0.0009428512624389514 0.032766866678898464 0.02119943241557009
-0.0134364999579992 0.029940146626085948 0.022563986218604518
-0.002826773755854482 0.03276731206950799 0.014812195489557662
0.0036408969820546826 0.032600700544392056 0.027274430722439277
-0.006683403379611581 0.03201328728588228 0.026909513747766057
-0.006852773007976229 0.03219919765205671 0.019837582545636535
-0.002421851020994213 0.03271600422272363 0.023088507357397935
0.0012524954924135042 0.032920579848093275 0.017559278204133343
-0.0016434183530156326 0.03282504495392859 0.011273608581725146
0.0014846905027659624 0.03282839630969231 0.018102679046841392
0.002929699862862842 0.03277294973332408 0.019978301348224564
0.007273531688823462 0.03211377355492542 0.014306613575721012
-0.0005065899306587346 0.032801612932698315 0.022949500373148378
-0.006454290069818006 0.032267342798694906 0.010880408578770704
-0.00277153419677715 0.03270080123130121 0.02398755164597001
-0.012063739165941185 0.03053405109344738 0.018529824839065
0.0026806159812299965 0.032852786586591284 0.013940695066186407
0.0021689908744733327 0.032913529921172496 0.013459607172125729
-0.012413206234239641 0.03043194837432793 0.020747021721077407
-0.005075221959523821 0.032255552816331384 0.02979617072149962
-0.011474226452798508 0.030732408004637356 0.016941609457209326
0.0015188587644309902 0.032806069413103794 0.023509792610823393
-0.000869250119030424 0.03281011458579776 0.022920886216262
-0.01407257595776781 0.029598532132463655 0.02324350035907248
-0.00792210022687736 0.03172388808683272 0.03191180031404399
-0.009665625762299958 0.03142152462934834 0.012682159532286137
-0.00677972870011148 0.03221526032080425 0.013664122220221337
-0.015020702867896439 0.029234968839003 0.022644891454632363
-0.0072231194302464705 0.03204346666514134 0.01872325155127442
0.005931949657693881 0.032413464026192926 0.011823067383884887
-4.844531318345694e-05 0.032826357524266464 0.02228514868133507
-0.0033960327726257258 0.03257032352411179 0.022681353577926177
-0.0016086512124869354 0.032808737435822716 0.020451536979487404
-0.0008723872850147053 0.0328288865964983 0.022074735450971102
-0.008238528638147107 0.03183044633066795 0.020734592776124685
0.002204917768438981 0.03292953760948787 0.015404535762441298
-0.004123107377470332 0.032682410364971055 0.01013559323687905
-0.001732909089487003 0.032812461097060736 0.022575972532370224
0.0016674314859999745 0.032979485588942856 0.015430493377959046
-0.0088762319822099 0.03165836432335126 0.01857906399472018
0.003482783331144744 0.03262466163474287 0.028513470286608986
-0.005863359367346914 0.032255292072725456 0.021786479506577493
-0.013113248240522832 0.030164125239592728 0.017491079829942136
-0.0038615088363628093 0.03248697875188711 0.02493781374248722
-0.003211765361998175 0.03259789151545485 0.024258711266429707
0.00041250624938476315 0.03290208885984272 0.013940988138904644
-0.003918535928043898 0.032565726186324445 0.020655858569495804
-0.008340900031409458 0.03162734120293616 0.02762939436369655
-0.003489968771526882 0.03270053601120529 0.01448985757432274
0.006333657933398255 0.03220504177244138 0.021598489001410575
-0.011764118215696902 0.030676649545365163 0.014201333487398512
0.00119751938731839 0.03284295823921537 0.019748060737393366
-0.005451311730358578 0.032322488280331504 0.024638527525840444
0.0006468681884135175 0.03288303464976909 0.019239396828066746
-0.012464791598762931 0.03033854611752981 0.01770945435098987
0.0051412888397574154 0.03256046931791953 0.014223733651914606
-0.0037229747195651128 0.03270192662655945 0.01970496147542788
0.0013383326123803455 0.03283635040549017 0.018657414077730222
-0.003724170067513779 0.032632841943783776 0.016092006111084366
0.0020902085472855204 0.03277602183688275 0.02608822230191148
0.0013203656295448498 0.03292986847577193 0.012005978151234218
-0.0011466824870398412 0.032810963273500124 0.020798873697872873
0.005324268470645278 0.032424738181375035 0.023569262860984406
-0.00782703417892972 0.031987441412089264 0.010555770653500718
-0.014582961945635197 0.029332857415950875 0.02318510594087592
-0.0026491248642928566 0.03275823607160554 0.01914250013275006
-0.0033165719298967225 0.03271767565642837 0.01223852895492111
-0.008069909389143214 0.03163572791514536 0.029016572956418636
-0.0025121386367266446 0.0328350867616956 0.013638614432946793
0.006631302059607697 0.0322357847160782 0.011552065396144444
0.006666254051697764 0.032259215431974804 0.012563476617993478
0.001449822423486665 0.03296207113829995 0.01663978284862005
-0.013843367195323805 0.02967500955769998 0.02363128930524818
-0.0011210383410482994 0.032901984154762205 0.01233894619411573
-0.0129920713373537 0.030108051271847465 0.022024944109918978
-0.005367846013739229 0.03220017330729465 0.030244444599908042
-0.010967046892391882 0.030913469345038545 0.022181360871718608
-0.00045166714117575457 0.0329120270262003 0.013999321669763608
-0.003976693985888523 0.03262347590201757 0.014626652301294257
-0.011557798890372045 0.030816151098405194 0.019733683824932347
-0.0074442343204326675 0.032009695813521616 0.01728005406146704
-0.007988450688718517 0.03185573011241972 0.017483268434429725
-0.00402982482626691 0.03253703569326599 0.02416635969515257
-0.009086418925486225 0.03157966302748845 0.014413345024786278
-0.017749612507476895 0.027523228334697985 0.03051299793834884
-0.006235204588684085 0.032287774810442676 0.020624166072231578
0.0013550041319163044 0.03275623939416551 0.02533983266123275
0.0008738036970217877 0.032870183122918104 0.019601946498859418
-0.006770994398552565 0.03216193971944373 0.016792864212217463
-0.014478866378897781 0.029404559339390228 0.022441226187166364
-0.007840644021968594 0.031879950205357645 0.014509863721887912
-0.01020091254268416 0.03114225074767981 0.020596829669401046
-0.020816887277602197 0.02532080169461426 0.027194794811140257
-0.010939968379596739 0.030939550164564483 0.01553156293489752
-0.011491454703035406 0.030750228161172725 0.014884174664390269
-0.017935344790707783 0.027455615883499762 0.03174347180318761
-0.00895628452916666 0.03157785512441377 0.017339217585672785
-0.009702266683078428 0.031356421839009246 0.015191810186600894
-0.008751491868476392 0.03163168500999215 0.021151806288884883
-0.01126616308181096 0.030893213927841348 0.01368010975937255
-0.020605506126798342 0.025437043871725386 0.028585152114425055
-0.0012638945639427683 0.03278316025793743 0.021974820654570827
0.007512585852079727 0.03202964437428893 0.017429001048909654
-0.006805227838759426 0.032176217514638714 0.011380468750842126
-0.01590516417439417 0.028959606766855137 0.018694838919747485
-0.017728290595071316 0.027575782992896505 0.020388755490749227
-0.010143469222309687 0.03115379576359613 0.029646907212794685
0.0025667883942521483 0.032689803805702036 0.027240248309230844
-0.004048684055796874 0.032624681976752515 0.011027305669461841
0.00592632155980223 0.03238948248721489 0.022765719328510348
-0.004029246942104084 0.03264053799620087 0.01989972304853941
-0.016970237494543402 0.02770747985273775 0.028561719286886153
-0.005493904572257572 0.03229579517807624 0.022189766509923867
-0.0002579014201536954 0.03280011225736385 0.02494617547339496
0.006532652734680438 0.03226050319747698 0.016417516420935217
-0.007944970345052182 0.0319255037432127 0.019260102393039866
0.005969411147725018 0.03241591863285135 0.014506072709933785
0.00028272934246147314 0.03279070970649631 0.02493775261539862
-0.002913304999566739 0.03277224333578837 0.017713451056190384
0.0038699822841510084 0.03268731664723225 0.015898273653250077
-0.013427607940906442 0.03004200501291099 0.016243878322516843
-0.0032589847241113346 0.03270951098648004 0.01496062359014113
-0.007375194053783693 0.031965702049629674 0.02205082807889279
-0.008200677255510259 0.03183480461291437 0.011798729258695078
-0.006430432592769906 0.0323077173854083 0.013496503857523783
-0.008639664634268684 0.03169968016090543 0.01487233203919636
-0.00855647389387523 0.0317096995610929 0.015001773987072416
-0.017107247510608214 0.028070633311528415 0.03347847939994656
-0.00707493539267958 0.032126419488546755 0.01283047559146216
-0.01578724970737357 0.028909600510692163 0.016683813980428626
-0.005012850911392315 0.032329286088870424 0.022766372103473185
-0.009616494166297986 0.031214165071080713 0.03047916399697256
-0.013916822301539308 0.029760633557824212 0.02094836554735013
-0.008007908920370278 0.03170509921481868 0.02778840370257691
-0.007368475082696605 0.03192713560164501 0.020987284622491238
-0.014898088072046518 0.029155425934056203 0.03067930162307393
-0.014023846719890546 0.029529645867230964 0.03056030464007968
-0.01326479544125916 0.029995477400789127 0.030196685534548292
-0.009152092343993484 0.031537401020189815 0.01670815659178881
-0.010416737938253429 0.031160923136459472 0.013905885982907673
-0.009504631372234664 0.03137107718347084 0.015581961514896586
-0.014923459043249022 0.029057178821766935 0.03129043302961506
-0.01373239444548728 0.02964341353802933 0.032785208966521456
-0.014453069657563789 0.0292990433856985 0.03098033708438047
-0.015625175830470992 0.028660571596565605 0.03409253684485915
-0.014922850030189557 0.02942673874774251 0.017234032287435294
-0.016955558220615986 0.027972104168474145 0.034389099469967245
-0.015137129413099951 0.028957366788481702 0.03467276143102121
-0.0143941125334603 0.02959065390964878 0.020261837522180387
-0.006277546774701199 0.032322254416427235 0.013275858259261657
0.0032160451057717233 0.032692470781118976 0.024172370240697176
-0.004591607273865373 0.03250654311365181 0.020179933924270775
-0.009862989334246931 0.03118214887975273 0.029621991483179975
-0.015303702489419854 0.028865920680454453 0.034221440741898965
-0.015206860026735984 0.02884958757911753 0.03266267797312351
-0.01818099617356037 0.027265272643446754 0.01991602691355539
-0.012772926251842532 0.030068099673632 0.033125097741044864
-0.013933406909572201 0.02949440128947408 0.031331915193585684
-0.013679907270113631 0.029621979388264823 0.03150593611341416
-0.008310601158276235 0.031747213233496725 0.015595708821249377
-0.01504426107002517 0.028968430599897947 0.03171795317316095
-0.015327519526994252 0.02884683673531863 0.03383336088013582
-0.015511122166361628 0.028930788383909087 0.029014999014336917
-0.013441282108489258 0.029761591549911225 0.03177671368067579
-0.003823973536400382 0.032526769899437626 0.02188245788223654
0.0035473217871424844 0.032699343388571014 0.01643042188554432
-0.014329329257453217 0.029298023406092662 0.03190565615299545
0.006410478695751357 0.03231071406541417 0.013830596566726699
-0.013392192572461348 0.030018801252673585 0.020368608099428788
0.005129924969841975 0.03245836707282296 0.022602632974159022
-0.014441815835583093 0.029771634883494047 0.01770450251430629
-0.013266953610708301 0.029829221606023366 0.032610521169420814
-0.0054460729684914005 0.03230836689317681 0.023872114181514144
0.004919858321785646 0.03247742897947887 0.018830389674222476
-0.01118726957079249 0.03097503164015604 0.011986365690399924
-0.01341762566317464 0.0301483277739374 0.018239447203882327
-0.011082305862290125 0.03088235418572125 0.01693817102585992
0.007947474573056505 0.031958921838573365 0.013420980710873005
0.007723356954763354 0.03202040328815946 0.013075014638391929
-0.019875000446374785 0.02603118554352757 0.0219701228400935
-0.012165196574050675 0.030476262775773658 0.01560212130767636
-0.020264146245286337 0.025670714228403835 0.02950242393062439
0.0030458681861486384 0.03281207512960947 0.014138809421413523
-0.016641008461405357 0.028092924609310954 0.03464974000948757
-0.008951048055730037 0.03158623017785791 0.017850908941069287
-0.02061048968190056 0.025396439164072367 0.03004805846271101
-0.01366266758514872 0.029677254782791564 0.03220168267616899
0.004870265253416217 0.03254365975223346 0.017687235434877487
-0.0060274503405329145 0.03234219991412956 0.010314995052714316
-0.013463440715070893 0.030030026176720556 0.021970634164447195
-0.015066400549159864 0.028963507734299922 0.033375686500073415
-0.008925074992024083 0.03159467541831076 0.016327731810536875
-0.0028370517946110577 0.032799977295438126 0.01227812881369582
-0.012843090581042074 0.030217911256147652 0.019967165643210754
-0.015427950676888548 0.02876892045769061 0.03212167184960648
-0.012570251987925269 0.030343882356284813 0.01935164947917524
-0.016127353261046553 0.028339483213846866 0.03437144134768665
-0.002782047462732898 0.032759503234322314 0.015500516218208596
-0.007673196639705111 0.03187454184038864 0.020394714819559637
-0.022151913739027335 0.02400572264206609 0.030755389356332406
-0.016403772894744217 0.028340513887496966 0.02984182248136614
