0.023066090546761748 0.006330914212349236 0.04245599220676334
0.009863198577196317 0.018123964655158278 0.052342210724523594
0.018628183486412736 0.007302769498017735 0.06058732183892003
0.02545301971973106 -0.004597522402418734 0.04250094005727145
0.019193274527272486 0.005043181421988826 0.05164086715168262
0.017559047623548225 -0.009327393456100255 0.05749477832827907
0.03257446337802556 0.0005823160099331084 0.03526064021558281
0.01886081303843233 0.005175818899751659 0.05995163595586283
0.007993513363847078 0.018559109210930846 0.0599156408134128
0.018665707429954742 0.006171697515704629 0.05977112632337513
0.02113410296622849 0.013443406504615016 0.042150833721110836
0.01752399245903766 -0.008394547878018877 0.05439935259940117
0.023013035525301036 -0.0028517558134050895 0.04770355629267368
0.030406431065519005 -0.001136902459775023 0.036885591556088115
0.018094443474983776 -0.00717897128888057 0.0601831715042233
0.011221946967771422 0.016369739330549082 0.0533607815892948
0.017589192718476546 -0.0093118040375737 0.057278060862899396
0.023297156145428623 0.009263306554706523 0.0413498707238331
0.01878414074128225 0.005346155821666233 0.06039614159886044
0.022870382156854427 0.006880189361416023 0.04226155192808617
0.01658022951140877 -0.009866407825958226 0.058367454418977366
0.019987377019272105 0.020613600801927506 0.03932694979209637
0.018570200077348723 0.007001199492607274 0.059469068308732755
0.01839628872426225 -0.007006371169606014 0.058936859472051614
0.017910614205235258 -0.008638781743243923 0.05640513976329179
0.01887357753035846 0.005138195867957189 0.05925720263686101
0.01812008100031073 0.00892302546168222 0.06005494356021466
0.01811662898903639 0.008689292732357485 0.05963030116425717
0.007238534506446767 0.01872797430719208 0.05519078065580004
0.0076320128058782345 0.018965596774423936 0.06041546751606735
0.026699582045278274 3.400994605786996e-05 0.040059949099388176
0.01991491787420465 -0.0075749777316846 0.04930024826411942
0.0209818419013817 0.005152346157975745 0.04851816774949127
0.020104296581004884 0.01448354107439788 0.042415318512893554
0.020070908070689723 0.00823037202814014 0.04698124210387364
0.02034122691752476 0.01615817472435192 0.04262570198261944
0.01756155792223374 -0.00857979863756531 0.05968815225517138
0.02125740717888501 0.013653818186997648 0.04189989820883783
0.018393856935924907 0.0077829185279114895 0.05864917587578593
0.009556312467875226 0.017785665693746837 0.0581484298842784
0.019300570632515685 -0.004537209307236258 0.059512584518192316
0.018484385366015897 0.007582461198734451 0.059286739784801534
0.017910657653542997 0.004999998263056032 0.05450015459947294
0.01817226845471151 -0.008524441515480501 0.057184393434283956
0.018690953125699013 -0.0062168047427849414 0.05618681605431315
0.018659206714220958 0.007914897781625971 0.06159233820724453
0.02483665040244726 0.0022454912640728244 0.044457613835036935
0.020960602173609538 0.0156808192867618 0.04172531042871165
0.018417994419304227 0.008245609511021644 0.06033711175871967
0.01851243701726851 0.008188619408499397 0.06292552595727285
0.018431252929275388 0.006537764664672183 0.05730157277314604
0.018877730526253696 0.0067967911691397 0.06226764568682866
0.02628809576878921 0.004415073464981304 0.04105994512000802
0.030630487351543948 0.0031281473062095416 0.036259623259853296
0.020112899426215396 -0.0030283900382811913 0.0606857325488516
0.020440302483834286 0.02136064766121817 0.038171647649478196
0.018566646941049147 0.0066542990216472316 0.058838633708752835
0.018798459521987762 0.005001735604781182 0.05855624741684961
0.015245566259019707 0.013681217408235465 0.051971897816413065
0.02591937377884405 0.0041038753067880246 0.0418992266449158
0.01844138357255886 0.008424295030796752 0.06279698935946686
0.018753963680296477 0.006805252178559757 0.0611291624885091
0.00849148963544663 0.01879728595660936 0.061567379756285436
0.02706626461746492 0.0031163300491571407 0.04087082431038521
0.018347138984093618 0.004848465054570715 0.05671010317782736
0.03192953467482229 0.0010485285177604807 0.035783801074014646
0.025729903300136765 0.004436204872440587 0.041810871272469324
0.01660021277845897 0.0181718910730232 0.045660087448130535
0.018767571985218064 -0.005093232068893793 0.05732172507920172
0.018593089095568158 0.016345541245112317 0.044318794609644344
0.014135643936711663 0.016830587033478388 0.05069437462926622
0.01811373768597761 -0.007476151552558202 0.05975463527393637
0.018088483856668124 0.005191855046365648 0.056141694713580194
0.018050503357044455 0.004869535300615988 0.055858796372148814
0.017630864502387242 0.00512464121512511 0.05500730668181354
0.019171416369642803 0.01786695191679177 0.04269622691248619
0.017054836344965973 0.016017016708043313 0.04705587552428929
0.010191850830948779 0.018927312829073742 0.05012281919718414
0.019984202491897994 -0.0035638168270196047 0.05971279082207818
0.01760489951486499 0.006231247058233461 0.05458515746627294
0.013794297462924533 0.013913451312187634 0.05456295717667743
0.019751260435484662 0.0047672269749668185 0.05140580753560444
0.01635297582051109 -0.010098388658612466 0.054621412225657834
0.018445571015568492 0.006113206115552081 0.057332228749778544
0.016059134161531607 -0.010727672872462748 0.05730857230905936
0.009108507173410624 0.018019564807745504 0.0583458379947288
0.021270465622308672 0.015957685060916528 0.041723964415886494
0.025084709556934693 0.01921599610624202 0.0362364884844772
0.01714092808635028 0.009887500733677022 0.05198451968449981
0.028840587291128702 0.0002665719344746079 0.03854880649900036
0.01810640194708748 -0.007123609357556989 0.054589765647859445
0.012463162972611413 0.015219193277961524 0.055005350953114
0.022180934230334414 0.010915575480564009 0.042430371875941134
0.021177574370336714 0.0034124343831754885 0.04975651012540416
0.01804011909658793 0.008069499739754932 0.05693883198954829
0.019964746159234766 0.020987960925115397 0.03899452547357107
0.009189686143179264 0.018556362878223345 0.052148097778915534
0.01839168432618604 -0.008025196216226832 0.05752270678507079
0.02391395447541155 0.018161787584277382 0.03773272463291968
0.0075613590355601105 0.01886435983447912 0.0584267993704234
0.01820832143339059 -0.008332136926455616 0.05818435523146183
0.016143756827301382 -0.010862630558391387 0.05654293219493524
0.01876166858969526 0.0054488080273240235 0.060612030401986795
0.018249137764457773 0.0056533476078534355 0.05663132365762029
0.0188844536139707 0.006697442941730076 0.06291260786124997
0.031511763466751996 -0.0008165354653593053 0.036012768081868984
0.017723523897145467 -0.008485225990338074 0.05576377101935398
0.03146232074540543 -0.0016857330444661365 0.036149818390240604
0.018439382025626616 -0.007811395564909523 0.0580228785922574
0.01777573466210145 0.008508227841174824 0.05770300481204303
0.02613523011657938 0.0035324610825380252 0.042136340434482535
0.019315262340795166 0.01949693893535716 0.041210902074079896
0.007454054968378806 0.018487540252464775 0.053559583816293846
0.020553747695397927 0.006381494426369561 0.048290255673987655
0.01864818448039184 0.006190967316713577 0.060362009136102915
0.01610617707305692 0.015077350186697697 0.04946351089601396
0.021531950368709522 0.0021309282958316936 0.04965451697215578
0.02016251805702404 0.016396728499322374 0.04283730478394047
0.014694094382298902 0.014029269070209552 0.05199640411965087
0.011377631358502553 0.01666626234698211 0.05628536277699142
0.018760481770239708 0.005694312026238804 0.06129368459210232
0.01846713203776954 -0.006368649507557058 0.05872991023715385
0.018335291946971685 -0.006295585047421195 0.054568480092653276
0.011885361946823023 0.015778186999018985 0.05518518544739731
0.012055992980621391 0.015634822092156338 0.055307742861550144
0.010855138007581751 0.017298170120010798 0.05768834231782908
0.019028780012246917 0.0018351074492518394 0.05459662455595984
0.020042587502472783 -0.003373383000563896 0.05912149781677471
0.01854827746452451 -0.007343697093741132 0.05717762164572877
0.016646282268764464 -0.0102394567021675 0.05646869404756627
0.017971254307548607 0.007948096515988544 0.05591843328260391
0.02066990050204154 -0.0018509790229772225 0.06010804879073498
0.01886028818609232 0.006692503817977024 0.061979546697657095
0.018267562544384913 0.007315282110085543 0.056831074606478287
0.01757170803166572 0.006152414320630576 0.05501758892341336
0.01863243277047102 0.0058236583406095135 0.058268042611326586
0.018576422969716292 -0.0057003970676619935 0.05510803758775121
0.018387117605050025 -0.00646615166337584 0.05931770569994155
0.020760756504013524 -0.007772365849919765 0.04673177868571843
0.015000354511899886 0.020425610470900572 0.04306580396958483
0.012072626952826166 0.016537377350401703 0.05246955506585249
0.01816303152373833 0.007210318331433553 0.05615287006706357
0.026612452466503886 0.003242750486841097 0.041589124776241056
0.029050061862514485 0.005684680392841852 0.036302458125558774
0.027431469871486813 0.007743792088679208 0.03754115434550708
0.010488445492040714 0.017354558963527313 0.05811774969446961
0.018299042156769436 0.008817729346423085 0.06083700464996643
0.017929246676650037 0.008224525686051693 0.0564183598619396
0.018831169230743808 -0.004762037309132426 0.05562936957696531
0.01822313412363524 0.006802511237089779 0.056368876489991504
0.011432400222355713 0.01674967821212759 0.05701389746205072
0.018021274387266743 0.005152850896609368 0.05423436602491566
0.01854371072644601 -0.006688830965418053 0.05786785412700123
0.018013227599809375 0.006269945564914401 0.05598922513409374
0.028063907986359077 0.006910174604963251 0.03699668772950533
0.018871471250709516 0.0024829865862535305 0.05470952645941959
0.006226174356816102 0.01933276358817601 0.05679874011996133
0.019060927673110455 0.0059507268685920454 0.06289462431831601
0.018432779415484848 0.004616114222750402 0.053026581849622674
0.017280865406156292 -0.009020692896132772 0.05532138823421384
0.01974490904510657 -0.0038948701688660873 0.06059009773458959
0.023335422065804298 0.010660114844941861 0.041853396455548614
0.0284373480287475 0.007221166245973134 0.036561196027631235
0.024940556160323226 0.019934347436328863 0.03514882801755084
0.018489949630165904 -0.005956230205057785 0.05888729878841027
0.022935643688885846 0.007930318898143874 0.04167854340980303
0.019542351584126542 -0.0034857833043483552 0.057874646838381255
0.026293526806017417 0.012373198717136071 0.03826663167155753
0.020606163845452996 0.02157544462512956 0.0374271907014405
0.01902026301725953 -0.004222112838826681 0.05632934477617961
0.027482735536204707 0.009256403196190671 0.03733544331739429
0.013010056090802479 0.014835241689636777 0.0565623269004338
0.013037097530735708 0.014819876791473296 0.056706851753449306
0.018476368532583762 0.003624697927106998 0.05496470306952763
0.020480884767037744 0.002746694907071242 0.05113357723062071
0.01870643672777836 -0.005273564302323533 0.05750625724734799
0.028996046965813534 -0.0033747811512402953 0.038071993338496354
0.009496785298195781 0.0184036428930102 0.062058220646488436
0.0267703391092438 0.003587876106387 0.041085713194129146
0.016538183128593252 0.013594179256907084 0.05038187721521821
0.026292881463570873 0.009453512569250989 0.038800775760518026
0.024539578326557256 0.005717572390046913 0.04174254326422682
0.02897550852217711 0.002502342443505613 0.038571543659021816
0.018423969528109964 -0.007204308161028272 0.05599809409242468
0.02066177833801846 0.01677691241717591 0.04242791662135441
0.026868129522280473 0.010707782725940479 0.03792277053363538
0.009583689491304597 0.017708983970428527 0.05657899491347075
0.027380408954314345 0.0012297499924059023 0.03984796265811323
0.019138908263834294 0.010540223279953909 0.04783311798604144
0.01925798433714975 0.010171578921816408 0.04801553630639953
0.01093604437182467 0.01708320869995884 0.058575406194448947
0.02054055508520239 0.0068764325301553806 0.04712105411668542
0.018304374036706324 0.004126834798761501 0.054741442603622376
0.02177921056470795 0.0011820782313866345 0.04936219314597029
0.011790349101646138 0.016383412621509746 0.057878867261046844
0.01140666253563282 0.016870819255908172 0.05814993978338882
0.018978091810356743 0.0021753233225044258 0.055679370879009774
0.025500039834047035 0.0024068083787727344 0.04340863061006101
0.02727482826856771 0.0006901221386194445 0.03973906886843998
0.019340202177612863 -0.004025953091376346 0.05824334365452051
0.02604123835553707 -0.0019729600974160008 0.041245564128017095
0.01811137600936796 -0.007538891100768014 0.05536995829122357
0.010551300976742332 0.017496905557977102 0.060281749943475176
0.027494579523016382 0.017333121117954427 0.03554732046426718
0.00656695367993847 0.01919523217979311 0.057119516820079944
0.01995857791179259 0.019751617553676035 0.040271571355831606
0.01934389704409754 -0.00377132498895386 0.05751691093746804
0.020428343695180352 -0.0013853554131891342 0.05123807396716798
0.022039960312800595 -0.0042670016684913424 0.04844611722303782
0.01874290985076133 -0.005928673609988519 0.05630997225589116
0.018085204462883392 0.004595584218407533 0.05556656721309198
0.013024592285374195 0.015835181676384355 0.05216973633097717
0.02030518290290518 -0.0026097752681956193 0.06091387946930959
0.025740336582847523 0.019349951649878173 0.0353941186552936
0.018542344662765584 -0.007290116045295411 0.05692259368448889
0.017472204135553372 -0.007268640191900245 0.05310422780752397
0.018120564202663877 -0.008031362984919195 0.05612305869100605
0.018329786708122263 -0.006394734100153003 0.05464371517277526
0.02037100908550551 -0.0011128151035527081 0.051263310327500346
0.01507854772079446 0.015673448151272022 0.05084417585147259
0.02495556746718234 0.015651805431458367 0.038487475278305705
0.0257331236310289 0.01434567776196709 0.03818246018278931
0.025920709713704818 0.013437872095157701 0.03832598248858546
0.020557003142695107 -0.0016772738921188224 0.05915681091541098
0.02551505950288926 0.010873855845696695 0.04011166077461343
0.01371404682646139 0.01831646652209709 0.0482587003470969
0.010729788708272701 0.017267998873152855 0.05979976795281436
0.010606546917249337 0.017197052289013953 0.0587025126513232
0.01889708683491518 -0.004667111327306984 0.05605967376964635
0.012507627315030767 0.015694164870536834 0.058279414697777365
0.02637267754275725 0.002703638207143655 0.04207626167860026
0.0173490632411709 -0.009423662437489773 0.0578256156100244
0.01897980398767437 -0.005038020218298537 0.06027155325576284
0.019146820959469082 0.00208698586691724 0.056502628234442714
0.017503889429546383 -0.008734719539335408 0.05548890491002256
0.02043230669841687 -0.002076167288785031 0.0589632091952701
0.010384862867552146 0.01769612737965485 0.06093541689048523
0.0237659009262528 0.002451937194982543 0.04609326994811355
0.021490672278872046 0.0004502311238848585 0.04991849900025734
0.0197698452039571 -0.004954624010057893 0.05114304187257773
0.023211596024284645 -0.001563314529507634 0.04755080856679211
0.01949443599696422 -0.00430627001389135 0.05999892437624142
0.026188138844742227 0.004207180249799409 0.04141460338123416
0.02148361362744568 0.01863369636544832 0.0400019954454034
0.019922544031565487 -0.0036422881010080834 0.06084659319422821
0.028147919507473966 0.006338163856819772 0.037027637320278944
0.01982552708157454 -0.0038044662203488952 0.05926197187642736
0.018781991589252138 -0.004885595310552392 0.05754861603425927
0.01989701208484164 -0.003288042224668575 0.05850514649033349
0.02775649562161686 -0.0019902348099380533 0.039300545390745116
0.026723907287906818 0.0012351329465458394 0.040773623642874963
0.019821608505118587 -0.003757841225099613 0.06158191331986186
0.02896726612487957 0.0035071514984333666 0.03821887969089592
0.025650336841532083 0.019970783439521557 0.0343977111550895
0.0186727918407766 0.003367339031622969 0.056405514224448644
0.010802323265523005 0.017426272994092197 0.06339057914182206
0.02481466689039021 0.006113466760401382 0.041123933168211585
0.011462350311008253 0.016210874649260968 0.0550842832659048
0.020170303999814093 0.01770239059575907 0.04225007801328511
0.01763516142807904 0.016207741681913843 0.046050629529384414
0.02195566615585967 0.013522700703533699 0.041793395311565645
0.022468277294065232 0.012091872736467262 0.042154275510194975
0.00824771490439808 0.01899262844007253 0.061699177412408095
0.03351738545951641 0.001939765983414542 0.034231671878948246
0.02707705006909024 -0.0009049677541533713 0.039477458538467305
0.022355867578135964 -0.005227149485158488 0.04708864426444499
0.022259611876124463 0.0020028248717137934 0.04858736032421249
0.018972415334261975 0.002692151763806145 0.05667218453216355
0.0165058497481797 0.01771273683533788 0.04664796641816378
0.018280050543901995 0.004804675761310367 0.056384023266180354
0.027191602939263065 -0.004824055578801433 0.040379656887466815
0.01092425650245286 0.017435886051361628 0.06125934251855135
0.02579121299077998 0.019769532882500485 0.03459434089228754
0.020613425365180262 0.019655702628122898 0.03968201491258368
0.026183990373258966 0.013872146917086386 0.03776946167778668
0.010588425440910137 0.018614249177345926 0.05103048090074159
0.021979407512587826 0.020698826049043634 0.037275841846395714
0.021658316092026963 -0.001992826255100509 0.049652614483968675
0.021805725912458405 0.0002842007198459136 0.0493674317999286
0.022509720395632683 -0.004436519913341036 0.04753580257196615
0.028066388753000462 -0.0041514280751108875 0.039254941865553436
0.017364504603113923 0.016166690710158665 0.046432573061878105
0.023302539906002614 -0.006149834497894353 0.044622709011463334
0.021056136749157555 0.016195955671163536 0.042084193036742844
0.02125339004165518 0.0008241738485019914 0.050297404862636425
0.018555279964998922 0.003884237450008746 0.05661414755383582
0.019537622875440377 1.1852251525985166e-05 0.051755368727944895
0.006858890603163552 0.0192585119728932 0.058948127113074164
0.020802824150940605 0.007543236317263432 0.045388891504424926
0.019562474252221698 -0.0012882244444568612 0.051560865625578975
0.017712391382044758 0.009197014988600555 0.05194095839888591
0.019165671190709572 -0.0038775475050352864 0.0515051392863181
0.018711840175036805 -0.003947541672979284 0.05170856493123718
0.019546057423792597 -0.004045027679446628 0.05148685591400586
0.018433836026339256 -0.004948153828999767 0.05185776831269499
0.021957018943019012 0.0008616282280570304 0.04909226782801973
0.008796767420527098 0.01787865105341638 0.054015528324479395
0.018926511964174143 -0.003291195108082589 0.05162388810055993
0.009660180796776522 0.017675494264261578 0.055416139611596325
0.027060537192094482 0.008617158549718645 0.037833221355077544
0.03182193532838972 0.006031022344685868 0.03519820897303773
0.033564662351610514 0.0026335809261878377 0.034031723755540116
0.019137279533797652 -0.002447325573485949 0.05160418811848738
0.01823673043026059 -0.006196517455970903 0.05148391822933171
0.026399501124293942 -0.00041309781231404683 0.040216709769408
0.017262143665773395 0.012518225543533107 0.049979308494627735
0.032165015945556985 0.0030252905120925944 0.03515345185271512
0.018297014441900232 -0.008046600601631749 0.051452819176007115
0.012414632603411196 0.015750488492092 0.059366073330664015
0.019182796470725804 0.0025126396238839884 0.05749932650921589
0.03024644739745902 -0.0017446332355636686 0.03692775904052311
0.018749666484038422 0.003237254757995838 0.053547625254362664
0.021347531362823118 -0.00494580740104786 0.04927312742000478
0.028907332617570808 -0.00010938306756963346 0.03845047542535617
0.02912065798274826 -0.00011041161127973816 0.03827420215431685
0.021145412430497165 0.01654816978532289 0.04203702747086097
0.023975696236480368 0.001262012175505805 0.04595286456099218
0.008006423129906109 0.018658375140619878 0.052744642771384166
0.02431923738474778 -0.003936261374121668 0.04419743834506294
0.021565210951708384 0.006574366667263243 0.04473752734821637
0.030318605125081687 0.004932835105748774 0.03583439649760038
0.03191620467307727 0.006609394296973854 0.0351692042752042
0.014097169888334551 0.014247740384455289 0.05919675655244274
0.014070198910650188 0.014018083151476792 0.05785910189471233
0.013581352578937417 0.014439835018088099 0.05767932757774664
0.015319551501289424 0.014055447865842143 0.05180783789808985
0.013479000907925285 0.014339461325775696 0.05628953007224616
0.013143592311663194 0.015173032083748187 0.05929340278633548
0.028233580780052493 0.007874872218172914 0.03669436187095645
0.020602885317949682 -0.0004590906723464604 0.05968179249285313
0.019933990561406587 0.0009905854456156078 0.05908497247768844
0.023321319532752183 -0.005430989884787143 0.04509441878763745
0.03506017916338787 0.001531018162669738 0.031808971750074536
0.01867715850231141 0.0038523771202487824 0.057743500558535686
0.018002866065026733 0.005955901675681403 0.053609832217850525
0.026237203968373132 0.01975002896661631 0.03435473997153231
0.02359566555386159 -0.0011000981061145448 0.04689759714186894
0.009930243499340945 0.018113184516717843 0.06296089381740289
0.019004419199149008 -0.007264711520778377 0.05111685332796603
0.01763819384365512 0.016559867571143645 0.04569703776119441
0.009103085623753693 0.017925913116395322 0.05914716236461054
0.017839720535384893 0.00645434567025394 0.05373123593926913
0.004319089913394053 0.01940671933345768 0.053044925693066805
0.011189469723257777 0.01723963625102536 0.06243260934360686
0.01044576182169949 0.018731741637658634 0.05052739311279693
0.011872130475567715 0.01634840670219225 0.05279151802057597
0.011644553759635214 0.01629747944518578 0.06383687768778681
0.023559948616725203 0.0006459595936722608 0.046718047111796196
0.025999808487476635 0.01696753713295265 0.036970393739808934
0.025119663896373295 0.005709343898514918 0.04115679101684861
0.01024284068225078 0.017528386941470308 0.05627972465384213
0.020366542179193124 -0.0035700634290460483 0.051310020777133966
0.026758959023342826 0.007028674559511262 0.038581643321633406
0.016536369698631505 0.02184659159372753 0.040521600215533166
0.008151253563027679 0.01838144132683549 0.05610002727426871
0.007393638599305658 0.018776048172634834 0.056320041051412244
0.01719818385046561 0.01054953220127285 0.05187833032653642
0.020185056489817593 0.0007490653332956738 0.05986391346578081
0.01968229475552084 0.0013017810083065422 0.057613608807480794
0.020567929940212802 -0.0001363650482346572 0.06042066628926966
0.01203088390870895 0.018826830825338835 0.0484214013755183
0.02179121789276347 -0.004732536772436179 0.048580476107660225
0.009179570101482048 0.018609149812295903 0.06270228177791157
0.03319391384853249 0.0019203246744358008 0.034551391822019425
0.020514492980356125 0.0029565359067682644 0.050967577013104615
0.011719448342523094 0.016806693474036804 0.061517119518069895
0.026231248922681423 -0.0008193365315729182 0.04038550496715328
0.020632433610957873 0.019004692701993883 0.040321616380089347
0.01578499933938861 0.019456893197640462 0.04396671715068722
0.02574978925943111 -0.002698358204547742 0.042045863878541034
0.01624777602868661 0.017468148361376667 0.04741483334569079
0.021417197674595465 0.019236962127585324 0.03941682127409295
0.03566256154206284 0.002312289765775545 0.030410582309857586
0.01351301238967273 0.014930602121503135 0.060001501543916105
0.031846886276288455 0.0014434633513671145 0.03566507194992921
0.02042763153803072 0.00032746478632754357 0.060738614371102714
0.03115938346609435 0.004466703098927285 0.0352594215164692
0.0218101020424748 -0.0015985948595024536 0.04947723291491722
0.017331034145537858 -0.007583586223941075 0.052972947131551214
0.021032420615906065 -0.0038015711088368737 0.050357390450773275
0.011532892854581386 0.018054208139551917 0.051589838939309726
0.02162769605996765 -0.0012088340111527569 0.04976115594380234
0.011138130374720763 0.01645761668101882 0.05326757563979442
0.01961673612259615 -0.005276280497212768 0.05109785430493373
0.03045759348185349 0.006996486762245807 0.035760722561691674
0.025772237759932894 -0.0028856954997444092 0.04204255812484038
0.0037112055286632833 0.019398547407708418 0.0537212758067195
0.019610026943769635 -0.006729693974092222 0.05062217787347964
0.02249395557665252 -0.0031526011722523475 0.048287548970943006
0.0070915053195275855 0.018610847449033012 0.054142000480901356
0.012020815304146585 0.016362414812178656 0.06264791996837532
0.014209833452644717 0.014215717166650613 0.06082706078507957
0.023420161607123357 0.00271700282800398 0.04660076135194871
0.026185809084429044 0.017230239003779884 0.036679986313273745
0.019354004545056033 0.0022712379161891998 0.058360752988796186
0.018446231612426943 0.003724299082880061 0.055372117016410406
0.017041201168176298 0.012889371749797237 0.0499180335406947
0.035057938218745185 0.002757148052496253 0.03137388842290299
0.012673712023247458 0.01584096098912433 0.06268036433747443
0.009096720969185061 0.017856655341727153 0.05503697391974999
0.011397724654710017 0.018367719799263903 0.0503397350573001
0.007481887153076345 0.019116905744862762 0.060524083260498074
0.0271519838261279 -0.0020792442700174776 0.03988700870437306
0.010519778745184493 0.01769967880880715 0.0630152792033851
0.021496336576561165 -0.003301566050329836 0.04964267422809601
0.005792664088239457 0.019146125108490758 0.05471714531522196
0.013791881814444197 0.01406713187326879 0.055622898631065454
0.02106802226942157 0.001782415735573074 0.05046819736669311
0.006586682515214182 0.01915047531525032 0.05634413459370348
0.024590680907585497 0.0009331882662723303 0.04485729923385109
0.024208595269060412 0.0006914180674440622 0.04557839500651695
0.015953587890914327 0.02102868042864417 0.041657033839428474
0.02478515531183314 0.001332186867438071 0.04452162429166439
0.02137471154902782 0.016480634011941133 0.041828812072398386
0.029766528682688503 0.0059719064896862645 0.035923162490624896
0.030264404235890854 0.0009307330161534206 0.037193924832019006
0.027587012191779024 -0.002354763329064737 0.0395756975169923
0.01775856611396021 0.01855469750380843 0.0430128744747287
0.03463844140657416 0.0027620893161915414 0.03216029757142898
0.01979361822918078 0.005941018417966235 0.051312227151485514
0.009929445901320272 0.017620916190669463 0.05592669131203102
0.01774931929566569 -0.00621952532677666 0.0531548251348203
0.01776233900022851 0.01779902797545565 0.04395429136770784
0.00862394302166359 0.01807035685612961 0.05479028700746017
0.020295982307168267 -0.0027563252730429064 0.05139129114488852
0.023432089994352544 -0.001873797517834003 0.047296459666617066
0.010672107770369442 0.01773276081811666 0.06241339470822127
0.025639571250664017 0.01562213039403145 0.037774616973839464
0.018950895029518598 0.0029582367050561787 0.058131608781974715
0.02073585803434045 -0.004954290190266169 0.05024708498781688
0.025684518894956498 0.0005395837409600052 0.042518337186308514
0.01219362768548879 0.015990047303469146 0.05824609643599385
0.025951509167745475 -0.004669978494292575 0.04189261701000509
0.02619685975808029 0.016923373291676085 0.03686408966213056
0.021222422837265255 -0.006520057343428395 0.04802237607361112
0.014215951580443035 0.014255176937921086 0.05999926343069669
0.01903315715938078 0.018512021479324722 0.04222247837980647
0.019379984121992613 -0.00765531882947207 0.05051308084582843
0.016240918011624618 0.02152405635009838 0.04099265016926665
0.012488949585632585 0.01608734482321533 0.06223067688776217
0.019948901203379686 0.0014796253622485504 0.060358336141857906
0.019579435058067973 0.0020148630651866555 0.0593321255676363
0.025529413800793918 0.0003301741217370076 0.042757566229141515
0.014385413798930238 0.01697775627851287 0.050077936642747865
0.02818333060635466 0.011069289885050465 0.03645298564823196
0.022615351737641714 -0.005346365618226708 0.046383399955974756
0.018953331801346725 0.0034238050527220167 0.058595861559339615
0.023293338096826863 -0.0022299711850441726 0.0474660438540957
0.019973756838109626 0.012384221901805215 0.04395779467642162
0.022062818932760356 -0.006198307467613691 0.046598349012610604
0.02027814541401416 -0.007230519906422064 0.04896350959796262
0.0262934047822116 0.0017034302760956166 0.04188897964122698
0.018897588448770417 0.00499966010715344 0.05919086215500183
0.025201626476984224 -0.001522743831912137 0.04300637684157817
0.0300944333683165 0.005628216918237425 0.03586086837734655
0.021732796890788882 0.0031656475988687278 0.04891702450082219
0.031679491572247295 0.004797524554180765 0.035004502240211614
0.022064672346222135 -0.002755343238787722 0.048969485034304025
0.023090513698802932 -0.0036869602445797544 0.04691681386533711
0.030298778526013613 0.006021438562954812 0.03577111885313375
0.01811843490240045 0.009134433950360633 0.05189649962855424
0.02946807872252678 0.007937321170049635 0.036019585790818945
0.019789846412312302 0.0022648332253045597 0.06343543393384787
0.00831908625566537 0.01849790503683796 0.06059970747105784
0.0225423974167311 0.018226398140329784 0.03948428653824164
0.03315148101100543 0.0035423216888947878 0.034154928299561425
0.016017109701596477 -0.010217323059509956 0.054100915235055155
0.0344649848227646 0.0008243397256517653 0.033162790431162874
0.03464082606357401 0.003089104116793463 0.0320267094403787
0.034152097079868465 0.0031693120881934 0.032882574183880534
0.0230996580730535 -0.004514974654425238 0.046082776400375135
0.02590732098210944 0.01604190618713335 0.03740274915097727
0.017318757334500418 -0.008622834609268031 0.054185008223455094
0.02207956170873437 0.013554179579654308 0.04173223341035114
0.02645211457102639 0.016679038130082605 0.03680476849890997
0.024886319042996524 0.012920274362350903 0.04020555493008243
0.028240739882197653 0.011666633647866314 0.03605592076046624
0.02431813709346697 0.020568124443816605 0.03451073688443547
0.0113766904329094 0.016189346022461748 0.054734454196817175
0.03392524329452393 0.004188801507571808 0.03251065962286296
0.026504341166540695 0.02032803235376933 0.03300277969308055
0.027147506452132816 0.002767888394296055 0.04082250294432001
0.02396440143519447 -0.0016031009091717337 0.04617840060605245
0.025151944433245962 0.0011671543500759215 0.043813144517133966
0.02062866236411147 -0.005658918960606475 0.04992388340898453
0.013232291899511795 0.015383702608048909 0.060957088403675905
0.0054513213898919 0.019558376958520363 0.05675661809106515
0.011884304089839223 0.01642060627096502 0.05888016780412423
0.01958862777545841 0.0022292060361283252 0.059948592110214444
0.02890202541906957 0.008643106153193483 0.03631614384302482
0.013907761643973952 0.01710838151866414 0.050444068596036534
0.029708559840088553 0.007471089018432552 0.03591518768601013
0.02028272727535186 0.001160585046499648 0.06213547621992915
0.0102297017291009 0.016939981736607965 0.05410598881624782
0.033832741318466544 0.0034623314729052947 0.033235481748586294
0.010364807801067903 0.016798714833966045 0.053767819106116825
0.010286372761167123 0.01934557618322189 0.0494238739609086
0.024403098186610173 -0.0006085961420690188 0.045077152518724885
0.02422239682915392 -0.001756780893534283 0.04537593685119966
0.02729297760481262 0.01762318329736891 0.035526799056798
0.01859235649730264 0.0034227649050203156 0.05581782703176635
0.02652396769085059 0.015819940332509014 0.037076463337531826
0.020938363136710957 0.003793897123974241 0.05003173113525594
0.027002973537694056 0.01658358866124314 0.03647720228300194
0.020095701922508837 -0.007112195293795475 0.04958587596233742
0.028389732884372357 0.011181829196588961 0.03626583995136005
0.02813272972591907 -0.0050557345378937045 0.039070722190852246
0.015514782324569017 0.012849993908327062 0.06259554857261343
0.011486477719380389 0.01750097166147621 0.05198687283770688
0.01937126027795717 0.0018872359630873398 0.05214313514177635
0.023516228428035215 0.012670863210976302 0.04135581717075288
0.02808842709025345 0.01204619260733793 0.03598171267047977
0.034427695436488076 0.004393236099737339 0.031638178592311675
0.02538061171809234 0.00999118400532924 0.04012478718577406
0.021318402782041893 0.018441370771024368 0.040337948339159435
0.03267037254364406 -0.001125441328939763 0.03565224949532905
0.019914226895549243 0.002412655409736442 0.0516638244497342
0.02169752152461434 0.007467226073571228 0.043639032134688976
0.035963288440200886 0.0024224209455516086 0.030049446992283922
0.027398683341025132 -0.0032802446898479616 0.04002583355767909
0.019304941203218056 0.0028932916768040742 0.059601818997075916
0.016860408463393917 -0.009127388991261618 0.05390719088877882
0.02734219912892069 0.007951879807530036 0.037608509168659675
0.02523255554888077 -0.002176439450069596 0.04288989381625091
0.01955442199218343 0.0025239688441888704 0.06450412776392164
0.027658094002116017 -0.004142617750019668 0.03980526680753632
0.033624192706651256 0.0038150710976996693 0.033332073439634395
0.01414234727051835 0.018503598638803635 0.047950287410043306
0.01476043666032342 0.01470594146586307 0.05173546737727298
0.026878337696225017 -0.003298198709369045 0.04065584595923881
0.01645407248244358 0.016596354511685278 0.04731260279460141
0.028658587135304676 0.011525764641192726 0.03595221511324512
0.009439324901682797 0.01756318058970395 0.05464508325510208
0.018534672005177836 0.021920878297209664 0.038679078493557006
0.02217597527406847 0.005257393785564897 0.045195182398342616
0.018047387994876953 0.008207735412011051 0.052114538013187064
0.006449599995510795 0.019023234106774322 0.052740584613569105
0.019338098726934868 0.00938205850858056 0.04981230912911349
0.026155839801707527 0.011759329552925527 0.03878390760998006
0.011570128396146233 0.018756867749027788 0.04876200062790006
0.02610384672947649 0.011792297023868007 0.03887317422330766
0.029794755294918054 0.0071401407018581164 0.035878138402079596
0.025564700956060418 0.009395948785482292 0.039736100817906475
0.01990430017798787 0.004033960329345872 0.051403918631855505
0.01908678894450225 0.004566042875735656 0.051713825238369766
0.013190210515527795 0.015501162810569557 0.06247855818686236
0.02909010733446479 0.005711763892789624 0.0362653794024872
0.019961048875713476 0.0069618894711700515 0.05094972159543347
0.02000365392568257 0.0015707006939418588 0.06351558163616758
0.01933315846649992 0.020240641207646015 0.040346192791762624
0.03133647549909965 0.002012248711277172 0.035608508267652855
0.01830099645701612 0.018055763217346345 0.04306574328688646
0.033021068218222246 0.00409412637953417 0.03399039108907086
0.03595163750351407 0.003707747556100142 0.02988466097977275
0.02019065357670941 0.0013947359470462299 0.06219796528986045
0.017624435330237255 0.021668985979700534 0.04012278548110494
0.02037598655855587 0.018191570779985955 0.04153077557419667
0.025602490802100142 -0.005545318124732142 0.04220065405378663
0.02001525158709974 0.01850930124403626 0.04151715139501996
0.028904133360657648 0.01895752086474368 0.03356374323084939
0.02599519430498997 0.009497330553646677 0.03918654453103265
0.03429943291572092 0.004673710462534043 0.03160860092018767
0.01917915575553024 0.016623322128197594 0.04348305950980706
0.022465423152387205 0.014343991523003575 0.04129042828398982
0.027815641462543506 0.01783415995033782 0.03496876910910598
0.008135303870736556 0.01846901977307733 0.05696955690491605
0.020774604132433854 -0.003958845315780134 0.05067808211118205
0.019115088577517154 0.019644433386613546 0.041290051896539004
0.025579811124930366 -0.003563812982800311 0.042405679560599555
0.03111846306271598 0.0014293874142842218 0.03612578820898711
0.032776891792367695 0.006918834589198791 0.033861854401411484
0.012845961675420032 0.01575543267660158 0.06250146652153507
0.021676229230516982 -0.0028430446624523047 0.04949516553720144
0.028011649682175756 0.013869866642782693 0.03614771621979167
0.029254703353549724 0.012304467113002052 0.03563130242847818
0.026154787620506922 0.018511133159647943 0.035958220827087085
0.018912641754908803 0.021404157439012347 0.03923336414550436
0.022968807821291293 -0.0037082872339005077 0.04714546280211151
0.022777356550210456 0.015021933982265624 0.040930126371759405
0.012081917257274805 0.01602506067135165 0.05739775050782753
0.019079552668389066 0.003965293831905019 0.05946253598411763
0.011556482978119984 0.01677612286788701 0.05975410301002602
0.03298863438205686 0.004727731392973358 0.03370015707553606
0.01745041616200494 0.014477911177095775 0.04804172292794995
0.013582141943920432 0.015112580895204538 0.06200552402519775
0.022653195919707977 0.000872278480402148 0.04801143044616768
0.01941128563065189 0.008542054830912357 0.05084228476376433
0.01968908464004631 0.0022422518133868793 0.06118725377326839
0.03255819570999499 0.0051781939749514245 0.03423263135923496
0.017866980394397408 -0.007197157784954406 0.05394725514668345
0.02809628809739751 0.000993020341255344 0.03917971146510259
0.02691960223434768 -0.004286058036711793 0.040797295781847466
0.019314050388113853 0.0035293045419382946 0.06057578496547247
0.030474503189889774 0.007994870159648889 0.03569777408230119
0.02582188939446925 0.012754461043934292 0.03892066685308053
0.01254375038377487 0.015956081188582296 0.06058542994064396
0.029500091827592105 -0.0012827401371621739 0.03770028025308779
0.019916948123376032 0.0020176091909400655 0.06221228503153973
0.025671565062019338 0.00016015766601883637 0.04234500374010351
0.0259283811552326 -0.00011604170487902488 0.04154227502152517
0.02828413563007365 -0.003957908388537099 0.03895987345429361
0.022638282354928103 -0.007472472385035627 0.044578994859756055
0.027783831479315707 0.015420032732677714 0.036213743123502645
0.019958956394624645 0.0020476837919293695 0.06242685824102079
0.01929056765738822 0.005766590476940517 0.05164892324730937
0.030046646304509084 0.010203625093539215 0.03546387720374712
0.023007189100619656 0.0024509527213205694 0.04737002179373011
0.012756650989202076 0.01657481754367776 0.05186370268677566
0.0312160255693876 0.002448010780675844 0.03570203604768467
0.01889015422512364 0.009636163267756945 0.05086562420388144
0.01570645151780992 0.015120776276853543 0.05041430707184246
0.018692137712595647 0.003452207110217293 0.05679124817746708
0.029531295379925947 0.009428177032732257 0.03592446060758126
0.022464076788868307 0.00046148767180202797 0.0482854049897226
0.016570941669690982 0.021766457177739815 0.0406139878151061
0.0287449409100955 0.014627903997301505 0.035473856173172724
0.019373824925467423 0.0037846302023163067 0.06464499000441844
0.023670134085643967 -0.004059777994471948 0.0452520964615826
0.023612251882006875 -0.003979946226124009 0.04538492388017959
0.025175003796632046 0.002178785405897238 0.043925757013288734
0.029050278862229734 0.013627506982775182 0.035500834537381544
0.02993302810761915 0.0016051445373516373 0.03737815684587317
0.014022242140836881 0.014391473146556102 0.061794803383987865
0.023594846362887157 0.0063606834853206845 0.041927508823563
0.020529930699676163 0.008031416920122119 0.0455914371819651
0.02527125128186697 -0.0039678363574006306 0.04283901409589507
0.019285783040626135 0.0025951163384269897 0.05901752093531407
0.012053309436202468 0.016433138320645857 0.0601948298587527
0.008756596657559512 0.018044750772971824 0.053084547812852656
0.029044929639298635 0.0188947214237924 0.033475254070393576
0.02266327355758189 -0.002848941222375134 0.0481860830435711
0.03294341880337199 0.005692574938716676 0.03356430092791979
0.01380294241465117 0.015054297009932271 0.06281665179542853
0.017329941811127982 0.01124228898546386 0.05169782532763759
0.015452749813667479 0.021791441244387498 0.041043561869073944
0.027278324625171872 -0.004836966122388899 0.040262058213680244
0.030484890216075915 0.009609386739091326 0.03533150858209139
0.03322518969269322 0.005572273761782449 0.03306173145132711
0.027997565130981755 0.016672372026501944 0.03549652565860469
0.026388669938359522 -0.004058112644230251 0.041452583405108975
0.01826614322104968 0.014252996001734766 0.0467652988203647
0.018326715472774185 0.013806967107935648 0.04695491479917506
0.028336093978694292 0.01639423891329659 0.03534152132493277
0.02223942498512482 -0.005013032746061551 0.047568817273215304
0.029855613418934647 0.01096864570254413 0.035563232264940285
0.015311716214310033 0.021677975039927237 0.0412131043776063
0.02942876725289635 0.013059231784617372 0.0354168745509205
0.017387317846722795 -0.007957656350668621 0.0519842697236092
0.02416217234084045 0.02010625448608918 0.035932772495441107
0.026950634597991036 0.008037306497464076 0.038080482465552554
0.019263447877009232 0.009550470756672617 0.04972003977476575
0.01866408989437198 0.010642963062011401 0.04963383648473475
0.0214617010408585 0.01973086764239765 0.03878856757955046
0.027098329789378435 -0.0004391500876629095 0.0394911818084835
0.017441147684731016 -0.007308770874007851 0.05199908197430575
0.023363710810395247 0.018947892969191138 0.03764377944001377
0.03335303472773122 0.005672526139055127 0.03277909116718428
0.02916328803419582 0.014549971809137639 0.03517273851680109
0.028895411158682004 0.01786385059986583 0.034121790769511245
0.016357642818703298 0.0204499760350224 0.04211770776551553
0.011402268307270176 0.018651896556571092 0.04907171701996436
0.02514219899908461 0.014501930695213779 0.03903093199962915
0.03073545518555061 0.001214573113767346 0.03665221321529666
0.02276831915115777 0.01936542840617874 0.037820474636089826
0.020043154604305426 0.00035942446603357843 0.05872438064109983
0.028090821670689457 0.009544990798344637 0.03687640133645044
0.0316643889105625 0.007138548678813611 0.03525076755275179
0.017726639969031628 0.01178585503660313 0.05017559422863315
0.024618156376722773 -0.004468924553880444 0.04357827635780007
0.024561476000943803 0.009378772646036669 0.04083663923648194
0.01879823920446201 0.005221570442582681 0.060999950545794074
0.013811359364565531 0.01490807134086563 0.06231564168269671
0.0196748410720164 0.0027041707624109834 0.062226009924013385
0.017770954569573706 0.013925352657283582 0.04796088729376985
0.016633337072938764 0.02074788018054258 0.041729320808107
0.013283624172386757 0.017498260453765062 0.05034355505685736
0.020208524547731192 0.0008526308163659582 0.06031871264850755
0.018235483328273364 0.01578229152233568 0.04561600613280424
0.01823768593117904 0.015059467086739905 0.046194520559462604
0.017183844384083453 0.019704131769958572 0.042330268989103165
0.013061325384835103 0.01550874933169534 0.060781319323991424
0.016215658790724043 0.011567390692169542 0.05208942237337594
0.029339720625210702 0.017724613017502656 0.03371991941346218
0.01980998307977796 0.002458388519357969 0.06264902806589033
0.0294070975464413 0.01692608420880811 0.03404129727757695
0.02232115536097063 -0.0074638297634324075 0.0450070720592661
0.01886796923329122 0.002412183361610011 0.055370488150198606
0.0215607616367896 -0.006676012962671689 0.046976945926816505
0.023625176185250313 -0.005865573326105407 0.04435876097372487
0.015277985035229289 0.01507103836069652 0.05109229416932443
0.028420788359932357 0.015449908011187678 0.03560881319093897
0.0163186895272016 0.01140252403365488 0.05206074065605522
0.02007836554648853 -0.005442964864995591 0.05071858330637855
0.026523799987183554 -0.0029610775805075833 0.040989251649564615
0.032915746625009144 0.006742180275463106 0.03359888494765732
0.020597977541302395 0.006286072279461048 0.048620219385680154
0.03039027802444507 0.011092303205712585 0.035124230945499706
0.019472852731479966 0.002924780190876785 0.060691644374002394
0.023767704078248502 -0.004904344518534582 0.04465415141378848
0.01608505128079725 0.018655901211766177 0.04559760928544211
0.02189744025673094 -0.008571341147224668 0.04452639691198377
0.019852858370266787 0.0004713596979292264 0.05811528099188544
0.02424172858038753 -0.0018673021789355755 0.0453118744077957
0.024465391682630757 -0.0016281756964332344 0.04474674318248351
0.017501274488472652 0.015199150107918925 0.04731909853170786
0.018537417045490355 0.007404997490460836 0.05191388043099954
0.00953042554745578 0.017358320709339188 0.05367968962596624
0.020215475079884193 -0.0020119462586710222 0.058271968302878493
0.019264034023336 0.003727345183921681 0.06054864023151765
0.019751234641440997 0.0010258456693085735 0.057770062926065006
0.017167917193994894 0.017954548734901366 0.04485676087676559
0.0332128944540741 0.006402639343198919 0.03301322690630645
0.03300455849279064 0.006183213965640425 0.03343754401457858
0.02056139288063187 -0.0005688622232726004 0.06319401513795432
0.014630896748688733 0.013812381812708985 0.06219354044151661
0.017803174473722407 0.009456021107849315 0.0633552870779105
0.032409124355429746 0.006265305991119823 0.03446612183353212
0.019994046147772407 0.0028073270625773175 0.0515789891448826
0.031092555134467393 0.009100472181455875 0.035023048992202634
0.014262060674470802 0.016408854598792082 0.051103566196196576
0.02508675846614438 0.00014320711596817746 0.043717053684384506
0.025254445061783357 0.0004524351605037678 0.04343177416225814
0.014073715579637915 0.011711088421988237 0.06545123271019215
0.030010390895141265 0.012501157306800542 0.035347098841227165
0.009486928613420572 0.018896624825606237 0.0510973416780654
0.019410073083266387 0.0034968033639678564 0.06462003675262093
0.017188962760761217 0.015601440635970541 0.04733555124856728
0.018831922486860574 0.004224133239641989 0.0585483779790453
0.017636804812975714 -0.0064359616721828 0.052839101155367885
0.018832172855238687 0.0033521363347437183 0.05790197213623522
0.020628276169330155 0.005930796407091198 0.050236587398137654
0.03162494947635816 0.006334798791288304 0.035431459665399734
0.026797003057647255 -0.004387158338497307 0.04094776752072963
0.013337896834820565 0.01446788788712202 0.05500777274152008
0.0214153178649165 -0.004453603940935879 0.0494006789773649
0.017054294475494565 0.018613121698779503 0.0437252684269239
0.022859037380802857 -0.0042825443791713914 0.0469002256658482
0.029845127501121765 0.011592822470693742 0.035555698348698296
0.02080210639517361 -0.006325549108989393 0.04906151356237862
0.03045674426204998 0.017743834691788987 0.03233526880498468
0.03159435187715781 0.009064693499665748 0.03445045709301684
0.018143100858960468 -0.00578624766730511 0.05384154703499608
0.01792918472750371 -0.0072164957512213836 0.05411645383519059
0.017957145687281868 -0.006823867633444012 0.053887163857623405
0.017868369098171265 -0.007579110193315226 0.05428950230774681
0.022285538621504754 0.021004195603561295 0.036689118423816974
0.0165673681850344 0.011802749574419496 0.05187540127003965
0.02372058467879681 0.0006056771455106902 0.046457644157542076
0.02194949602788996 0.0002963002829978569 0.049101963820266804
0.011307293219670753 0.018253825199062573 0.05146359457259123
0.016672560998832988 0.012578481740512768 0.05156591589592916
0.018028952932580992 0.016705954712722564 0.045073346713934134
0.01670193288323598 0.018471672354412973 0.04461525262455769
0.021338362213171303 -0.00680128132613431 0.047233660514274196
0.02664644660665621 0.0020318852213945457 0.041478064030254794
0.017921250212367092 -0.005434050291278582 0.05287943450983343
0.024198667817085753 -0.004569478720349697 0.04414951419531105
0.017675369247138813 0.017651675504228862 0.044410080165640894
0.025648357727374105 0.003241090739207879 0.043011349961576184
0.01673250030067298 0.019545648021595512 0.04278828181714245
0.01849421163785464 0.007816809421623421 0.05182964203574655
0.023960411464357147 -0.0012743839666782238 0.04618868220447922
0.01911471762050981 0.002679634134047831 0.057986362512127965
0.018162890802572617 -0.0051625198462505 0.05229741032686701
0.01630967842799991 0.019099154351052784 0.04389643381460615
0.029367010013325305 0.016732363831776547 0.03417114859813513
0.02530800503114254 -0.0025326891257745933 0.04275491004149669
0.018772209782233082 0.006410683290850812 0.05188262971690352
0.02922960101535569 0.01504884063616413 0.03493065331849748
0.028209602027798666 0.0017829722765405765 0.039233007652786187
0.030165431990457424 0.01439660846777565 0.03450698893342281
0.02870123052664947 -0.00395467822223863 0.0383973752885149
