0.028735545396271718 0.02233568360302752 -0.026861677785796314
0.03538862273975451 0.01991808825363432 -0.013256144375281883
0.036446336850099084 0.007288777861303453 -0.016287771936199704
0.03670526973564777 0.011964777811421159 -0.010649822671607242
0.035472344356142396 0.01152296457775788 -0.017491609971117796
0.02493734545348146 0.0234934835701003 -0.049413308020590525
0.03393433944261294 0.01355817125750655 -0.02149732435450738
0.03592954190890195 0.02027572782986109 -0.01193448792430403
0.0344901497047844 -0.0013337199673066637 -0.01793765528326089
0.033393717936746045 0.016956666485460604 -0.02106785447969596
0.03424632044232047 0.016484118200661202 -0.018580384549156247
0.03500339635416344 0.008200225453243256 -0.03275171426572703
0.034785943559311944 0.008849131225434955 -0.03220249835994665
0.03481718951705824 0.008758636767883896 -0.032127781132480576
0.0346915813889381 0.017463894238099582 -0.016392079675144795
0.03546467011435827 0.009233202693876237 -0.01876727114130444
0.03032752626820731 0.021242904365022575 0.001640970447159301
0.03377352101401113 0.01217861572682395 -0.031343330877337344
0.0273767073807575 0.022927883155228024 -0.025261174374615312
0.027080030050751366 0.022978125507727258 -0.025567770586176146
0.03513466806812413 0.008827377882466056 -0.01945830479378364
0.03324281909714408 0.013328587570879496 -0.02565209345284741
0.036068720898536424 0.009511305102820907 -0.04265209634586934
0.03572431800818143 0.00977315876701116 -0.04225712915440526
0.03349729109503507 0.014101753152759751 -0.03043042357180841
0.02813535008926795 0.02344370348110538 -0.04653230240914709
0.027462560240323182 0.02359720619128079 -0.04681777132048269
0.026875514303039215 0.02298725963698233 -0.02683501148454404
0.023706192139397002 0.02300685911050311 -0.0043980162848711556
0.03551998912807767 0.004419033923087718 -0.03219351909889917
0.03556498620903481 0.004174474929107283 -0.03253518609698786
0.025593497036355328 0.022633053416207628 -0.002282196921049931
0.036496664781109446 0.010153161458698589 -0.011227577295450127
0.022534968951967306 0.023887059628377047 -0.04455569656030382
0.022450782196445494 0.023883511979617782 -0.0443917015881203
0.03643578236702845 0.019326165556721314 -0.012798770861680455
0.008966052045703264 0.02449224197165992 0.0041600295807462774
0.009211330333688142 0.024526966026356067 0.0018587929787556186
0.03526318781723793 0.0020664009650526293 -0.016529049177758902
0.03528238088648901 0.001662948323402781 -0.016303990742577802
0.03459978520183696 0.0010241400966095775 -0.01858937962265377
0.024279848649786703 0.023363414740825213 -0.03205472113716169
0.024396630664465506 0.023456456118517315 -0.03094175991705899
0.029491151595161396 0.02202071766694444 -0.032920794388531696
0.03471298813101419 0.01862008571588894 -0.044243480199489676
0.033492670781261696 0.01571173487945786 -0.029849511856515645
0.03343715766632383 0.014301280105305264 -0.02898647405298347
0.03216045222249387 0.01970089482582165 -0.02774660056133746
0.03522835065346209 0.007743575448530149 -0.038015725637140486
0.03496315167530234 0.008213784684979079 -0.03744975242907722
0.029832144479495285 0.021617854434410208 -0.027301796697657303
0.01816119725198499 0.023993134445101066 -0.03125157288747234
0.03690099538697718 0.009593428898421708 -0.01062738709177101
0.02284110243877056 0.023898050015563915 -0.027173815250158263
0.03467762437983622 0.0056548632862086666 -0.024834126124070422
0.033548349864648046 0.014456500122032992 -0.02189787745585709
0.033358235170755646 0.01415240002315329 -0.022568009558462738
0.035500395336321384 0.015923134430582686 -0.01452060608536727
0.03434152225928497 -0.0012015108327968265 -0.018742466916147737
0.032798069723888656 0.01426904114014007 -0.024401552077913218
0.032829867410819724 0.0141604930435581 -0.025000429189742924
0.02706389924398734 0.023575139474860188 -0.043998399013016415
0.03452189794555456 0.001475876577236872 -0.01944012420807601
0.034490027781137717 0.0021110767268208664 -0.020304932831399013
0.03742484102452995 0.00656470334546148 -0.011633146667889336
0.033972190552943156 0.010615952549237959 -0.03591070440132337
0.03364241604224577 0.01171722359970993 -0.035809246301261095
0.01717928640990925 0.024209972437415565 -0.033525148283545726
0.021874762091443397 0.023786816796018982 -0.03751068248607127
0.034290520065976125 0.01942629798449398 -0.014892684735167161
0.03390673534530388 0.018214916634242587 -0.017128614749629685
0.023726061993712865 0.02332846670531704 -0.04992382793110353
0.03568580763518728 0.006735196208742805 -0.017724282907320858
0.034233005428941365 0.009982843079316493 -0.03527664410181001
0.034623994227818394 0.009200440334658508 -0.03450950671336131
0.0322204005118956 0.02027382892914462 -0.01845142058671786
0.03463726849891082 0.013514744608739908 -0.019318942802133362
0.023333556611148012 0.023754001054672784 -0.026737974830237626
0.03383366910841985 0.012157967279470173 -0.029385965491022393
0.03602600636936538 0.004782100300187971 -0.03638204661047902
0.026091494804870552 0.02323133950149329 -0.026947683210925426
0.007936418204252718 0.024499604046546587 0.0034263139320276975
0.034677132725794174 0.013955859597201801 -0.018729170555278903
0.03134172691828756 0.02107243698647236 -0.03402694906386251
0.03230701106542718 0.019772437735298694 -0.03086360573066763
0.03486617161474771 0.0034155797063097565 -0.026529324043368475
0.034983474103278484 0.0038147749776143783 -0.027637048429087385
0.036440719552922385 0.004800469679441276 -0.038877822852160474
0.03319693077294799 0.01903754847425885 -0.038165869878245
0.025839158767439235 0.02319626667519702 -0.028542376369529426
0.025598344138824496 0.023311106766935256 -0.02830512237882515
0.0373028415951733 0.008204587388587283 -0.010770221845928036
0.034520817997000436 0.004213894842536246 -0.021521016787953335
0.03446837354455583 0.0032382261428977504 -0.021802061619686914
0.03428392361797341 0.00867000458052151 -0.022849103884804677
0.0346979976872723 0.002115994703040186 -0.02586851651711319
0.03478163202535828 0.0029022949647888154 -0.026101440494986586
0.03466555745228096 0.0016045903459796377 -0.026211524618765678
0.03349670174972047 0.012659376646784584 -0.04004110081428139
0.037182929905905895 0.008263286719730034 -0.011074836824647305
0.021540622876592204 0.023680096062070555 -0.03316362825645964
0.03387167733828235 0.011949067142824097 -0.030886648894725234
0.03259664508833411 0.014919577089937784 -0.024863683045069775
0.01679894571659948 0.024080900835053716 0.0031204624530199424
0.01701318700691357 0.024066454245595965 0.0006509067072704317
0.01912583750659821 0.023777543209218925 0.0009292768649370723
0.02625720720266534 0.02297180753275727 -0.03020095099315911
0.02321416360454097 0.023583325854368162 -0.036725880032701205
0.02370912047371048 0.02352795591398167 -0.03720968169403002
0.03631638290565146 0.010222130674036807 -0.013980542574517685
0.01769659250647645 0.024076457555181993 0.0028311100087603978
0.019512952366717167 0.023704876583044085 -0.0004743093331122897
0.01870892076465589 0.023883484612470827 0.000570840037026589
0.019841080160136644 0.02364579177912539 0.001521333533038524
0.034185236835263755 0.015801986985475584 -0.041115016289635424
0.03568624396898969 0.0178932064660723 -0.01281126244208026
0.019429932255160615 0.023710638853215893 0.0014132860389039585
0.019330341333687544 0.0237147380241316 0.002328981378464014
0.018141511085301248 0.02401412610621253 0.0006071112065212723
0.017432127218559204 0.024058480244697835 0.00011176020951082672
0.01675907229408901 0.024067821877062204 0.0016099367361013407
0.01844409086924747 0.023953835097943126 0.0023716846788327836
0.03450434118217766 0.0059108932565226785 -0.021760273051540303
0.03291283853840944 0.014196666269833826 -0.026867960103737692
0.009033273399391865 0.02449034714228427 0.006639710036947517
0.03553703563249292 0.012008412208788979 -0.013398652982003965
0.035216341799395104 0.00906434445786632 -0.040439007597202176
0.03507610150069889 0.008867231787197057 -0.03975394645162976
0.03417972858504699 0.010565771106056786 -0.03324549805935805
0.0340910762860902 0.011183067914111644 -0.03241054091399585
0.03422406673570197 0.01063079419265554 -0.03252133213927891
0.03294459267365199 0.01822446958154452 -0.023187754518386602
0.03491257943035421 0.013347793709110411 -0.014294541652881257
0.037531217442427385 0.010293505410507685 -0.00986925886056677
0.012297279569655071 0.02424888803755621 0.008974728625263237
0.03293223984795891 0.018052253901762228 -0.024010072234238195
0.026412884187527914 0.02235802622174139 0.001973693252857439
0.010662822329380574 0.02459460176692195 -0.012993703038271805
0.03277699583438076 0.018799568277936007 -0.021638458528612146
0.03273491582914137 0.018781009007459715 -0.022077860348044088
0.035038249105227126 0.008054652051296136 -0.03466935534888955
0.0348641249709422 0.008573684358305156 -0.034602040673183766
0.033720959103864676 0.012321349766116253 -0.028301550283685164
0.03276430778022541 0.020808882246021815 -0.041131948122272964
0.03566372815687899 0.0034521708024897804 -0.033417073637918404
0.021235638868483384 0.023735432273198846 -0.04431087468983337
0.03536289131521945 0.01223271581547462 -0.0159266574723868
0.035350615263171584 0.012273481817487693 -0.015780958953235766
0.034369005069500816 0.01436015600486604 -0.01977560922475116
0.029319051110241353 0.02289878253069123 -0.042048622309826186
0.03240247394294514 0.02014128248851816 -0.036790190914627124
0.0330706844730218 0.013950237748775011 -0.02371515632878307
0.03502032496937194 0.015937957002456857 -0.016545643104853788
0.034876589459821805 0.0143749620266931 -0.015824931419486734
0.035132953796286025 0.013459082964554092 -0.0134963931453771
0.03747612075065018 0.00680720918436852 -0.011393294318947773
0.024184644724608597 0.023941506416483984 -0.04479867716529942
0.011347369230296393 0.024755099353988612 -0.021037194856662934
0.007097240933913356 0.024503464257926502 0.010407187381445972
0.035470292640519555 0.005921970170403361 -0.03208255808261855
0.01367625268797159 0.02426219625591647 0.004637858313721929
0.0095947654417284 0.02454239503142804 0.0052005578742109855
0.022263734793364187 0.02364541815960609 -0.0321930413330242
0.02219434277115124 0.02361751396467902 -0.03271738857792874
0.021719010817062723 0.023667676832677238 -0.03291591164490714
0.011076214465886285 0.024449424938716924 0.0010987660578551447
0.03359704551138383 0.013705895121954262 -0.02988089645785639
0.0264769928051144 0.02332905885835769 -0.050792298276099886
0.026778076314204445 0.023325669105269595 -0.05061485022733901
0.01456422850039191 0.02420414680669354 0.007425234112512898
0.033008038046622536 0.020313323803115773 -0.015605633537888734
0.03418678857713511 0.010482323734865373 -0.024072875193560463
0.033769884794493915 0.012194945459644427 -0.031619027855974605
0.03331984715648546 0.013192208098256327 -0.024800824334651663
0.009342233316597497 0.02454261930545974 0.007866316341142503
0.03437254322833413 0.00966050234208209 -0.03699083281038524
0.03636254809846526 0.010802295956750502 -0.011332415844660222
0.03502502125282144 0.006380966372964261 -0.02659312239813552
0.034757078215621524 0.007140013677772205 -0.026214136516976648
0.02284592687939828 0.023194599059540338 -0.00016974968449119158
0.018609173421329395 0.023861931221859346 0.004053517180684089
0.03458779541186792 0.016490899231656468 -0.01771283991498186
0.03577315995334575 0.003580307077771663 -0.033755089791197124
0.034432626786409855 -0.00020461641899938957 -0.018766771193619417
0.035638443430151545 0.011599627475639536 -0.013911676489052893
0.03591965481876448 0.01091720712511575 -0.014674466910347031
0.03598121537809401 0.004818664004690176 -0.036114413918641855
0.022649637145592122 0.02355573495473251 -0.03307906419616443
0.021823289195398485 0.02364944513471809 -0.03323727663304472
0.025574342948439476 0.023086916266631653 -0.03270702434369342
0.02564986891676697 0.023131738953142057 -0.031669568134043646
0.011628676699900344 0.024597810622220467 -0.01821279106625128
0.011756082988097617 0.02458332330266877 -0.018920553897938248
0.03430998215654246 0.010179941476165433 -0.022034487832093566
0.012670258654603646 0.02422021825659136 0.009015171738544292
0.022346883842027723 0.023517956334939725 -0.04913042889991374
0.023615586493324223 0.02339355032880632 -0.033770249697513896
0.023416153792277447 0.023466524717464857 -0.032989879182065085
0.02520878056990323 0.023519302645019585 -0.040014924989639586
0.025115831775768177 0.02353405419683754 -0.040003429355684295
0.03623848277468737 0.015838136048236397 -0.0117379778050689
0.03372033521079164 0.011465354704007294 -0.036513677017293945
0.03481444547975973 0.008527162354847923 -0.03667620891803465
0.0346941723422776 0.008851293769093136 -0.037006358919356434
0.02610209007596704 0.023153122632136383 -0.02471720558524641
0.014593021678805489 0.024430988079809014 -0.022609093906352438
0.030178621378554822 0.022941175701444185 -0.047154744142507976
0.03046743116480041 0.02288066727855645 -0.04762005439254946
0.027954081073882624 0.023185711417293132 -0.051633137459465836
0.028312231253522245 0.0231198173349524 -0.05170364715514449
0.025560238580386266 0.023303776413573604 -0.028800858653523605
0.025406509902687176 0.023370659460796236 -0.028719363877798568
0.02668376021598204 0.022825370204545052 -0.02902385850889747
0.008103580533420912 0.02447576069466536 0.005030532167097843
0.0327110489093384 0.01971566092049401 -0.037117293962979477
0.026983267664834575 0.02267076198196286 -0.030500214063045733
0.02218289371307046 0.02362135547233491 -0.03426478843784578
0.021431341580661335 0.02380618090176471 -0.03579158717344279
0.03685200703454678 0.008836567782673306 -0.011809573433829278
0.03532054803510159 0.0025329426728182805 -0.0326970101210493
0.035236124257563894 0.007101348851786341 -0.03174141596270491
0.027501066797249278 0.022325731402117174 -0.029750839281505778
0.030930250091532264 0.02128690256920911 -0.02135850708527036
0.031522438521506074 0.02154354032396353 -0.04198548453740313
0.03660629824318618 0.0076904198089994494 -0.04255509012962128
0.03651099339095745 0.007928860214229876 -0.04255675367293525
0.035274588865298155 0.015159448445498009 -0.014331944236269444
0.021762835136414548 0.023948009999104708 -0.05478657246492133
0.02299683240666297 0.02390111693956746 -0.05581771290487407
0.02250119632299526 0.023942106567692908 -0.05590722304170201
0.006096428375160251 0.02447476529665792 0.009846688129966846
0.022031322366607257 0.023674287412054646 -0.04832889594347755
0.03639079365339672 0.012888712481489257 -0.011097147757621436
0.03045320046382695 0.020954401353744826 -0.028932486775860786
0.011371003579248296 0.024413499416836064 0.0068816573163824135
0.024033461116083114 0.02334122193346047 -0.03520687096764125
0.024018082981185844 0.023304098741006876 -0.03455992209727791
0.030217161664238434 0.021184760508141123 -0.028204381339938602
0.03431593378162571 0.017897627287683546 -0.04125442023507175
0.03548466428212119 0.004931911553346134 -0.03165721136294382
0.03338586266197346 0.013128814030250926 -0.02698680425770198
0.023074100449257097 0.023569057988113873 -0.03563207247227444
0.03378890017013163 0.015528750548487395 -0.020810547870684572
0.034497604525032255 0.015326883245763383 -0.018632674296837588
0.034440407631018743 0.01542183843027056 -0.018745306682612515
0.016170161504845165 0.024021968152396392 0.004910903881206051
0.021150796459007016 0.02377704719276491 -0.0390504668508545
0.021219751338953385 0.02350750048043524 0.0009188270885680501
0.00988179024807107 0.024428603019912672 0.009578803812402226
0.02619669773937541 0.02315966495698909 -0.023861377333375122
0.02309977167138226 0.023674403547656285 -0.053468296778307584
0.03209937075503715 0.022302637185735556 -0.04643254570682534
0.015573137418912378 0.024069697476421077 0.004645285786805019
0.014649865213134806 0.02427730106592379 0.0026979547301035525
0.022377511327247745 0.02371989073739337 -0.03878541806591349
0.016338512089303522 0.02424636554650167 -0.02434687997358819
0.013230112980320952 0.024266791371003172 0.0033878264597147554
0.03570607153255429 0.004800475044782102 -0.0166090187183338
0.03567305216394914 0.0055660095923681235 -0.017147751691297602
0.03571235438191174 0.0045087199307999055 -0.01642256301906285
0.02701834491907989 0.022857253136303227 -0.03591675550063379
0.0313091648781796 0.022360521612020266 -0.045042935484760384
0.034933865704287755 0.020063941597678388 -0.0471879198712864
0.037887862413945664 0.004928185726406896 -0.04422090988341282
0.03768406888115533 0.005990297332878121 -0.04424939282087203
0.011312121925173934 0.024391131625510334 0.008204501398977321
0.021842319023037616 0.023853410104894647 -0.04145883072849692
0.021109933078287083 0.023770771674514607 -0.04081368527192175
0.01291011699729666 0.02434786423541333 0.0018017562114672893
0.02456932810041554 0.023685550425843638 -0.04816360643647054
0.024559491201353683 0.02367875698722702 -0.04821273117049575
0.01013625105078183 0.024458216359470854 0.0013734290525891206
0.03500969300763501 0.007771174735835159 -0.02835822262617725
0.03296058704183221 0.016379239746030803 -0.036096021715389295
0.0297760158961354 0.022840857766282016 -0.050369652426257544
0.02941656662510695 0.02297091499400929 -0.04944405151360012
0.03793819570488086 0.009964590081638336 -0.009454132206486106
0.03704341214996837 0.007345221891558193 -0.013267846988899322
0.026109324477793315 0.023474067570125445 -0.049495588614012404
0.006482362492482255 0.024490599700850088 0.01032414173774714
0.03491066843667253 0.0032865769916322145 -0.027648556890828305
0.03481703525899335 0.00267353778055663 -0.02724772026283033
0.03480269104006583 0.002327850684005694 -0.027678097964681715
0.02677553296573631 0.023336311377958545 -0.05172720650376725
0.02736841162291092 0.02328959660352779 -0.0517020524406912
0.03422560092229323 0.009720320090966204 -0.0233846038998761
0.018508335490597473 0.0239777029881725 -0.030604676087914135
0.019076429960768644 0.023979126121440535 -0.030240509483447503
0.0155011414446352 0.024291061748438945 -0.025463113054939854
0.015503515490882155 0.02413003709622618 0.0009271804478787599
0.010039198499527951 0.024478467143356365 0.004852273923852448
0.010941247169382844 0.02445890068232746 0.00729317293643705
0.014124582501006034 0.024328861925920327 0.0021912074296673288
0.023192522643525004 0.023937067788137107 -0.028645445871286424
0.021429757857883362 0.023666229636541948 -0.04820211012918512
0.033459230011162674 0.017332699462299275 -0.020505132163415526
0.03726439411887857 0.01008869709786909 -0.010203038280229315
0.035251794166246644 0.012487679951449601 -0.014312295387451879
0.02960005058978978 0.021483335603602913 0.0005004570821019572
0.014303113380378703 0.024298231989609745 0.0031971264287404613
0.009846563862319939 0.024450278325189752 0.004190026031721523
0.036708797735907565 0.007412757539488876 -0.015496386322010895
0.010187834431228828 0.02442135853416511 0.003334900386960573
0.02559297971092731 0.022635097632460452 -0.0006968743273240809
0.0250597183441091 0.022737297728725923 0.0010793552681822832
0.024513373110066714 0.023414739877949675 -0.037460118239510606
0.02598347955893885 0.023304784011521817 -0.03822131155886414
0.026612312309681845 0.023156805291548337 -0.03772867805887164
0.02655756896910586 0.023069121831424438 -0.03695641081198834
0.026551813558612986 0.022976453729421503 -0.03619880411910934
0.014646770040004637 0.02425461054313757 0.004067495005176067
0.025953106608264366 0.023653733415114387 -0.04246115792910465
0.025972004600918974 0.023505241305065698 -0.04138795692688194
0.026949082816991807 0.022296475435868664 -0.003233399531600337
0.03286404199386476 0.018269052878887096 -0.025922801779406864
0.02911248540637184 0.021597848585829936 0.00189257915563671
0.029156485799095643 0.02158988440713264 0.0019859915196113157
0.013687465137957319 0.024229550632717246 0.008073337786936405
0.03480307079042663 0.018517708262582647 -0.014841176051823163
0.03535362702251739 0.002640252273295531 -0.032762837942349535
0.02893873458754229 0.022701808423157006 -0.037349194177842396
0.021477741381362665 0.02344577947790446 0.0023575419991505326
0.029763746238459707 0.021591289259096806 -0.03155869872600522
0.03298763000405688 0.01505988380465761 -0.02308516608929926
0.03474996726885587 0.002474004444648054 -0.030086552658400434
0.031832657034497766 0.020029264079733433 -0.02480359591449809
0.03185277348318216 0.020004042892444 -0.024820969515020202
0.03384123845678291 0.017399090663441745 -0.018678489319585937
0.03342586587576733 0.0140552755906747 -0.03150075364906557
0.033409866791855 0.014116991872091693 -0.03170863931443178
0.03550282829131282 0.01726065313979937 -0.014035046586977473
0.023349124939695716 0.02383624939755085 -0.04120740707812617
0.010587623435591416 0.02437939893409355 0.009542558935604725
0.021819440896838016 0.023798612986985948 -0.030112671114869722
0.031245600636116727 0.02127424152719601 -0.035097649371301824
0.03586416332696625 0.01731156047333572 -0.0119473387319557
0.029851487209551872 0.02291869364303701 -0.04890673540635303
0.030497156157874933 0.022788356206327555 -0.04931677262648508
0.025123094460482286 0.02271682784600089 -0.004023978890721517
0.02429977914059819 0.023324966371195834 -0.051235417281071685
0.011531519452795666 0.024334427781861623 0.00880749022224283
0.036650371809374235 0.006532927139264273 -0.0413368287490759
0.03653356809310597 0.007113800256214835 -0.04167544513137394
0.03555429522192773 0.003515862540394479 -0.032917135435049455
0.008350609518753301 0.024526479786623596 0.007059070654116732
0.023538825837369347 0.023522785793095295 -0.025709121137588588
0.026325690863307657 0.023743659289353423 -0.04694214055993942
0.03614695783249781 0.011913195272586198 -0.011605171728197255
0.03050716629383761 0.02280305972567091 -0.04626543466433832
0.012304511493489727 0.024369602685362046 0.0019490921544027145
0.027744244327562687 0.02350007810175831 -0.044660756611961755
0.023371104062273967 0.023926705930632765 -0.04564107785469649
0.036284540766072404 0.015981251514298436 -0.011451088625249486
0.022356531394869122 0.023890831075788904 -0.0438686278240443
0.008898230854948952 0.024516720947424242 0.006239405587098493
0.029564868177576017 0.022713655204898257 -0.03825511980703279
0.03581012536461996 0.002699902098017881 -0.03438106414131106
0.025590442008048348 0.02353727883398012 -0.04116230964556139
0.02905792110908339 0.022844710443470424 -0.03932628623077562
0.035744669697454524 0.004312818033816499 -0.03364664995318573
0.034143482568119665 0.010828060212257585 -0.02326785128936928
0.020882511571797865 0.02387491831019089 -0.05412176868950586
0.020975243539724003 0.023916665528745728 -0.05442121556899583
0.03430132707396212 0.010368715660429764 -0.0391151739514754
0.024595319483685832 0.023909568328996926 -0.04406617713566388
0.0245214563940018 0.02392731895196225 -0.04439620808915272
0.02884925940979905 0.022805389111293154 -0.03781305303044315
0.024715036022410382 0.022822495294502546 0.0010838697764369765
0.0277408488285578 0.023429591750958895 -0.04836293511402298
0.02279723844480384 0.023905124452144294 -0.043009574079693705
0.02285441851527747 0.023887614957167735 -0.04272136473679868
0.02110396130928639 0.024019466700383702 -0.05633322671116198
0.021993961094300164 0.02398202400751235 -0.05596144626338706
0.03658590907336232 0.009560208860462448 -0.015163908407091035
0.028769292525368636 0.023049712780827368 -0.05076709700598052
0.033382435735552426 0.016043400171986733 -0.030830537932148367
0.0348789286820473 0.008343039892533741 -0.029235840361192277
0.03532650690164055 0.012734281925366814 -0.013232211386072936
0.025130261147091958 0.023786240546286936 -0.0425648437149382
0.024580975076205436 0.023753238449132567 -0.04180914348071269
0.022530003488707057 0.02325067922459303 -0.004059958029937973
0.02292712882251931 0.023179418471548786 -0.00432326030961377
0.03383852774418054 0.011516758142288764 -0.03440751717262555
0.03100503868020459 0.02092129183194664 -0.025388166045181824
0.031229013975538535 0.02074004345246146 -0.02467690975123582
0.010803751659196316 0.02440191946897379 0.009068020191991532
0.008287066355999212 0.02456254567260259 0.0021819568871082632
0.030457272688089943 0.021237784649166966 0.0008870158049533053
0.02655174426924935 0.022871770273813118 -0.03188648269545399
0.026349735886223337 0.02291425935347448 -0.032701038138554475
0.007642325346937359 0.024516883879065483 0.006241484349985452
0.02898696672518851 0.023066187125265966 -0.042775727709207366
0.028660981565597404 0.02319677133806412 -0.0433667676158702
0.029008645807617504 0.023055830924758304 -0.042715643134115765
0.026706518880979017 0.022313637300386643 0.0008903211224275811
0.03718126765975641 0.01376434378009414 -0.0095315125143586
0.03348723009530518 0.0208082917217706 -0.044363194711001384
0.026044403766425903 0.02335922885361898 -0.03917321884199701
0.02587872411301973 0.023398773086135197 -0.039559708348163344
0.026924894907321716 0.023265441970876318 -0.04023569878183484
0.02674292814617971 0.02328985073143621 -0.04015073042508488
0.032761449992551386 0.01585709392576659 -0.02377243287712018
0.00847811771889359 0.02448981577552853 0.008974054930837591
0.03255977270327526 0.02070279380131255 -0.03971105230071756
0.03304366452014442 0.015826272421162964 -0.02277382888939035
0.0331704488447149 0.016041904824007767 -0.02229003979333178
0.0294935772579372 0.02286595623010206 -0.04249252483166541
0.03508510894672563 0.007512480189803311 -0.02846079462621942
0.03433427738875154 0.010471642061478638 -0.02179194459440542
0.03349359804685924 0.015509290953923345 -0.029041295894196607
0.037283191734788806 0.0190688474383373 -0.008624764766456277
0.033946481544976446 0.018402454077493153 -0.016606048316184632
0.025099144104473215 0.023492269709546938 -0.03926418407499657
0.02451976428931129 0.023490113778497208 -0.0381999656948855
0.025133951200127125 0.02345575482727625 -0.03880680969684943
0.023750656997330616 0.02381129823485735 -0.04736139650819491
0.023941223478498714 0.023731847278526473 -0.047905667521038364
0.03447092857085044 0.017304814295396632 -0.017127278009067912
0.03333224242392871 0.014679600489198762 -0.03406760599353136
0.0230681245388249 0.02345744925652398 -0.051956983161837667
0.02898278315440933 0.023098294418750016 -0.021314010067866068
0.029153985892509608 0.023191770730958346 -0.04630651103050168
0.022947917316429912 0.023793925825750215 -0.03016041300785353
0.030173452429413182 0.022766729205137698 -0.04412083636954481
0.03346640551147424 0.016464223333167022 -0.03017922204309728
0.03266808663585197 0.019006283545571004 -0.02748501505998837
0.022606032951376732 0.023741151429583884 -0.04809816149648542
0.023644648120761138 0.023677251184727938 -0.04839703596806981
0.03490078248331959 0.0022539875173749947 -0.031336718071824525
0.03369218351667396 0.018337332765596334 -0.03920967162948742
0.024728021003263632 0.023270034226898995 -0.024558382601643215
0.024719594404165633 0.023327684223229797 -0.023523486210128553
0.008723521013588736 0.024553552628556977 0.007570097836012571
0.033201070487380406 0.016863588691429742 -0.022073709242207674
0.027102480081560434 0.023575631792254068 -0.04417340980414263
0.03464742619319369 0.009778048713353726 -0.03983640811092814
0.03547774984107738 0.011967714501171737 -0.015531465488829967
0.026710544267482775 0.02371525884670813 -0.045508924588005865
0.02627158134050631 0.023782630585972037 -0.04555455446554119
0.028267345585887338 0.02334494569841116 -0.044083121383850274
0.028789938796637778 0.023240754622045248 -0.04452885378913881
0.034955147728639814 0.013360969154471816 -0.017069152775014876
0.03161329719703445 0.020231871788518166 -0.02847847094123209
0.03093624239968909 0.020895869197228436 -0.026850204187117494
0.012796528449954462 0.02430891165202387 0.0030411170854660443
0.031373757034115005 0.02049079489767917 -0.026162620856932915
0.03158074322703143 0.02029491608888025 -0.026329597123030967
0.02640887496064383 0.023333410829309405 -0.0511163275779986
0.011320652089588969 0.024415466471739963 0.0017402624728613128
0.011026561390579118 0.024433674663899396 0.0064285974248221535
0.011162464245643607 0.024428409699165224 0.005900217256709862
0.03302675942759618 0.01770555633525186 -0.03247134939837638
0.03421726720042472 -0.00028063209094758405 -0.02166947865999858
0.01605962808470699 0.024316779873418785 -0.02893859990684114
0.033492565337441216 0.01639612701058636 -0.02922356859099054
0.030486233208374625 0.021192908506596976 0.0031970440341416947
0.03549626125558117 0.006745829806795744 -0.036533784431727986
0.02501822822154758 0.023354808033040027 -0.05047068311650192
0.03295815100148285 0.017792047841534032 -0.026478662483521143
0.02698020496416374 0.022261720333629477 0.0001074049222483761
0.027502085203594148 0.02214047803629402 -0.000881953512501677
0.030253010855812418 0.02269335271593927 -0.05107226916154265
0.03039123759707951 0.022579586595527647 -0.05257071533433377
0.0353407469460167 0.00529371669568407 -0.018095718262762177
0.03542928883771826 0.0036691548620031225 -0.01679451159879649
0.035346507968810253 0.0039444973852401375 -0.017245558380722892
0.03526274549704645 0.007359909926061473 -0.0358937331988082
0.026856840095150273 0.023453179688113772 -0.04932401004561085
0.027482672156196 0.023442860901307025 -0.04855703757675051
0.02516128030131227 0.023132477319709896 -0.03309171229861692
0.024161007840182807 0.02335043314915701 -0.03255509723557559
0.03699878292300567 0.010978696895260891 -0.010392541764676948
0.02601252696474075 0.023026649291786168 -0.03180036825857188
0.023618259780949377 0.023891898486070137 -0.02835830880122202
0.023466544733789483 0.023782527313449188 -0.05459330885612085
0.022751970532338968 0.023840994230473568 -0.05447888454557839
0.032324381120464596 0.019403848350377496 -0.025406358383011175
0.032918582189368266 0.018600164646822525 -0.035325272805534116
0.01177802527975421 0.024383779092340012 0.005549526985687632
0.034043009501783 0.0145652197966006 -0.02066011300706185
0.025279018003136672 0.02307341475284769 -0.0348589408001629
0.02506188287315791 0.023081915500499928 -0.034536131444214656
0.025822250503739277 0.023040350026326862 -0.03553998825962671
0.02753641435244629 0.022069687002046458 -0.0024856653108383596
0.025912504985861184 0.02312067324131859 -0.029730800108054622
0.02498421293220523 0.023429213774179246 -0.02970437165748985
0.021825240744123113 0.023621030896077064 -0.051415887206809695
0.03356115753012689 0.013093175346493903 -0.03460001798656257
0.023562743492719026 0.023383377569237238 -0.03431569627202652
0.028382269942697394 0.02332274505903101 -0.04769271886798687
0.028104371760981676 0.023377980694830696 -0.0478517390970921
0.027038818224876658 0.023506485932632385 -0.04852505853596016
0.03203269107448917 0.02058454253870399 -0.03643452337681641
0.030629044320574884 0.02283902629916709 -0.047963059448170114
0.029125963690621523 0.023183296436549497 -0.045140208433588194
0.02949999327971565 0.023070354479322822 -0.04469393499707962
0.022152176936186648 0.0233498003927227 0.00035946923274388163
0.03344186227080547 0.018149341429040823 -0.019013498674212915
0.03755444298478699 0.009679469091597828 -0.009967135278515579
0.024909071884146858 0.023489430623750446 -0.05353501073825881
0.03185396991176552 0.020648108997886754 -0.03538782296094067
0.024639840580985877 0.023325984343530507 -0.05136542697277824
0.03318457593470295 0.020892881781631182 -0.0439219145021559
0.033170181663919926 0.017848801221244354 -0.02863159937848325
0.029806291968639344 0.02300111430854169 -0.04541962994025592
0.029038872413864304 0.022953058889043733 -0.05152374957270688
0.02978714287421262 0.02282398291483066 -0.05067257710700699
0.0339787782070427 0.010592926749596523 -0.036228110624890064
0.031279837524095154 0.02232787386048168 -0.05255407081999125
0.03031758378969557 0.022578954544943592 -0.0528444504073665
0.031591268183041 0.022209871703222847 -0.05290471559188621
0.024769926866592535 0.023288616958487413 -0.03638206262584136
0.02462377621054565 0.023313964380560027 -0.03637386915262186
0.02438017703706663 0.023376788215874966 -0.036688144333544066
0.02110770638107112 0.023738797744068854 -0.04556502646199736
0.0377524309994103 0.004440429329609403 -0.04316358183344293
0.03756082989055115 0.005184723119375285 -0.042932051494430586
0.034247821668744495 -7.577220482433378e-05 -0.02063127684707199
0.031015917503191808 0.022208523678856496 -0.04363215709196964
0.030322631252037893 0.022439014112411056 -0.04174122983337002
0.024738395191856256 0.02334396032068256 -0.050422613398710285
0.01779599214451548 0.023859674964260315 0.005279948524048877
0.033667006054952334 0.012527734051688229 -0.03814854784987453
0.02819117625534242 0.02288151750460386 -0.023481207752908958
0.036011074665793036 0.002694466675330257 -0.03514229532739406
0.029032474332993663 0.022673311345428323 -0.02310170509120711
0.02815617061377594 0.022443637899395914 -0.027503091906475947
0.027546113466078527 0.022702422087892856 -0.027314667689719102
0.031538812008933395 0.020562140557101136 -0.020948441880286342
0.03154171290903219 0.020681081979988 -0.020114119241063474
0.03656690467145873 0.013172181647729764 -0.010788480439227477
0.03698277098540649 0.013104269969925388 -0.010030978416025202
0.028385058073406487 0.023031026043377267 -0.02244206535500878
0.029765868558449437 0.02213814449566684 -0.023925443775225062
0.031417674349195526 0.020633657148716088 -0.021482849907041007
0.03288641630331529 0.016672421868656546 -0.02374247136141381
0.03075234671943116 0.02138400913844246 -0.022910423135046605
0.03465762269562809 0.011930518181305406 -0.020080519822719106
0.034525214397929556 0.01143824153423757 -0.020658805332804495
0.031049747040097338 0.020970904799305835 -0.023487491251326605
0.015089162263970134 0.02419299928841295 0.0026183041989951425
0.02741952972133464 0.02324382000280176 -0.02218786216793263
0.03411747119396261 0.01609361936962676 -0.03874946317996741
0.028319284573191588 0.021907300176287812 -0.029464174603438215
0.03248466238121275 0.019321890876779338 -0.027706395438696803
0.03294020184481062 0.018416359402944633 -0.02779346960441435
0.023876476083132765 0.02355834191229516 -0.038059481509168346
0.02361890177632758 0.02358473860375771 -0.03816083641713665
0.026063075422926494 0.023157288269912528 -0.024104409369980883
0.02804379544754651 0.022293323610408276 -0.03137370998121693
0.02815296158808075 0.022240905334240058 -0.03139870460486449
0.03301155651539456 0.01837634644092077 -0.02915518729145655
0.028525321555531336 0.021957392820308504 -0.030989132301543692
0.030990252740466715 0.02069052804852832 -0.029955780406234693
0.02022253615887855 0.023785252290747034 -0.03209028259296186
0.033470962061005805 0.0175460411259929 -0.020083346968009924
0.03008346656021526 0.021381066584013505 -0.03124572994347008
0.020970879618091395 0.023721326119272947 -0.032870733627643776
0.019480121417885608 0.02387179919754338 -0.03199412803641507
0.03330374846134354 0.017780422325614526 -0.020628491379334125
0.0320621860688296 0.019983670688402604 -0.03050615940344734
0.02980913844841252 0.02192453541011445 -0.03313307287006643
0.027039358516826976 0.023049484312832148 -0.023840063091205337
0.03163300022949045 0.02074202748160538 -0.032969235626130564
0.03083294105832128 0.02150184612172715 -0.03418929444552015
0.031837215437774256 0.020526518646464202 -0.03330146831003978
0.021063149710232855 0.023747763556621008 -0.03500525358841758
0.03433824466053404 0.019941764796129312 -0.014224894480142865
0.032304317093804394 0.019958811853210433 -0.032988768691650384
0.01772395547988474 0.024096707107504785 -0.03020533965998828
0.035844764094085727 0.016385090906629995 -0.01331764011239727
0.00947155849364067 0.024517182856458743 0.007024306416338903
0.03227053078473891 0.019986724860277045 -0.034212797262646755
0.03513003068328766 0.015701762718602203 -0.015625856806180238
0.028159164139906646 0.021886031299365546 -0.002724599552438696
0.028086803075516857 0.02194777711763528 -0.0033569680759436863
0.019198309519640574 0.023893606660890757 -0.03190414955503933
0.031146951718929186 0.021638859115073263 -0.037991865600231614
0.029625740516759397 0.022122417772995825 -0.033936828075455505
0.030842870530979814 0.021909898619556743 -0.0380827022339915
0.03313963915190031 0.01936384841588609 -0.038321874210301636
0.03110588302072039 0.021458038962299884 -0.03596576588445281
0.027702633025116483 0.022206072369837376 -0.02929043238909102
0.01452835131244446 0.024207725907321245 0.006780140289776112
0.021550795889339024 0.02342861847493828 -0.0032741675975913884
0.020940303604182996 0.02352848334170316 -0.0025626195901485554
0.016812332169990778 0.024052969950477187 0.004706317629496794
0.03480906296411994 0.004236740135401024 -0.01948040180039417
0.030887391392099943 0.021580761845581643 -0.03575929430210692
0.03184372795833694 0.02060977700771912 -0.034932842536253596
0.03213507010012755 0.02032751743205419 -0.03543683076713145
0.03420530619201727 0.01442653629075439 -0.020307215224678606
0.014667745031705263 0.02437153608657084 -0.02707436412084293
0.014857083722939542 0.024359480918301656 -0.027530090089165953
0.031092320914808822 0.021882317544597026 -0.041111644727149114
0.030352386459041487 0.02126524181480987 -0.027234686635120905
0.03227333333295286 0.021177950169353615 -0.04197104504196261
0.029136267410165048 0.021949328270510545 -0.02757661419927274
0.028694120082143663 0.022304904027696516 -0.03273029481588653
0.03493475594317105 0.008204498182119983 -0.03610868459677468
0.02051313991129536 0.023794766673116398 -0.03899719182590167
0.03288547742079875 0.018334218600124942 -0.02660189177770661
0.030771052639730147 0.022197013043219894 -0.04238563566532445
0.03176622534594996 0.021425177900313057 -0.042594274701796206
0.03309578172010347 0.020795271342893506 -0.04265077617582961
0.03389698332468526 0.020281184994781692 -0.04335517249809011
0.032954642757613 0.016414561842471736 -0.0360458923968089
0.028271529080038077 0.023220258895289204 -0.021724535735588316
0.03598216229798007 0.01346481509536698 -0.011819759060681407
0.03493378504806504 0.01337878540899372 -0.014808897182478076
0.013271946246301167 0.024492732946819622 -0.022263099354453503
0.01354160383678388 0.024481034272464 -0.021890366460705503
0.03376346693385325 0.020642801337365416 -0.04442593507186291
0.03361765238433124 0.012305149377026838 -0.03919321294929934
0.03614484318522417 0.002515433265749515 -0.0358005409261516
0.031992070082232975 0.021742182510318172 -0.04440156977755172
0.03162734628555708 0.02215494406640752 -0.04483205128182769
0.034345147775941325 0.020221248682606843 -0.04498392315332406
0.034070285055992106 0.020567588224468095 -0.045130905783728574
0.032758671011926165 0.016648132844409122 -0.025742822615336322
0.03316553109168912 0.018038794001455458 -0.029245707700906703
0.030287820261690503 0.02125179761898732 -0.02763172916700239
0.03333965699790562 0.017377884403183774 -0.03067639431400313
0.03136424416434362 0.020430516498218716 -0.029635029555496493
0.0260476357423427 0.02373061561738008 -0.04759179657756801
0.03268205788239922 0.020377525520029173 -0.01634150548268588
0.033370032134344405 0.013077410297675833 -0.02542105929075819
0.03306866784736832 0.017089150108320093 -0.03312324890609044
0.03115439669889254 0.021890839641204696 -0.042669721616869154
0.03245157473569214 0.022233615200840325 -0.04677831792235217
0.020896971389795002 0.023747700211554423 -0.03660865273612997
0.038395424863507555 0.0038772762221393085 -0.04575421147198838
0.020705884371607874 0.023759285531828114 -0.03594728719617699
0.034021897119153904 0.011817951751718405 -0.02268021920355292
0.037408024687301145 0.005792475045697684 -0.04305423040793813
0.033089819682020495 0.016603175300445465 -0.027782712711298105
0.038030733207535077 0.005839192627323629 -0.04523951221885101
0.021467952371651042 0.023809244061385588 -0.04190702479169245
0.033179884518380054 0.015367687818568817 -0.03499515806397847
0.03311495669599478 0.016101574975274924 -0.03501236084768129
0.038014440990258115 0.005215079089772825 -0.044868054331387235
0.03350922797894628 0.012762117304225993 -0.040715477953011565
0.02450637291734155 0.023451546160393404 -0.05296070273547046
0.03491246984926439 0.02041218242971136 -0.04957527563201986
0.019917152152887564 0.02381965614823448 -0.035229267279703824
0.031024692719461674 0.02273305744861072 -0.047376623542251584
0.032820953813297214 0.01850756716664111 -0.024226763135469395
0.019827751647341296 0.023857001278146862 -0.03431430156444476
0.024080685126393248 0.023766484866570153 -0.027560559134618648
0.03257126030968921 0.02222771247481559 -0.049426802917885045
0.032580981718737155 0.022219478675223833 -0.04950477506239803
0.011087203577955906 0.02444853643015688 0.005073731440483363
0.015986120120459767 0.02438287757237145 -0.031602313117794656
0.01709011764941652 0.024183330943789532 -0.030712883554255693
0.019101228156326623 0.023923913641766714 -0.034493723879845416
0.03311976913912492 0.017638973052194033 -0.028158064875126843
0.035307213702032256 0.008038984083940395 -0.03911672056595287
0.030303082890408485 0.02104966796277882 -0.029883223274160958
0.03324722109855794 0.014817251626341786 -0.03601316645517828
0.02086722187251357 0.023737515512002705 -0.04667004264751365
0.03394017198954385 0.010740839986761709 -0.036776910572996806
0.034998132043572265 0.007999052567899904 -0.03080793598601707
0.035080271387909714 0.007699775148524301 -0.030345776697711806
0.020543199062338306 0.023714459153477856 -0.04881581570349511
0.03471106383006432 0.01805104022544682 -0.043974627417702104
0.03179759817577988 0.02039199395841958 -0.031466726076209366
0.03166335993545902 0.020274440047908564 -0.030224547199371437
0.03036382155754395 0.02184657656636916 -0.03498734265504924
0.03612953296021436 0.0036897049338747777 -0.036073768897193215
0.02719728557551355 0.022980293186630252 -0.024493358149639145
0.010126997726097209 0.02446176102540667 -0.00013370032058914746
0.009326997258167515 0.024506070339903093 -0.0004052151817886731
0.02730322997510223 0.023039476988757274 -0.023563829384160958
0.023918511791789027 0.022938182302189934 -0.00147023624342672
0.009414871496848389 0.024524289960530493 0.0006255117906795065
0.009341420686909241 0.024546979318529186 0.0008992253726509583
0.03251376897587548 0.01938142085475824 -0.029873138181712368
0.03486534675178586 0.020456342346165432 -0.04948362042709455
0.02095367087363043 0.023750490412498704 -0.041128540234706516
0.029732473595649043 0.02258618177648968 -0.021625818338658336
0.029743679925118668 0.022421424876947666 -0.022506484475497617
0.03487160337206126 0.0032348758727395303 -0.02961711174282177
0.034349456754573335 0.01557140991005153 -0.0397710642902142
0.02226341552370103 0.023314205991946974 0.0006669838071328973
0.03350005911334964 0.013145975922570824 -0.035280024890572435
0.03357236320661917 0.012135060807034324 -0.0355372878278775
0.03443052762849125 0.01887176302128057 -0.04329757834696583
0.036168946785966646 0.009351879909813737 -0.04273560507279803
0.03680222142083217 0.008360558279405978 -0.04358014429668274
0.03345597315686617 0.013839983536654912 -0.033511218201116307
0.02343171262080096 0.023109898638749415 0.0005372922106439958
0.03254706576100337 0.019152303319801913 -0.022071798264626807
0.03201802929989181 0.01980563786067245 -0.02221508074151055
0.035015080584666965 0.003557753721006628 -0.030296057597130943
0.034128542387816846 0.014912728779804289 -0.039581840596537285
0.03598096868256268 0.0053533529607758925 -0.037268805088076895
0.0371610295788168 0.006375784203326974 -0.042852139246242996
0.03544274994175886 0.011079154531511327 -0.01816264750403247
0.03433391064456887 0.016894615971664494 -0.041714597302151844
0.03299383799474285 0.017064548086645363 -0.02316270691329861
0.03483465878970078 0.017758768214184907 -0.015632034414801207
0.03297629779402751 0.01691310580523036 -0.027316198980346214
0.028776898664217194 0.021784684702618344 -0.0010277316758166921
0.020568176080432682 0.023769474376397693 -0.042295634245784815
0.03318607619442593 0.018018682149841963 -0.03094189712396647
0.032299000894422523 0.02234362465163082 -0.047547312013819426
0.030738522970515516 0.021173392874194886 -0.031820363284331854
0.024092364546945966 0.022956557944197674 0.0012588371066934328
0.03570121363838795 0.011368431886679894 -0.016138118261066526
0.033018475123966363 0.01856410624301239 -0.03067765590560321
0.021009874157592597 0.02374317455859465 -0.038176097844765416
0.03699181460329466 0.006596018820402452 -0.0425317216715759
0.020797157370417253 0.02371577896865456 -0.03719953290114038
0.012326229183013895 0.024712709831492135 -0.024397291723640416
0.01219310467152084 0.024732071465566524 -0.024555261709958982
0.013135665245020843 0.024557223776568604 -0.02471405350301955
0.032894298775793 0.01827223028197918 -0.033661430818840564
0.033456240392592845 0.021569087544310396 -0.04625857463768421
0.030261563982321615 0.021670252510695036 -0.025026698613967384
0.03298724148665679 0.021663774628297723 -0.045511962247516635
0.021144132099873945 0.02388500310387362 -0.054040640428491514
0.020927398067345265 0.023854436396360056 -0.05380533414739527
0.029006231302191515 0.02170725512104016 -0.028688442351315506
0.033731072040692985 0.019849656298662633 -0.0415869577099398
0.03303510546742021 0.01762774039401581 -0.027208263265587423
0.03308598343726961 0.01617850304069659 -0.03519931271432173
0.03156536652022618 0.021029391611331584 -0.035806653439200115
0.012888635666401325 0.0246172348865693 -0.02353788034662105
0.018508380414548314 0.024052391698971668 -0.03658336168558007
0.019237690735123412 0.023946227032913107 -0.03672109348393944
0.033122027692057895 0.015564618586934299 -0.035606248015361115
0.037421155725106146 0.0036202107216047356 -0.041227834703057284
0.036187867426393544 0.003270807190957669 -0.036269913438470726
0.027039340030194266 0.02362431201129727 -0.04476873309615893
0.03701707027263672 0.004829100522596082 -0.04078754967701667
0.033732117956204795 0.021585440651550488 -0.051093882441319585
0.03332261203687713 0.01361504524281648 -0.023261832571115294
0.030731360521643564 0.021247855122202428 -0.024585398780344776
0.030412803764382525 0.0215674764332298 -0.024442162393786958
0.0290984213220573 0.022143992131245745 -0.032691268374086424
0.03325686379154192 0.014794217300050786 -0.03610255036550522
0.03405449265822279 0.010505564061608061 -0.03502902035841176
0.032720421273745186 0.018987941916238288 -0.021262475304461126
0.032519891766577914 0.01938036712649764 -0.020429453669537002
0.037218819482071015 0.0140891939333704 -0.009399461768537874
0.03679273668823924 0.003984624214637992 -0.03897094257355313
0.03659701510996151 0.004144367011972187 -0.03839548646766777
0.03050157084234015 0.021673237334395818 -0.023223958320517248
0.0368029887267134 0.009047587454621475 -0.013007993005397352
0.02583963902311237 0.0234465413280443 -0.053468174051524577
0.029885844210780832 0.02234065427557081 -0.037047247214441206
0.022688417382779408 0.023182178570694226 -0.0030748873428109594
0.022093461821351957 0.023324652020005738 -0.003411471714925929
0.03352185630960565 0.021795749622873502 -0.04858497703517421
0.032990174174535786 0.02209746273727749 -0.04844121899423427
0.031884285852225344 0.020862065129100858 -0.03690522775424737
0.02104534412914886 0.023707362414957345 -0.03244436653056837
0.033007204628298245 0.017806225307820327 -0.03503134289405847
0.03136739287152849 0.02158077009228679 -0.03894202088237056
0.03662352312516684 0.006192039413262592 -0.04079532082456107
0.007447154916673339 0.024493121194914667 0.008870260937312378
0.03265470595862178 0.019168016673129097 -0.02970860983523748
0.03098501317583817 0.020690324108399955 -0.029128138169647766
0.011013868716482272 0.024598150696319217 -0.013787961857698776
0.03214567973133607 0.02085022133424204 -0.03849467186436245
0.03631082895871528 0.0038666540812187277 -0.03705160228566337
