-0.010928775474703875 0.018380286084947066 0.06276308521862484
0.005143881317693953 0.02002384374563593 0.06749087738491671
0.007485605953144731 0.016246122286438198 0.06899140095808293
-0.015674056857945852 0.014873304348843402 0.06584884315715388
0.001390482988357117 0.012998709194215328 0.07665474476441686
-0.011243531114162281 0.018170166434711914 0.0641014289608285
-0.015824525650875207 0.014585373801834296 0.06513596135422162
-0.01495984595972654 0.014930323994745174 0.06044070173905081
-0.013300756185880908 0.016734174505015638 0.06217522719260572
-0.015480432388722465 0.013808902177933024 0.060198682368989065
-0.01561308540697818 0.013570456704354786 0.05967456883350844
0.006156589967791423 0.020097250793211147 0.06746609188845439
-0.012512124264202618 0.017444288663116047 0.06336338667983077
0.007610774247861534 0.009703518062142813 0.0745390949995983
-0.01450637343415833 0.0159971866359427 0.0656543645667646
-0.015269020657603211 0.014079679194845204 0.05989693066230434
-0.01594059426635254 0.014189121120875278 0.06426540723026658
-0.014321860038495601 0.016171146206280414 0.06527855442179692
0.0013592777725505904 0.0219686723528122 0.05400483831997079
-0.015508471835615897 0.01401535557777852 0.059302371824860534
-0.015480938454335444 0.014137462167326762 0.0583502654775155
-0.01568507098807915 0.013977479413463893 0.0628461191248797
-0.014990813633566278 0.014591359487643528 0.05805089195312266
-0.013936738869336733 0.016383026083453375 0.06328893224112626
-0.013255374578286872 0.017032033627860977 0.06405241556104768
-0.01557427366335552 0.013908794518128851 0.05929334435910097
-0.009453191146618058 0.019173868239839815 0.06285076869063501
-0.012564813940479992 0.01757744628055212 0.06446010107372971
-0.014904307276809492 0.015109387721716553 0.06112430077250008
-0.014886756950182664 0.015044159258602401 0.061474483876445475
-0.015959917473874544 0.013478117533093512 0.06059905719005095
-0.012008262128772842 0.018032443695655938 0.06577520618402036
-0.015167904993233507 0.014509753575684797 0.0593983516701488
-0.014129916920051359 0.016288893859197927 0.06394596089362922
-0.016433998192819443 0.012708863426419368 0.057757728954820856
-0.015891859824775707 0.013579269249719013 0.05870312348741044
-0.0161974792558304 0.013081007289443931 0.05980823948638269
-0.0059213079859524 0.014319384221797953 0.0707996524391239
-0.004784679073393334 0.01447309693328333 0.071150284306995
-0.0037379402366327164 0.015131010053208523 0.07009683472685303
-0.00443185664667871 0.01473107888817385 0.0706124490520099
-0.004000990837574701 0.014928516076008962 0.07033288392826172
-0.002662143377982289 0.014963930000706874 0.07067034042555721
-0.002916914796665579 0.015029898377400801 0.07041107753218233
-0.001346596524598077 0.01246425931396832 0.0760341637309163
-0.0008363415079779334 0.012090197396303504 0.0748502404732807
-0.01587123706457675 0.01399043634034805 0.05507891197378356
-0.015154932775127371 0.014751705047216413 0.05505921516108972
0.008325768461806817 0.01972746995808092 0.06697513726373018
0.00350830303098961 0.020446296485928998 0.05837662131078024
-0.015833276217177165 0.0025636609233092283 0.07108947250480538
-0.004317253172786962 0.021206787780840022 0.06309607403142434
-0.015410884353257524 0.013646815552988776 0.05722065719895508
-0.013578573216840528 0.01645033477786748 0.05539224364172437
0.00681616795317511 0.010616816624586484 0.07405067005860268
-0.012964278544099395 0.016941929511560753 0.055664379212100386
0.004456381654873519 0.019615696154113717 0.0682419271268316
-0.01432676202451702 0.015550962126080068 0.058683643024733396
-0.0011250284178302551 0.02155303059478505 0.06029858302821756
-0.004321885992590485 0.02158276967239673 0.06441918931871154
-0.014155104672764717 0.015545309957189408 0.05805002110587079
-0.012855200331137899 0.016571376700425994 0.05618641273230213
-0.014001048894630039 0.015644325140343886 0.05794162515781612
0.0019799752228493424 0.01804479048006237 0.06924862080833984
-0.011279458999898085 0.01796731936076277 0.06136268952924662
-0.012347541235469661 0.01679396101948367 0.05743664358586934
-0.01138725541299452 0.01748509029767948 0.05650080399445932
-0.008533726219195698 0.019815971353242534 0.0631528779602155
-0.011147727734687215 0.01753441509436254 0.05701590233062284
-0.013281418489080276 0.01691217080330698 0.06128242013241257
-0.012626505866976535 0.017093918981025084 0.06194173572000458
-0.012599485315631003 0.01637033439233885 0.05684432789927061
0.008285263068194108 0.018570863501756796 0.06740125929748562
-0.007830193526117534 0.02005358300538885 0.06113194387528771
-0.012613735095218523 0.01703279851881502 0.05835643045107913
-0.008577500192588159 0.019571081489648763 0.06267610206904792
-0.009185396700982423 0.01892429295927227 0.059154508159559284
-0.01338337453803608 0.016825688230588033 0.06146740623750883
-0.008120480426908317 0.019967058408477456 0.06247821127498274
-0.0035718054861337833 0.021781134492837882 0.06494225291859955
-0.008528753934893793 0.019496990018563518 0.060716300203497456
-0.01409583203778101 0.016213845398462164 0.06135031695589131
-0.012705476352180702 0.017215861900735242 0.061102494294291966
0.005916345260519567 0.013082924395089249 0.07179131408813318
-0.008860170536498074 0.019169559041770125 0.05840570222978382
-0.01043964934806495 0.017982457517643574 0.05767254322289063
-0.009468738178305267 0.01890399888840684 0.061487025505311634
0.008871728163531843 0.01331608197274653 0.07015302142472285
-0.010140289611254634 0.018159016531364598 0.05805423790338403
-0.00874533811779557 0.019257224520697506 0.05943762050068338
-0.008353099635953404 0.019426254562364034 0.05795317862463671
-0.013125992343940041 0.016471160317262822 0.058082305119692486
0.004342146559229824 0.017718838400248137 0.06918733561109847
-0.008688193441682906 0.019344954672200494 0.06042559404031761
-0.00993329158127547 0.01838805044462847 0.060491128872976495
-0.009079920184119617 0.019008934989227844 0.05937773501397707
-0.010927195635993904 0.018176579266871953 0.06150865801838508
-0.009884657709941808 0.018352999687581927 0.05942111761004978
-0.00893224640684379 0.019198002885952425 0.06108963332490845
-0.008761738082180299 0.01930132051861585 0.06067109868176723
-0.014651346306440329 0.015084058349409967 0.05830223915414111
-0.008723973662618251 0.019364910594581865 0.061081869001315924
0.0036043456603232853 0.011796006373929009 0.07546496482780446
-0.01028216022444504 0.018087007968459256 0.05953356143699458
-0.010879267411069454 0.017791887921508476 0.059436001487950904
-0.010569237562325225 0.01810595215262563 0.06050633046335901
-0.00831853729071447 0.019389945517792904 0.057758681151579866
-0.009670794108488964 0.018576307986466666 0.06036778506424135
-0.011791338817936588 0.017727898954330537 0.061421580504701416
-0.013249365869116934 0.015921282564899837 0.05716609124606567
-0.012196653949918437 0.017490678545468423 0.061044399048750565
-0.003996808249309135 0.02041856317423907 0.057151053739185845
0.007305468640461156 0.020612959031280187 0.06640643184211659
0.000952558452301795 0.01962796997773984 0.06817249834294503
0.00841044132506718 0.014479106974620785 0.06947398237884475
0.007345235671764854 0.017704311986386667 0.06840068944213634
0.010329632792339009 0.015733177233435893 0.0682477771516142
0.00994429960277064 0.01519901078057425 0.0686644906016899
7.412400072824781e-05 0.014618893782765553 0.0711588539362318
0.009798507576164028 0.016138576592881333 0.06815862009719201
0.003934125311351635 0.0214561146981283 0.06572301854333103
0.008223414615745567 0.016701692583769703 0.06860648018426715
-0.01686517413889456 0.011758894838139609 0.0561473939880813
0.007837468963220386 0.012048372137785358 0.07184423492589063
0.004203546423757724 0.017796585702401283 0.06920922215251597
0.009145904541553241 0.01663875736086555 0.06815100045639497
0.001664117399155986 0.0215687292491471 0.06662525879711104
0.007696097075103041 0.014553901091239222 0.06959790735520165
0.002789476988989999 0.01809601276173422 0.06919958444678437
0.0013218925062236846 0.014151184691936498 0.07160858073495896
0.0059626550001603915 0.01248774082953397 0.07266441899313192
0.009532443894586623 0.015370639920705352 0.06862583989822107
-0.004381534150801545 0.02098235366540996 0.062320581797121785
-0.011220968405340346 0.01837245822178199 0.055302704997818655
-0.010709597044315579 0.01789214217707938 0.056921668463447726
-0.01809951177932291 0.006148222048377256 0.06840107079821012
0.008763234213040299 0.016339973934686322 0.06848515191264136
-0.010111020931821918 0.018661223866294298 0.05568028324286381
-0.009892533690182155 0.0189711324022727 0.0554533309289633
-0.009772779316634825 0.01901837445878022 0.05570352218511011
-0.006626845814383626 0.019973610709566634 0.05651558690813295
-0.006766274650407236 0.02006996456961169 0.05588973119008571
-0.006986488612196836 0.020369815490164745 0.05465666942390156
-0.008914293563551723 0.019748807896536907 0.054903396755549644
-0.009690458645542622 0.0187761179310165 0.05649783123480452
-0.0089262014717854 0.019481341514226917 0.05560731298858153
0.012799651444319817 0.013893655251296908 0.06829469068843287
0.0044989426847805505 0.012338418356274583 0.07319314506128996
-0.009582812817907372 0.018970076538419596 0.05634207994481048
-0.008549022229422842 0.019869078678772918 0.05494219596010645
-0.007432008027312938 0.01961396451528335 0.05651223836958876
-0.007276454761655957 0.019689058718964113 0.05721160959192105
-0.006940396496345659 0.019797397720823066 0.05703089333978346
-0.009281419966871209 0.01953659742354663 0.054964807722769696
0.0017697398413546344 0.013255163918394965 0.07934771322016798
-0.00953360884104537 0.019332840734464184 0.05518812779154361
-0.009852509998387136 0.01874874399803088 0.05629958078069111
-0.00928377012020995 0.01934299176528461 0.05556154159937478
-0.0069436615219358195 0.019793763141899897 0.05668005814114248
-0.0108052404783344 0.017978926822230408 0.05632871798094563
-0.0017119949088152905 0.02146725692362931 0.05975563535585891
0.003127219180242818 0.02147895821270321 0.0654569677639054
-0.005336139555206191 0.020366808618100935 0.05540338807938523
-0.008081720702890476 0.019499144497766404 0.056319320622408686
0.011023316263914729 0.01472517062441792 0.0687417154292103
-0.011226035112202598 0.01759428629203181 0.057432650628612386
-0.011268644957161207 0.017683285311085067 0.05880884085569351
-0.012178825909638091 0.0172204503457074 0.05803143787406438
-0.011990628228520237 0.01747194379857579 0.05983769646567842
-0.011550214231183832 0.01770744971730224 0.06054468424331115
0.004937401724666718 0.02106611353540304 0.06661752089168312
-0.011263324512063574 0.017682818753333055 0.05907777222345283
0.00714090243494157 0.01900264146597345 0.0677404867419203
-0.012630803917492557 0.017162119971108263 0.05898763829427039
-0.01199343676055432 0.017552490031056786 0.06077818293692738
0.0021536376546604447 0.020562197974975938 0.05672304652954105
-0.013509722345032636 0.016557811708022403 0.05952326888610061
-0.01250318396935814 0.01722343771276935 0.06043390625153373
-0.013895738711735 0.01624001425095 0.05945013933173856
-0.012989540889231542 0.01693416399574833 0.06057179058251841
-0.00516401293027228 0.020682529591036614 0.06195296503076614
0.007418694414477397 0.011334429751247679 0.0729609306220854
0.005159550111329886 0.018609800090170332 0.0686898701965502
0.004965187293111954 0.016270702983617675 0.06937000661506214
0.0002432445346715487 0.017608638368826163 0.06961578512357533
0.008467823187208207 0.016984762322401134 0.06833348888521999
0.004218233161045963 0.012199570811190526 0.07326481857821229
0.01716270997014278 0.011930382955317812 0.06121379821541139
0.02152894515611841 0.00044845782583827903 0.06481927947878327
0.017973609036909075 0.007252516804418777 0.06805712708868195
0.02612738339575177 0.005447818443329193 0.044249576492452876
0.025232474421361718 0.009201959427269788 0.04319087738674429
0.027062649062400936 0.0051810560843641015 0.043358352408006506
0.017705492515203328 0.010823541116975127 0.060827545249559634
0.01866501783349986 0.00732945375711447 0.05589982937684196
0.03131893908678335 0.013681128239682658 0.03712787646432725
0.018026529020786348 0.011244041501118003 0.06486143736122163
0.022829085157413585 0.009939150703891161 0.04483728623226245
0.028843284678273 0.014766721450448913 0.03843692867736845
0.01720675218288644 0.011593986594153907 0.05955738559682247
0.021732841936524656 0.008928566706534777 0.04720054282166834
0.017877872343138753 0.011275015671802736 0.06347717247461684
0.018556307264462127 0.01039856144341957 0.06435138482587277
0.0215995923848954 0.009858089581542778 0.04698867465832885
0.021876887942996512 0.008482013216610327 0.047245393975427506
0.018827051197419134 0.00983842331609884 0.065418298814232
0.019356289015524338 0.008558603613255616 0.06666381398542903
0.018829873003985108 0.009885417217150413 0.06414060728598102
0.02580541732571487 0.019403165147030717 0.03895882203041785
0.018901290645492015 0.009798704669089681 0.06488163211037262
0.017886066645656812 0.01133390994091848 0.06630456741958024
0.021704356716664083 0.019881083907791034 0.04248665494281937
0.02959240448965481 0.0051707698476910835 0.0399492473410541
0.029535708532705346 0.004898966864216878 0.04026429010620852
0.026223917944481038 0.014829520257440833 0.041589113496436826
0.030280836274362403 0.0127217781673364 0.037525090671975105
0.01709784506528044 0.011992737366076024 0.060879260910801515
0.021727277001422417 0.007073610788370056 0.04910991413286131
0.02293438098575913 -0.0074676793446053925 0.04841173397223145
0.029304437506866884 0.004853209377585642 0.04061868680577369
0.02319723825711653 0.0028599210405952885 0.051159102880847046
0.018242082993133225 0.010986569379380692 0.06365738647355088
0.019247220882162318 0.005320599814308819 0.05592531605727624
0.018756204881281137 0.008994749866099406 0.06111599212778458
0.025324043088629004 0.013782756946664209 0.04288125938946727
0.019542562948933376 0.015355696034864919 0.048107430158529356
0.023961198878234682 0.021885229841650936 0.03833203786427572
0.020231544795961898 0.014716398953609107 0.04645208592284547
0.02065129573597317 0.012116260027447336 0.04743813393617716
0.02408216593343811 0.0029855033732900643 0.04985730393167026
0.01800450332941359 0.01036322959055782 0.05936855341691274
0.025158668157460807 0.009816635639415733 0.04335694278421376
0.0210370246588518 -0.0033144686161994483 0.06547772020251749
0.016485160880751096 0.012600324498787879 0.05857123139288667
0.02162966963850299 -0.002140418950769964 0.06435265287718306
0.01744348470627504 0.011299158654104007 0.06084791139154403
0.03118193728235987 0.003925161591977073 0.03907203313129601
0.021832628043172417 -0.0009712506391861833 0.06448602492463193
0.021524017350045603 -0.002371950732731649 0.06464899571060896
0.0217546329048 0.008819164490848465 0.047233499954223886
0.01690928606544382 0.012406118815187403 0.06128408077854973
0.021779111990999404 -0.0016162843099275584 0.06473253185871788
0.030212157639340015 -0.0021607881481903075 0.04030575046428983
0.02144455248643006 0.00053799497905256 0.06663097724287417
0.021771053195391195 -0.0011605299947808432 0.06552519221228115
0.01779378508627437 0.011473495812724804 0.06620953064223681
0.0214663630737466 -0.002275556460428552 0.06572725708341663
0.02158591836420875 0.0001670472183880566 0.0664127877707289
0.021711530185431094 -0.002010579557977041 0.06375749353104126
0.019199328149998585 0.010508594318285743 0.05421291082726107
0.023756940755951264 0.01677449350228693 0.042935584212270145
0.018086513569294263 0.011021948249948732 0.06585804258034349
0.029130783000870075 0.015777164491490796 0.03821575190084872
0.01555549758449144 0.014322286984376195 0.06376546546107564
0.019217009925780258 0.005685641037850782 0.055677297438918395
0.01886915012135746 0.009700314799444816 0.06631382667158686
0.024244006812381116 0.006934069712564535 0.044418963554278004
0.017693107848130652 0.010855320866353484 0.0593498979071073
0.025746771002912595 0.015668501253506502 0.04168388791059212
0.01675198541631856 0.01121917112429496 0.06758552217150732
0.016771328515617204 0.012547623057866903 0.062215015212226124
0.01773195138067655 0.00994462413390573 0.05698186379557248
0.022662767440780968 0.006849808734706041 0.04712318862654392
0.0271997466548046 0.014125609477822418 0.04037981839260246
0.03134447285543151 -0.002835652578718222 0.039172730925779504
0.020299798395239602 0.010552839990883262 0.05051932743888225
0.018759181630874554 0.009944935329004222 0.06336228203405048
0.017656184796917256 0.009344148705774952 0.06794177374750152
0.029181685481811676 0.0013226430155838021 0.04153988084292859
0.016002654282508716 0.013513257478121668 0.06005730110529823
0.01653206699797606 0.01208450938300158 0.06764199426511959
0.024495302291577772 0.003964008731577532 0.04849274579520137
0.016641731833230047 0.013032224078083826 0.06408364291537712
0.017977474234868028 0.011154101454770627 0.06663737247237138
0.02086588999510236 0.008860650711875135 0.051809083109945586
0.016239790875941434 0.013550546680962363 0.06488866959426669
0.006548000363822368 0.019771549481258918 0.05683662027499119
0.021387759729457792 0.0010935615750236399 0.05387974732191182
0.03055253838840452 0.01146427937321507 0.037831606149430395
0.016529329423179542 0.012892820902329122 0.06213906178747522
0.016613733812344204 0.019737652941522004 0.04836807437902894
0.029035867207740866 0.011422786462934074 0.03891376641448127
0.01796368003035143 0.010825256117520927 0.06287315062910248
0.010634513728650805 0.018398462696437065 0.055525815489070325
0.006317838352312784 0.02041100346407889 0.060032842599815964
0.018411100768234608 0.009578225698822244 0.059697674972609714
0.017734781711006016 0.009810656642348209 0.056555814127884026
0.018624550616140306 0.008248618252988452 0.06790378864672791
0.017978786127529962 0.010345628559055891 0.05981711912231154
0.014751955413551537 0.014415102800010305 0.05781663180341177
0.01599405223264918 0.01366273534012945 0.061489129578359406
0.01993968548018276 0.015942211713706446 0.04663862259454318
0.01560970840685271 0.014138648707668379 0.06274537936154603
0.02595262714094423 0.015874009556689977 0.041337194631135346
0.017944170430223224 0.010517936620683893 0.061487859934263644
0.02007258473593812 0.005709272121650686 0.06677447288588254
0.021007712015335966 0.01211509619226006 0.04686850431173409
0.03576202507484777 0.0012116335007269447 0.03548950652208903
0.022852019370422836 0.007322498135503479 0.046278632858414936
0.03478657090125427 0.0003035211465747717 0.036663710651549324
0.019005389318975396 0.005821373043357062 0.0679702668313574
0.02018025276288148 0.001273657014226906 0.0583923150089087
0.021202679431915214 0.01165190739336975 0.046892167539161284
0.03037376747510355 0.003919742853767611 0.04007387468584124
0.03155132259451912 0.01656598180847918 0.0357605532874727
0.01688211118129861 0.012728010172144123 0.06456476508179165
0.017312806055458933 0.011919713857884071 0.06359467850528061
0.017631534543817037 0.01905701695206817 0.047711229723406856
0.019489339821550003 0.016699994011880076 0.04722217749592393
0.02649043008145267 0.00534126992887485 0.04394750372710464
0.023304101295613708 0.006024308322125646 0.04687548791874836
0.022739827647093716 0.005214855862333985 0.04909661797000845
0.03336962324980043 0.00813446759988504 0.03685007965843204
0.028153269938993745 0.008994109606874221 0.04016211548274763
0.03027915666881888 -0.004526475929641088 0.04028639964962178
0.018181093296543802 0.010023602662297746 0.05922430723635386
0.0279468393022394 0.015197094686887222 0.03912298138599124
0.01878117101559581 0.009272556931728033 0.06742752817122624
0.011135792702660852 0.018301156627035315 0.060670521438809216
0.019261487188713584 0.013577355334470381 0.05002074202068831
0.021146715970235725 0.013741301178707015 0.04543854233853017
0.012553909306639585 0.017010642814382526 0.06031925026058082
0.02888365863359623 0.006762240575254687 0.03988067370505741
0.018364071738377074 0.010339257295565504 0.06725894087852097
0.0290986188487407 0.01213186115909539 0.038512960096687344
0.007971336146083884 0.019379584251477663 0.05665675999584012
0.030718646697804247 -0.0016199034993881428 0.039913189270029535
0.03370567876646029 -7.910397097769068e-05 0.03759552694000551
0.012053212891652652 0.017871657280603293 0.06446913560481689
0.015382017784621905 0.013845565991113544 0.058853149698677096
0.014098273887139266 0.01616470374456494 0.054947777025735015
0.024581240602371122 -0.004371897131698614 0.04813337523246883
0.02479812868075748 -0.0036748845199016797 0.04832526743929641
0.019219096460674774 0.0052714671450035675 0.05641871030761622
0.023951779037625662 0.005152861462661262 0.047178940911383416
0.014523128550174727 0.01556758117269489 0.055097568609812735
0.014673868837369475 0.015305858621374322 0.05517033633770258
0.023827921100258873 0.0005915913010954229 0.0504850375498154
0.027779877284766316 0.0022833411543199318 0.04406879055194384
0.015651354859319257 0.013818903727168886 0.06725075591435553
0.014028941146759283 0.01537056699557672 0.060427056299326286
0.01634136744091787 0.01324287755792242 0.06053993455212517
0.01760726807065272 0.011129387276286314 0.06189699486198585
0.015122139599676628 0.013894843732671793 0.05770532318997718
0.016921077965297363 0.012230473450469626 0.06041382461357701
0.02204655552436806 0.005327567073294973 0.0517519723887358
0.0243899562616229 0.01281968667033136 0.04385139826356331
0.018130526330781518 0.010332142043921246 0.06197288252402512
0.017173746061991853 0.010901517979332736 0.05702284391698393
0.02032294989524087 0.01614317196943583 0.045806862856847395
0.020372157403832306 0.014050786281378895 0.04648725200631977
0.020864010743122163 0.0024414133941781588 0.06623410354097281
0.022209284976709133 0.0003075742575185781 0.053109299579472774
0.019824477778970548 0.01652141748151563 0.04663984551274633
0.01566830788130742 0.012994197553120208 0.05767596397532873
0.023902446865878602 0.018011503036327075 0.042392442884409125
0.01853965204970034 0.010034953297807401 0.06260688827302041
0.026105342235346107 0.013026034618860219 0.04254997069296615
0.012365345301131557 0.01716535400983335 0.05964108505387246
0.018619745478559303 0.01821491447112473 0.04719106638474379
0.01844165717756753 0.009777179166108825 0.06166159461358249
0.031120178904241746 -0.001076908217284495 0.039624672949668566
0.021638781113859005 0.00024560964606594606 0.06531292812467457
0.01704350567380227 0.010586264400066114 0.06743891743324221
0.01726879370763941 0.012163213845104534 0.0646517790176801
0.017063063631539536 0.012413035684420563 0.064018479919626
0.023918490180018917 0.005687781609150225 0.046369001370773814
0.0315802909935686 0.002755409743677404 0.03904549431853894
0.028757996582557493 0.012056013826484843 0.038984635916998564
0.017891329106125765 0.0152484957224671 0.05118940712041384
0.017233314298390815 0.011865709870024634 0.06228584273652465
0.025302374372445334 -0.0023585725741183303 0.04799096302335115
0.012610615816368952 0.016952929252125538 0.06697329766444712
0.01858122117617779 0.00914652199888601 0.06074456416058561
0.02277201567623742 0.008313792684179254 0.04564515338411938
0.026520593594441595 0.0028571385624415833 0.04611226029639075
0.0067620479464135935 0.020265788733804208 0.06084134127528877
0.02124480753854824 0.005827055768280923 0.053552415129099175
0.02389477804130879 0.005494242970307865 0.046685488698680465
0.01779801596784844 0.023293673198770487 0.04166333851922183
0.02708336935238131 -0.0009255729178793286 0.043907027464474085
0.02466818674474973 0.004138655069274205 0.048035946559061724
0.02685537822287399 0.009065954332181873 0.041757220298127395
0.024714603073111935 0.020568636075593904 0.038969713902332156
0.02506996609345629 -0.0032420533982632756 0.04805833091431657
0.021682880721626923 0.0018895387752038521 0.05366162931798923
0.017693061514339692 -0.010151042829139638 0.05806467790258425
0.022109559780366966 0.01062791142031612 0.04587801652396228
0.023041342468583362 0.008304503634054331 0.04517194084437713
0.006904425307618677 0.02074662379863152 0.06363741774127465
0.03120964841920356 0.0036674041644635686 0.039330013026592725
0.02726580335173604 0.0029598951505038387 0.04488774306612658
0.025974705631770564 0.0038029249047282707 0.04641582743055173
0.02869686458412343 0.008116908239732977 0.03965721445895917
0.025272939863050792 0.004432734367104966 0.04666262619550224
0.01998520901595245 0.011695963416906251 0.04997579423010135
0.019659575278434333 0.012330607012434495 0.05028239511310492
0.02536259161688366 0.020898052009316388 0.03823123163713575
0.02504722011507815 0.004352164838590175 0.04712011370467485
0.030426959734072993 -0.0011867932382470196 0.04021281033321824
0.01681833651107841 0.015665005236283076 0.05243145685212963
0.017220296204399965 -0.011096873586554177 0.05918929467780439
0.02023737288619036 0.0025881762144918286 0.05490894670964896
0.024661436342520035 0.015852540082087134 0.04259623690944962
0.024605519727149732 0.01595493931867457 0.04260322366608022
0.021074816207858636 0.013393059885752553 0.045843695585682256
0.0251732241996731 0.007338379766547115 0.04342298299397761
0.024604986566009707 0.019565706416490723 0.03982662246960092
0.023051859303178115 0.00979240881512187 0.044506607765742376
0.017175385956081344 -0.010609215695122746 0.060790002582529895
0.017389287966488344 -0.01083715240923588 0.05893167032279728
0.027049125912874578 0.012520854368172267 0.04157306687851012
0.03526202571284455 0.005490484367294711 0.03417404631257511
0.022686521253454373 0.009487909879212494 0.045177562381827976
0.024562597489274425 0.0032719210938572433 0.04892757960672809
0.023202000156990036 0.007930544978392918 0.04514929206994601
0.015447951601579284 0.016888647473710838 0.05358025305869958
0.024878445462930956 0.004839271794445393 0.04653368379785715
0.032806950561643504 -0.0011490260950036836 0.03803921422469714
0.019783158572257008 0.017633633465945965 0.045967517052901814
0.029343963059640044 0.0067535833944997285 0.03924410087391739
0.02577328651492596 0.021115283480446362 0.03723792629418037
0.01808387520830808 0.012518019884180538 0.05403484323289534
0.02553778628172982 0.014663871528044766 0.04235514831653088
0.03740502501454533 0.0005676432166919583 0.03286106159256504
0.02220679616898736 -0.004341955310896393 0.05263539622231373
0.01810511163746714 -0.009757829106820961 0.05854089618938145
0.02584946037708319 0.012002618013354605 0.04307563827741456
0.021248162206241084 0.013894568797354496 0.04520896523700267
0.01599821854309466 0.01411583558878847 0.05466658860805014
0.024844906005603642 0.01857611217820508 0.04041844197227411
0.022227627286562034 0.011183803592438448 0.045683487589653786
0.028107637965804823 0.0008435587561456425 0.04248824082268596
0.017022407110341215 -0.011213506042766141 0.058336720346620755
0.024807721696571652 0.0034405860144341776 0.04847188466910485
0.024454886416570287 0.005445507687932023 0.0459719159899204
0.028269283702706316 0.020926415317183228 0.035506470835372866
0.010882221464877743 0.018424629727719334 0.06014867114941329
0.026285880981318756 0.0002854138543981402 0.046189032995493276
0.027300758318523133 0.00282910856322428 0.04481966843212681
0.02363377774418578 0.0044913660199753305 0.04893784949476216
0.023170546034210728 -0.008326345750601536 0.04728578702274762
0.03055231355611787 0.004825459572031302 0.03894145366043958
0.03654469118980094 0.0004345020129878545 0.03430788811525105
0.008461854765110821 0.01959458578216572 0.06365120416107083
0.029741440263042016 0.006056858128122243 0.039010030165116234
0.021471637793344225 -0.008318307955325373 0.04968376797011989
0.01768081816124148 0.019460362828200593 0.04654088317101269
0.013058424623441547 0.018765041222098648 0.053477698707484034
0.009821308038231924 0.01840387584486842 0.05685192307628331
0.01606122972559889 0.0199396517630406 0.04910503089794691
0.0234152347471351 -0.003477123785087647 0.051015944482743394
0.005954378130408313 0.020217584301607 0.05771166409378574
0.026099857519854212 0.020918845095946426 0.0371513470823939
0.023326154470836014 0.009275559953904363 0.044222568688766076
0.03467729606498743 0.0008179440433830191 0.036587399662094316
0.02816056169604085 -0.0030353216149465543 0.042719836018768595
0.03521478540684738 0.0008535184571848589 0.036174946778811085
0.021811188443639405 0.0064055214578537 0.04997984650165049
0.03071274416640941 -0.0031363152434910275 0.03978909601404891
0.01934648817705842 0.011913115602441293 0.05158594733050257
0.025730360679538336 -0.005823821965311356 0.045630311496425706
0.027559617063049227 -0.00020634617981182715 0.04288416158658207
0.017678894830395604 -0.009833322876722332 0.057105839407722826
0.025376918219692922 0.017573878377055683 0.04080937819058052
0.021556600270426086 -0.0024963964578131924 0.06313306230255288
0.028243767504059474 0.006019558219432062 0.04115460809103833
0.017385469438260345 -0.010506933700912931 0.06169071842441452
0.024991605076455058 0.018712136108586443 0.040123290532955894
0.019787571066335847 0.005946386843925514 0.0646955560825809
0.019358874047903766 0.009160384490851188 0.06508874393922315
0.0112550701530594 0.01897018135117016 0.054668034831593784
0.025862534670323806 0.004682248978776446 0.04562607119828001
0.011071232130428724 0.018354612041453583 0.059309604601919905
0.021800464586528335 0.015177123211049378 0.043908507404914345
0.021720443591579017 0.002443899569915259 0.0535976675890656
0.019702667785570158 0.006527568052386329 0.06418608479871192
0.021474679127940204 0.01563580226073441 0.04421762932832443
0.02535476347893484 0.02177399358793136 0.036242877940094315
0.023457504001885544 0.010518896050239838 0.04412566076944908
0.019544344787114986 0.008551297095350314 0.06454246641767399
0.020122726163507326 0.0041224247166854085 0.054559593347868286
0.01800943877711574 -0.010206683033462558 0.059986745473572974
0.01961077192624791 0.006776206470051339 0.06361773242535028
0.01917404133606008 0.0069243255153511925 0.05513817316351548
0.01962826128157659 0.007536828966672804 0.06386486933260625
0.019014645581741704 0.0056631436791435875 0.05907008219454458
0.024271546704231192 0.006515778186734782 0.04475268009376751
0.010100339667626869 0.019157251906013292 0.05507542475109932
0.019427813083726805 0.008337470048855322 0.06330034597506598
0.026959179942268888 -0.0043908382229074444 0.04451407453750733
0.020232360919701767 0.005410283373801444 0.05427560142730441
0.018305872225379747 -0.009917057998280987 0.06058691398751988
0.034415422125562666 0.00044464309148016377 0.03692897412975838
0.019767888170155547 0.0056496848838276745 0.0631461658052909
0.008417899236767497 0.01951378283550894 0.0630571153330829
0.019583643730246004 0.0067128890820464335 0.06286144150606185
0.021871664974924574 0.014100157717407085 0.044484515269468505
0.01828965829793102 -0.009075510778092951 0.05754558711936469
0.02405906439606166 -0.003272012022364602 0.05020348884735644
0.03171376172660471 -0.000901433563606314 0.03913986739313399
0.019080061169708035 -0.00739260588559663 0.06327550766687545
0.011680715885691003 0.01729025127015401 0.056126763388232616
0.018626091558391768 -0.009670873535457657 0.060378137207014404
0.024471249151668456 0.009724296926523658 0.043479404174501204
0.019729152509011142 0.0057862881279910905 0.06324550730781799
0.02432074418416947 0.007051715439282361 0.04424466465232004
0.017248482886724183 -0.010666719408240809 0.06146109696353347
0.021013268248864236 0.02154437095082072 0.04148854716172743
0.019550525492211618 0.007529899409137776 0.06312888223185015
0.0194112057003206 -0.007326585945879423 0.06156867427690302
0.018602908855676323 -0.00925209779050796 0.058967294823357295
0.01971667106370677 0.0059681937618142 0.06265213599620854
0.01929831211704978 0.008769060072747152 0.06324097584748462
0.019076269485107274 0.008916462508638296 0.062447540917093404
0.00808986574568321 0.019473800869683373 0.058133269401081586
0.008219900679875105 0.019725733001376963 0.06329370246918822
0.027919110083074537 -0.00015047874022941683 0.042213729360899906
0.020949541131831 -0.008004380971461961 0.05174457632144096
0.022481820288855838 0.004757303425841698 0.0507872849974213
0.021032448491130135 0.015036674579411364 0.04474954935007807
0.02115519329500235 0.008360627699781352 0.049939663012220956
0.021231636956608027 0.016871725048343562 0.04485476334531102
0.01818604609551609 -0.009405187479270518 0.06281759057041163
0.022773177142982062 0.014181320728533144 0.04408498810722239
0.019384981093338225 0.008227607302956103 0.062186218728500525
0.009731621755998643 0.01881451876399806 0.061583313132092754
0.02011671201817008 -0.00493813556139129 0.06236511881673833
0.019446043624092593 0.007899756272278381 0.062196190882014925
0.018996098133405196 0.005186202325594564 0.05712243000382144
0.018834296695547065 -0.009323071105050734 0.05976687863746414
0.019660183260201025 -0.006401397621678054 0.058948668663911484
0.019659141173148872 0.008108830212998738 0.06469571978772495
0.026264835703810045 0.0027699350109665127 0.046492239998149276
0.022198783546833675 0.01638968152413377 0.04374324382134144
0.019360184577609685 0.008932860864241025 0.06397970331352512
0.01963502187914171 0.008328467845385755 0.06580722021673369
0.019415971793620528 0.007069490342303263 0.06048579518244188
0.019877873627504795 0.007123214660624266 0.06564520540280186
0.02752031983936304 0.004483584630127433 0.04351220461640803
0.0325030476208051 0.003233282856169203 0.03779692642418584
0.021142550545568354 -0.003120320708242411 0.06394449292606773
0.02112763120425217 0.02257594205004647 0.04033195468342827
0.01950993055558408 0.007057158066246131 0.06190921902187017
0.019681272780560873 0.004966471219249756 0.061185668237404275
0.0157833873067865 0.01469802811544096 0.05462786223909331
0.027264542596834335 0.004002000540807091 0.044343586295919245
0.019284158690729004 0.009060236119629035 0.06599096694461985
0.019799748603251767 0.007061158400682671 0.06482162075321246
0.00892837708785865 0.019721673009830663 0.06463297340324219
0.02857667657970306 0.0035882195656961554 0.04271639014352484
0.019357546200190673 0.004803516192434738 0.05972095310640683
0.03344855955262859 0.000936400294569872 0.0377685745011353
0.026483209302831365 0.004619248608138303 0.04493561791693138
0.01716521337033833 0.01946433935911735 0.047757635230786535
0.019706241695113036 -0.0055605219158844825 0.06017770131373488
0.01956655469555167 0.017161376423136077 0.04659237694808613
0.014355331821613271 0.017962352622793214 0.05352397571812603
0.018709710521595493 0.005584708483461289 0.058548771062636375
0.01887241260178148 0.005623419947543669 0.05879157708729965
0.019020660925408647 0.005008717242758516 0.058715027794960115
0.018592809913288634 0.005319567367101912 0.05773256474336906
0.020258857603071653 0.01867167465007401 0.04495249259211099
0.018300026973856517 0.016644642182136675 0.04915293638809094
0.01134656521092405 0.019664951686731456 0.052524190821460634
0.02116518957233766 -0.0034698035621913655 0.0627552187873576
0.018537290203582232 0.006478599104748723 0.05729156864588128
0.014292136006138843 0.014859647070647965 0.05728126904428622
0.020780923669834677 0.004624362378662434 0.05410102086396752
0.017122573304495493 -0.010800990829045745 0.0576487787406291
0.0194293273336932 0.0062835682951884134 0.06047487123897555
0.016741042544959117 -0.0114645390306973 0.06019553360819144
0.009525998950299916 0.018988078211372238 0.061318799145539185
0.022280856399962037 0.016852676235913133 0.04398563009523168
0.026545033396489434 0.019996258015111932 0.038125649441008484
0.017940008344898242 0.010519086693743095 0.054713659016156456
0.03016160037487097 0.0008613806285983105 0.04067642610249377
0.019097933186291903 -0.007610858167385703 0.05793313846495613
0.01317314605991232 0.01595491330512033 0.058063476093000804
0.02278981429197341 0.011568915127888001 0.045141831124028725
0.022434207614436666 0.0030801543808237986 0.052277005945317326
0.01882488744113698 0.008702838964036426 0.06040026560398732
0.02108419726606553 0.022006341648360093 0.040981789813571506
0.009568299712048403 0.019564958351456024 0.0548181884261099
0.01938417615566759 -0.008270708470674359 0.060450781605545824
0.02564070165726801 0.018727308571347207 0.03954179079007157
0.008026907066692875 0.01978701141634902 0.06147840544310044
0.019153258221063257 -0.008737363579823583 0.061195198328678646
0.0171515655510473 -0.011165995564954744 0.059665436981825706
0.01972771158836033 0.005744299569052058 0.06391665803801871
0.019175113341214696 0.006102811711461554 0.05954418344486895
0.019834197335101653 0.0070260229091770945 0.06637087061632843
0.0331836464429922 -0.001050547811420843 0.037845691003699534
0.018547964464874535 -0.009141609730765622 0.05869079177717711
0.03284925114201683 -0.0020466588137897906 0.03815178297725787
0.019430755951032407 -0.007916569900414318 0.06102347944622879
0.019065524649461867 0.008309048724095533 0.06030646301897885
0.027477426329434604 0.004066339867022107 0.043951751731291566
0.020372857955241436 0.020448143936876877 0.04331451343087361
0.007970252977197646 0.019396109503853055 0.05629075836637709
0.02162999055035612 0.0066394428403975005 0.05065078858450881
0.019668872010256036 0.006221672786472588 0.06289279757342109
0.017072562463808318 0.015751340491077754 0.051869887493052325
0.022745437029519516 0.0025733281212098136 0.05192574970723766
0.021495129061655655 0.017180843152624106 0.04479748566751817
0.015723988230802566 0.014427025868954757 0.05471411015924183
0.012122826034202486 0.017190124605395315 0.058741888821165086
0.019716834721882643 0.005948570143279993 0.06441110067500924
0.01934547144150078 -0.006981825913764625 0.0621158114571195
0.01941970536578022 -0.006529190486630271 0.05792876229830924
0.012871833961967422 0.01626066419432751 0.05822293663593687
0.013268876335323301 0.01592741085088804 0.05850886683652586
0.01132690005829529 0.018236274621316693 0.060563775247595236
0.020039439987267496 0.001765048062805502 0.057622443269605056
0.021104938979578713 -0.003496783126569277 0.06222062249358898
0.019532057496977777 -0.0074267850536794845 0.06018143091784682
0.01798644290213677 -0.010239871621156922 0.05960530713804954
0.01870272308465717 0.00874172347139613 0.058634327799977945
0.021749956333500076 -0.0017960666582213518 0.06307415059713457
0.019839212016682675 0.007341753105929902 0.06564605820134908
0.019080588890580737 0.007935993847333537 0.059150650314694964
0.018584462647536014 0.0067523860537681765 0.05781725149720503
0.019712807632399965 0.005850127935954642 0.06170594703041472
0.019648211710316436 -0.0061185172186350775 0.05852811228309145
0.01930482811359647 -0.007230187092393616 0.06224120898780857
0.022076058345366745 -0.008042586856181044 0.048963076091282295
0.015670872455057945 0.02118997713451654 0.04595924370045309
0.012581067923486214 0.017551076602933265 0.05506315303861819
0.019537735638446827 -0.0068175574417179054 0.06042512160487906
0.028029655368715496 0.0032623115109353265 0.04373105082042055
0.03015309405821106 0.0058249345686588495 0.03859757909522728
0.029211870239123958 0.00880492647783105 0.038978184461277106
0.010818592870620395 0.018385898529157133 0.06072853114251163
0.019146833315219804 0.009444043500127702 0.06398433101218706
0.019093780972966275 0.008205523620594853 0.059765324424357516
0.019662723329746 -0.005262976954329684 0.057984835204483325
0.01900489143271585 0.007165176028198104 0.05870590211271517
0.011902074356880891 0.017730964815756083 0.05991906786988975
0.018914498398224844 0.005583186352811884 0.05693459907947983
0.019484094615364052 -0.006964149151248015 0.060978341855140804
0.018945565274929667 0.006967552606882522 0.0586773928656984
0.029692737435118743 0.0079662264165607 0.03860701543100609
0.019751891499763904 0.0028048382070063674 0.05800559942579564
0.006039362838152384 0.02052296396784971 0.05960314832739343
0.019977651775002377 0.006421389681698961 0.06635180069814703
0.019440059690825958 0.00506701726323007 0.05545724448740567
0.0181528200128892 -0.009513857533649542 0.05817041692491459
0.02043590150237972 -0.004571368076485765 0.06348358261282103
0.024922419550682143 0.010907547868604288 0.0438178758185608
0.029764897814048376 0.006979736084865369 0.0386662268482499
0.026367260983702533 0.020863421448720398 0.03694674237526996
0.019449602222786643 -0.006684716998276551 0.06146992817433441
0.024139904052742456 0.00856980896576162 0.04375426874764224
0.02085561707083637 -0.0033306839394133493 0.06116622032137864
0.02743555467787086 0.013598174690148037 0.04026616133850792
0.021887167143365416 0.022559469502552956 0.03938578288439218
0.020174586502584236 -0.003942437712111809 0.05962145301071668
0.028502966418170364 0.009752592548048413 0.039685301566282125
0.018776041670263213 -0.00668043461398906 0.056269916648640464
0.01355766825788774 0.0157018158082718 0.05921852415750205
0.019490684342161856 0.0037174261934313406 0.057681773354928634
0.021785252203927054 0.0025942552281872943 0.05346196945761324
0.019646002277503072 -0.00555322414156203 0.06056338873327041
0.030973912989528996 -0.003543092365689426 0.03952616869024387
0.010192552472313205 0.019208676426412392 0.06513776487388913
0.028515715652663132 0.00418819017733174 0.04237770832574261
0.017732494304896314 0.013849823966566978 0.05257398675354794
0.027922377476275455 0.009611354482089617 0.04042392612789349
0.025681959885641252 0.006094871434775629 0.043928484945750634
0.030483949293140692 0.0018054711819637224 0.04049364748035165
0.019385812179622083 -0.007794416025386622 0.059262828175096094
0.021970097960065896 0.01785550699035356 0.04430934503990234
0.028290291095594788 0.011458775527423446 0.03976247469769218
0.00994936995329248 0.018659463501065964 0.059733175234802094
0.029090737893617144 0.0014272835884934561 0.04167052974117661
0.02009160982245859 0.010718715255219204 0.05105846328085203
0.019853126163874496 0.0111321803077808 0.051268469221155966
0.011624750545138524 0.017979271814878725 0.06135998380608776
0.02160978895065633 0.007101798506498872 0.04971231941796575
0.019270095897033313 0.004349155568218015 0.057444046134281744
0.022655314449845698 0.001261813517372334 0.05232188738104203
0.012461500899490687 0.017130966595595508 0.06053023943897596
0.011866866610475948 0.017865450677903082 0.060874657877914774
0.020087125034102888 0.0019996541943676878 0.05890763694915068
0.02663457087276575 0.002303587629431414 0.045915221770553336
0.028388729183801347 0.00047005639130788686 0.04198848076083489
0.020693560002850286 -0.003992722686647065 0.061707355355757845
0.027258656175797542 -0.0022525152185183094 0.04369290255610709
0.018865697101961305 -0.008167983623867399 0.057892918504328025
0.011200087778656382 0.01842218617217247 0.06364960161778539
0.028051248151443227 0.01848938236117645 0.03796054401732177
0.00680283693232232 0.020227403785851163 0.06018793170153726
0.021520776473730185 0.0203562862493588 0.042185836896512396
0.0203023651403318 -0.004036794337611939 0.06041984742464064
0.021463829006874494 -0.002211661994570188 0.05387968352557868
0.023008078519791718 -0.004127014069097001 0.05136114154492648
0.01974866124094739 -0.006017787644980925 0.05934077606400058
0.019128279861210153 0.004754484737905559 0.05868348946982313
0.013729956446633163 0.01662051365384219 0.054843597578303475
0.021190763816816855 -0.0029949714598964086 0.06402005133714643
0.02704421277926574 0.02044269199726769 0.036978949386399194
0.019455455939582988 -0.0077404086511721005 0.05968150733488547
0.018262421446388004 -0.007941830884744046 0.05579932377897741
0.019083876998932305 -0.00842309429462031 0.059082693634971845
0.01921226541967972 -0.007229767270732785 0.05775267801339032
0.021304146815598196 -0.000588830202895308 0.05399342256262443
0.015829217051049442 0.01659487785763832 0.05339093692243749
0.026266935586349627 0.016567185573019817 0.04037024387463016
0.02678612589780644 0.015309272784905237 0.04042206032693884
0.02728539902118019 0.014119608128307757 0.04025060374403672
0.021550093400237086 -0.0019735634576595186 0.06208112420074306
0.027141382744539373 0.011413872051575485 0.04166352894376193
0.01444247086248792 0.019234651358167272 0.05076360879229088
0.011689124181764151 0.017892633884676535 0.06249048212953546
0.01149423804292982 0.017936649904944105 0.06199444860990389
0.019873997819019645 -0.00505008559759707 0.05929175247803856
0.01312652608623685 0.016526339786982792 0.06137658903337925
0.02738476015425366 0.002697531424418494 0.04468361409487046
0.018365947263551813 -0.009762500641122732 0.06092215997136273
0.02011102988722613 -0.005037600602017294 0.06338786129787605
0.020332681058524132 0.002023468817555951 0.05995200788981885
0.01839553831008445 -0.009371260003771111 0.05861689012957434
0.021302365104938183 -0.0025605100330903844 0.06167786816969517
0.011332059539239908 0.01835764460248653 0.06368483894571325
0.02497693155745594 0.0029152351332990653 0.04842906098253966
0.022504759674464796 0.0007517493107011982 0.05261732133291806
0.02094282394357682 -0.0051141910235361476 0.053725852007785915
0.024433639820738814 -0.0015560952064578625 0.049928585756404416
0.02033402596511339 -0.004696562970371146 0.06344246923594565
0.02839144089263424 0.004445951785620473 0.04234584076772123
0.022771427641589518 0.019379156674540658 0.04213657382295158
0.020756588301932076 -0.004093916362913015 0.0637917380190826
0.02998139406328405 0.006334506199420185 0.03859386107664945
0.02102510021922339 -0.0036852608644631388 0.0624056737309099
0.01990399883784914 -0.004855252280634685 0.06041866213175441
0.020913716415485673 -0.00347085726718598 0.06151602049872453
0.029373861211212646 -0.0027519319093362356 0.04125229542886794
0.02799788530208181 0.0011847165441625474 0.04297478655021244
0.020899243953494274 -0.00385392099648389 0.06449351897180508
0.030513355134929653 0.0032522519518142137 0.040367228726515506
0.026474351912010842 0.02112178706674172 0.03641670116133294
0.019541014236640338 0.003756997388012198 0.05911107846507427
0.011591596318153817 0.01817430999470878 0.06645965517202176
0.02613521921265708 0.006176329946157649 0.04342455352445519
0.011934342866793807 0.017224958790649638 0.05806210978440782
0.02092384868821238 0.018516112555587 0.04477591688309924
0.018646627713205556 0.016678386271843676 0.04866124943528319
0.023030521407708206 0.01403192932581357 0.044089746421181256
0.023886095661822707 0.012780700660290696 0.044154773622317824
0.008497350945168208 0.020137777648862626 0.06515144362297469
0.035257354153147416 0.0018834663565688798 0.036004655769073614
0.028536361311655777 -0.0009667815280103244 0.04149011690104233
0.023506525392478342 -0.005258246911520555 0.04976464610510415
0.02342645144922831 0.0011054475981348722 0.051073437884461184
0.019877611353104657 0.0030197505240862773 0.05977027990374368
0.017366876296185302 0.018596436121905424 0.04906046303654605
0.019389540049685114 0.00455517361164985 0.05955440670321943
0.028597822989115333 -0.005140616617331564 0.04243847185292605
0.011331262890669639 0.01849689674993268 0.06475483326028131
0.02714358047931982 0.020772301883988823 0.036371928796924254
0.02188206551127823 0.020418348090823598 0.041760078076852954
0.027876934237050885 0.01377159463073356 0.039516403447577175
0.01104049466007299 0.019597031061297128 0.05358209245235929
0.023009267844259624 0.02176035186116522 0.03927209650588053
0.02299544832628744 -0.002344026073296882 0.051852383535877504
0.022996201658142618 3.2680997361872525e-05 0.05177636805632586
0.02395424399848952 -0.003938127869382512 0.049917741170759
0.029862327610553126 -0.0034689813093518253 0.04075060943095454
0.018228558848520367 0.017305665576809223 0.048534952579870595
0.02480698081795931 -0.006641875530209466 0.04638410938311258
0.02165962232540454 0.01694232965950244 0.04454510789034316
0.0224808576499963 -8.416488057642522e-05 0.0527223244074648
0.01948468097374293 0.004346613926249252 0.05987048927643665
