-0.034430322068626236 -0.002663079376012004 0.07617011519572263
-0.03458494567929714 -0.0015807677970140054 0.07606640314038139
-0.0345074208854232 -0.002513790515908535 0.07616436272246624
-0.03421075794928566 -0.0010815785224099143 0.0759502455378306
-0.033738245822538745 -0.0023295422213127507 0.0760247088054728
-0.03426059255414397 -0.0018630173630770589 0.07604989046354343
-0.02913443685398455 0.0003319679971704573 0.07575795417739223
-0.029078827190098144 -0.00016914373234068342 0.07572673179771931
-0.02825659974377869 0.0012168322619448553 0.07586491024242951
-0.03025095109999183 -0.0023352821447771973 0.07588414482429466
-0.02904819482320178 -0.0027879471306512396 0.07589811019589374
-0.0280943546420549 -0.002362263978895892 0.07585863903821317
-0.02892270433822159 -0.0033334942991548096 0.0759316677131214
-0.030140615357458357 -0.0023642012540227107 0.0758846138713321
-0.029471974177835314 -0.003420592562746826 0.07594421719620603
-0.028892507764385397 -0.0024803915999081173 0.07587633145382774
-0.030099636844609416 -0.0021711484001711487 0.07587166020409469
-0.03583076488910748 -0.001554568394731952 0.07634324221032252
-0.03624463946806391 -0.0016798448361404611 0.07646839582696041
-0.03588263146161446 -0.002860760641112107 0.07645492620070576
-0.03575345096057994 -0.0014756169702596549 0.07631573056042004
-0.03476689718138168 -0.00022042565197227118 0.07594624235238026
-0.03618951063523935 0.0017458083728500253 0.07607129985093791
-0.0354731987918195 0.0007367577876996481 0.07601971760839649
-0.03547983400877418 0.0006932585474847244 0.07602866462713016
-0.03612306690992398 0.0013667329100023513 0.07611226636927365
-0.035604605199767755 0.0012888350278061928 0.07597036930154275
-0.035101120041335955 0.0010967424327985973 0.07585123281466791
-0.03554836530919553 0.0067460132628489045 0.0751088246971327
-0.03478997417150982 0.006632112754244395 0.07489445221496913
-0.03442673626121089 0.006591375492324881 0.07479048309781229
-0.033847490932977765 0.0009772578225289428 0.0755950431011784
-0.03412535040139496 0.00040517812168578093 0.0757241579661499
-0.03312779946052849 0.0020369671752694927 0.07530711349188564
-0.03333205542642428 0.002880500520667565 0.07526277234271318
-0.03442167087160224 0.00031486960826576264 0.07580459060771223
-0.03431589201694486 0.006263766009536728 0.07479409424162313
-0.03358040830852206 0.006234901565148139 0.0746607766872247
-0.03398081460400727 0.006656600153051154 0.0746919859423283
-0.02160067196462774 0.007333330791723024 0.07508498128201156
-0.03721011530478082 0.0007281403020191926 0.07650834059283515
-0.032331021052199045 0.010308756619073737 0.07446891090265628
-0.032807754040164484 0.009397472304672968 0.07448915893741873
-0.03340594916072713 0.009790851091184535 0.07455021136375944
-0.03704839490489646 0.007468779462172458 0.07537608828037863
-0.037925976601995814 0.007078727230265534 0.07556255842251333
-0.037273308167957 0.007639544848260025 0.07538284531949438
-0.03708897277712736 0.007006313130606242 0.0754520698742911
-0.031831760521644735 0.008012645556522304 0.07455394031108949
-0.03241415167641403 0.007787613223420182 0.07446543553990281
-0.03194817936405395 0.007712914585300327 0.07451668506111975
-0.03870117946902689 0.000987810777108705 0.07437735689521147
-0.038294967463866555 -0.00905585888175414 0.07002461210623197
-0.03809861818167086 0.0023682215269172856 0.07611683839367159
-0.03727234966052058 0.0022836385391370793 0.07632452196845331
-0.03816249890363241 0.002872966808929833 0.07605513857765306
-0.031939462733389136 -0.005886708160740763 0.07611434554986764
-0.031143693507692548 -0.006344449098159609 0.07626733937848268
-0.03089732554335552 -0.006694558073150673 0.076360927865032
-0.03098051949545983 -0.006948278057042791 0.07641202304285889
-0.03021995101701814 0.009468392569256863 0.07462176756279834
-0.029888925146046307 0.010044318057279802 0.0745954999838419
-0.0296708662416175 0.009322363008363298 0.07466041170599326
-0.02994905059232661 0.010290913679438126 0.07457405367537293
-0.03074866501275452 0.008612295084438669 0.07470796929484715
-0.0305566108944312 0.008300393577520264 0.07490483273831379
-0.031061126759516115 0.011377452956214777 0.0744054103500541
-0.030440643527379567 0.011502940680262119 0.07442391128742029
-0.030431074985964868 0.011415243804513512 0.07443507520999972
-0.031032693385379426 0.011375065440122444 0.07440724584674847
-0.030964126196745483 0.006465489647145148 0.07490736985492245
-0.010786404716406071 0.0018570755546119793 0.07576145231561345
-0.01026395337138895 0.001528961669417594 0.07599105493155922
-0.010212716773843073 0.001793238712830336 0.07597343073468368
-0.028027982889438256 0.009905486959874239 0.07466300490843215
-0.02933205517599104 0.009807128575024113 0.07463813695331263
-0.010361379569949078 0.003456544445141641 0.07542374142089353
-0.009960016447527172 0.002603377355076244 0.07589003034866104
-0.01131792031562551 0.003294768020274571 0.07540066671197494
-0.02461505448777157 -0.006055827883433599 0.07584356932536596
-0.03542140448296119 0.013669358832448523 0.07373283543335038
-0.028343426866366084 -0.005765344704142045 0.0760736657343841
-0.028054392962765906 -0.005325769092385996 0.07597021735634464
-0.026564896170451296 -0.006084221821505289 0.07598919071180182
-0.02809631789767193 -0.006554012137982616 0.0761978357381144
-0.026583256444792404 -0.006022017861401148 0.07597930650288848
-0.02900558832971332 -0.005858592235037982 0.07614381795377115
-0.024384580931436656 -0.00658628169982668 0.07604217579525416
-0.025189121895606497 -0.007228372470787387 0.07625848370084497
-0.0251067154756556 -0.007090522740184218 0.07621495673424536
-0.030389724440799147 0.0068164973128146365 0.07504759129429235
-0.02527021341704853 -0.005947773116243327 0.07588268289831047
-0.025598082971838042 -0.00676250459872014 0.07613530639843405
-0.025896701085220918 0.007504448673176166 0.07518060474199434
-0.02552898351520555 0.008923461605197929 0.07497700265085559
-0.02573115084886411 0.007443877857829975 0.07518682382195499
-0.025136351987312556 0.006197188822203271 0.07535318347450332
-0.02547899745612 0.007362259141700541 0.07519480747111457
-0.02563442333927695 0.008507137346224772 0.07503670413511293
-0.027425327074167245 0.01488922797508756 0.07309118386414437
-0.03282677806412285 0.011892040700330127 0.07412006265735556
-0.0332463337985333 0.012224505923952009 0.07402347027740276
-0.0236570645322755 -0.006661047453457111 0.07588808592086498
-0.022539031526357157 -0.0071450537228649556 0.07632517747531989
-0.02715332155634817 0.009695035168071995 0.07474874308285566
-0.02566778497584441 0.009518809514564727 0.07486906214973359
-0.027104768327615148 0.008348890574307218 0.07505091356945455
-0.027627063124758548 0.009143957575038109 0.07484549308340875
-0.03615550730407275 -0.007753427917359585 0.07610822498869665
-0.02244307750806713 -0.0064486048826460605 0.07600615835450802
-0.0250683055527368 0.014653879706768784 0.07336874571493451
-0.024919800369605637 0.014374716341442724 0.07372645280111978
-0.02531903702093136 0.014035190959615406 0.07416115049271645
-0.026137812358921503 0.014611135960329112 0.07343414297722342
-0.0247589218535747 0.014910832609496064 0.07293743834665645
-0.028055977903829882 0.008511366184642582 0.07494632153144148
-0.02870706295175851 0.009043470690752757 0.07476691142530985
-0.02778968033991437 0.00787895015008045 0.07511086552629931
-0.026308907546787594 0.01493454671185675 0.07274611609149179
-0.026359957822899245 0.014704300607060964 0.07326338400374222
-0.022052451904877552 -0.007617778297229086 0.07699290268560934
-0.018055421529215618 0.002341969627990214 0.07566232581744708
-0.018130984969926746 0.0015086101566351394 0.07581217310391783
-0.028516101880780277 0.013762744741649686 0.07429185270978543
-0.028135419073560354 0.013536229239390497 0.0743960266538631
-0.029657866407726184 0.012804169813784108 0.0743320414689691
-0.022142154388527485 -0.0060897695676483945 0.0760311429922275
-0.023735746392671828 -0.005992888701345475 0.07588520422571768
-0.02128698429176206 -0.0067743653709156386 0.07621324025518864
-0.021201652609689748 -0.006286531724997565 0.07610059085520277
-0.0370977325873205 -0.00983795963671479 0.06706889709353048
-0.03702610362757082 -0.009836641022998922 0.06773534147059522
-0.03700167862380598 -0.009813389125067743 0.06876492399172668
-0.037365282055830944 -0.009784593927005857 0.06663063577150274
-0.03708699585998608 -0.009783454129722542 0.06907969069775219
-0.034405398762773515 0.008824299003181936 0.07463870294165839
-0.03469471906293611 0.009523448392709976 0.07466474392912936
-0.03386980325940925 0.008610925643117369 0.07458461338637878
-0.03818658664854232 0.003992842439486157 0.07596017030139077
-0.03762210101174394 0.004016330106113806 0.07608379481841895
-0.03902188818102075 0.004463401334679567 0.0754074466478815
-0.038399527671315034 0.004238158070537516 0.07588007793884158
-0.03810833149905069 -0.00012655200510862516 0.07603320542298056
-0.038004818712631144 0.0012891901109419806 0.07613895280816046
-0.037358590192863916 0.0012020175666282856 0.07638744181129344
-0.031141909917228726 0.009067905835602791 0.07462685091835346
-0.03089926743918999 0.00877806999415656 0.07466351001422768
-0.03127801435994688 0.010045767867957928 0.07452766910906483
-0.0317581845668899 0.00436830556523086 0.07498574497317424
-0.03357583922797986 -0.0092919342843218 0.07154121408907185
-0.033646415017223784 -0.009335962798989336 0.07145723146959554
-0.033664661750342384 -0.009370283978957419 0.07133187827419546
-0.03297573405692939 -0.0095018923677302 0.06961514358969077
-0.03938112496949728 0.012069678518395206 0.07413359404218398
-0.0395077228677181 0.011869080557596778 0.07386235388324214
-0.039130523668557175 -0.0073530405173870975 0.06870790350835376
-0.039681075452058116 0.013053835278583231 0.07300682251531102
-0.03950940596351081 0.012258810877486178 0.07228319431269198
-0.03311450293018271 -0.009611254445198425 0.06457090634846518
-0.032770381163581476 -0.00954532355140952 0.06434946695821199
-0.03836085895608796 -0.008889695470705825 0.07149130137955328
-0.03783971619550168 0.010625570948985932 0.07511858086232642
-0.037462106487083854 0.010710775785979485 0.07515418563884374
-0.03786032701533571 0.009516008512224781 0.07527794702463804
-0.039028348069957065 0.002770237647626344 0.0754144569525773
-0.01869652061171538 0.007398906853120064 0.07513328179266511
-0.018671246635208246 0.007540734764344088 0.07510584476799888
-0.01926498404512771 0.007217836980529947 0.07509894723875676
-0.018261080998954394 0.009822695864257122 0.0744965627531918
-0.018056214176799583 0.009582987745223974 0.07454960209850377
-0.017209244643136702 0.00927356540965011 0.07460810944253674
-0.028219025185611077 -0.007137982066904891 0.07623462113151279
-0.02953302370236916 0.008773605739605141 0.07474659650592473
-0.029336132217105508 0.008768996263749563 0.07476675042071315
-0.039603229319333064 0.014329857939145676 0.07166302211395881
-0.03970517171899554 0.013973684844423784 0.0714843409687039
-0.017303151739519216 0.00747412246636091 0.07515924529833558
-0.016956612040143718 0.00815203441897401 0.0749209453448042
-0.013956373611129069 0.00811025894569914 0.07509118612366816
-0.01363693732565729 0.008462240434635693 0.07502569367624017
-0.016134298969289827 0.009507556122790434 0.07457077802473927
-0.016155953209671666 0.01024064027824691 0.0744404817392152
-0.016347001555753138 0.010959124052343932 0.07431164072050678
-0.027386239163052127 -0.006889062076031944 0.07624398826010673
-0.02568107201359325 -0.0059565400640710295 0.07590205298382818
-0.01764811673973466 0.008212854606065922 0.07496122447615032
-0.018453381369764803 0.008621126749806278 0.07482247009191345
-0.018921810392282055 0.008552522633507902 0.07484715165819583
-0.01897728388508505 0.009775971861102968 0.07455647509457104
-0.01903498596542947 0.00941938640204877 0.07461735632608692
-0.01937852502265718 0.009501607712934035 0.0746650613114017
-0.03661765740067932 -0.008439389288009948 0.07399616316230734
-0.013438237641037033 0.009909064645903444 0.07465617012981772
-0.014084853819636223 0.01004695365679488 0.07455726055319398
-0.029450427498384214 -0.0017224734721664123 0.07582680458231858
-0.029201674102498274 -0.0013664143442957762 0.07578922116110813
-0.028823570304031435 -0.0017685199535279928 0.07581994846122678
-0.02933403217499947 -0.0011366811578262543 0.07577017848140405
-0.02625447319648712 -0.008952225502125256 0.07187665601468882
-0.025926547278960002 -0.009006816220764087 0.07189345309809851
-0.03267371115795121 -0.0018808946246458512 0.0759323307208779
-0.032489777735861036 -0.002271268494738737 0.0759517700024132
-0.032277043802566956 -0.0013937638684949068 0.07587895825117068
-0.03344163829283301 -0.0024069196818100485 0.07600575398274695
-0.03198830218466289 -0.0015329447549256952 0.07587551288390396
-0.03179845411961689 -0.0019458046599998618 0.07589628949931845
-0.0323711831150403 -0.0020795467147904476 0.07593250866881229
-0.035858958902907426 -0.008318153019241353 0.0742443641702568
-0.013232641506282485 0.00830680768700295 0.07501343230789563
-0.013223776022988737 0.009114216975554697 0.07488201214480487
-0.012478796418051191 0.007617313027573721 0.07498747534346129
-0.018654655693647323 0.0030878090584424396 0.07564221012448169
-0.017703758344201844 0.0034996396875723755 0.07543746795655648
-0.017630316475817406 0.0032434351780584333 0.07546213714732078
-0.015794184272815155 0.007175777805838299 0.07501449211731831
-0.015892065798690454 0.0060338367746456106 0.07523855771252304
-0.03885925264107511 -0.008299085071100977 0.06738725694362346
-0.01610366750942697 0.005779837611197472 0.07530152591288088
-0.017126689301685222 0.006896521446226757 0.07524828236419122
-0.028561530121688997 0.0029323892548199096 0.07563935701129156
-0.028235520685815734 0.0028801464949263196 0.07565276074749581
-0.026352323719225343 0.0025767036217473178 0.07567536497601123
-0.02599847422194108 0.0019967619847067464 0.07578839891579518
-0.028655096976808438 0.0016604925244741154 0.07586157605000876
-0.027285196335893394 0.00170131965950346 0.07581458631403608
-0.02919011254671378 0.002168475622638335 0.0757861276533772
-0.029656264841964437 0.003616044997583448 0.07548142430536228
-0.029473063128699968 0.002841966254938285 0.07564328707522801
-0.027632114425245574 0.002728039380446511 0.0756927654326989
-0.026866372717111717 0.00047645372003796876 0.07585921104873986
-0.018785831362674307 -0.007594094538088467 0.076332741137549
-0.011394541418382165 0.005490961133119497 0.07514686277742492
-0.010826839042311097 0.005385269944131738 0.0750822974675573
-0.010488443343795196 0.004915985007088251 0.07511260243418641
-0.01032649746687604 0.0052010406863480935 0.07504081439334442
-0.03096710173542151 -0.007652685423513784 0.0750945463843968
-0.021732035741090318 -0.007739014693915322 0.07649251440033658
-0.02226109685858033 -0.007600207728486047 0.0769251275563977
-0.025364097696919052 0.00273061127889157 0.07558112213059086
-0.02237635470873251 -0.007724098142626541 0.07660788332987932
-0.023105307034076455 -0.0077749256631736265 0.07618397430861013
-0.021618363553611672 -0.007316301994030688 0.07665411576722175
-0.03071977140811557 0.0010353294558157829 0.07542726830825865
-0.03038155699027677 -5.386134496057553e-06 0.07556381770275286
-0.020288297475495477 -0.00675306690543817 0.07626017414111794
-0.023938147190260807 -0.007735172502999897 0.075481406609889
-0.01976099043637322 -0.007014037997690939 0.07646494298673004
-0.023459355612915064 -0.00723797325998264 0.07622708967235717
-0.031289472132570335 -0.00923370639577349 0.06596878674725228
-0.024778004164150706 -0.007775300551317376 0.07607752306453694
-0.0251861210083829 -0.007326470129546244 0.07628152547903462
-0.027492174608054195 0.003611851518584978 0.0755511603484071
-0.03894832002645468 0.002359581589214417 0.07440674104015614
-0.039032367063517065 0.00392773736573216 0.07248452961403455
-0.03900594880553509 0.004230215704157082 0.07255728415203844
-0.021988481134103607 0.0043286384627022785 0.0754409372879399
-0.025304231355458055 0.0014429371137154316 0.07568235836495957
-0.036236207312364835 0.015056715028785195 0.06229379910224019
-0.03695203177447601 0.01499542442525827 0.062362271805380176
-0.036680100951243244 0.015004465436555758 0.06198189617005677
-0.03675072964430058 0.01500841713147216 0.0622374395085192
-0.021855028832574702 0.012936360264625128 0.07449534344817343
-0.02207563983225377 0.013583069633601971 0.07437540452573106
-0.031922292309271114 -0.009316854530663627 0.06682081049062998
-0.03155912176064625 -0.009452599423257208 0.06684107975222633
-0.03292721961583665 -0.009557777266516548 0.06536995186562557
-0.03345587533632772 -0.00964799820204679 0.06592325380739703
-0.022074022770906174 0.010395251883457218 0.07482791330316552
-0.02214783390633567 0.01020354193668936 0.07487199365851377
-0.024511212089079824 0.005911367479488914 0.07537937956883303
-0.02311775524417413 0.006098265879799321 0.0753514111395064
-0.023229127752502753 0.005634012189332287 0.07539065986994867
-0.0231021417354013 0.004646849720565765 0.07547083376789113
-0.033098909738851275 0.013060078921078603 0.07388886906655306
-0.032365241655365994 0.013900105257816476 0.07377158816036641
-0.032871884334495574 0.013362008376369814 0.07384572173975572
-0.022533643762543742 0.007330716872655725 0.07506529363639992
-0.02147935736449443 0.009315471975906955 0.07498009120069724
-0.0226783259769112 0.009885770111327545 0.07488754311267715
-0.023583377638366775 0.00021505181410462032 0.0759503076067023
-0.02316217622689162 0.0010309060327309725 0.07586343426627237
-0.022007269199252086 0.0013729262089649079 0.07585093181151663
-0.021538093766921753 0.0008927645421510433 0.07591958961492218
-0.021929060077373948 0.0021762637492650926 0.07575716443082528
-0.022508859470243194 0.002383433257366689 0.07571831628135428
-0.0218949166252156 0.0017021562706805268 0.07581446635625902
-0.023019872507043362 0.0023602958530522626 0.07570857975063741
-0.023211472157827026 0.0019096494135973172 0.07575756888851615
-0.020030641461097818 0.010122780154371491 0.07468798096454224
-0.020676682683805816 0.009847826099117243 0.07482932397877778
-0.019336096862617672 0.008913903651813774 0.07474124972522639
-0.03460508802333119 -0.009744389005148452 0.064194347757142
-0.03511452068277592 -0.009710290380053582 0.06390081744085305
-0.02409376807929367 0.0023814237250820254 0.07564203028239957
-0.02368555389977278 0.002066655724578857 0.07570882938303636
-0.02379142483046856 0.0017966672348031709 0.07573755717949829
-0.023669958357253995 0.002703603213280288 0.07562638532998703
-0.023550211158066905 0.003154189237378844 0.07557487397732786
-0.02128488991553748 0.006372735871686956 0.07523120264937894
-0.02161664308676574 0.006172128359636802 0.07530004166244027
-0.038542377325049726 -0.00769711918840376 0.07413684088776587
-0.03545841856135537 -0.009842435760758973 0.06666848572871226
-0.0361879782336316 -0.009944174314572292 0.06559795020874026
-0.03756356253852241 0.014962584311470883 0.06290863897642686
-0.037755808354420405 0.014930612913347132 0.06253952336104816
-0.03808107973278087 0.014911763751705024 0.0627961555577287
-0.037930232995636595 0.014988969444719577 0.0643888131754886
-0.02619893391493452 0.005515283114298502 0.07539441196964176
-0.02528505138465506 0.006186303019356069 0.07535515885490851
-0.026224286715941035 0.005569937278146381 0.07538927889081083
-0.026066351410335725 0.005645950623668291 0.07538588787461409
-0.018341596859117258 0.006461025889980475 0.07531087524200547
-0.018705382359517728 0.005984631741881021 0.07532815981624563
-0.018309183382287986 0.006142203142665301 0.07535183910447066
-0.03571561573330785 -0.0038637314021329576 0.07649879302368966
-0.03572034924844514 -0.004913865855935368 0.07665482129083126
-0.034995245393837214 -0.005383484456457239 0.07639970596573728
-0.02060190967974606 0.0019313162501772613 0.07574757689310173
-0.021313094951692504 0.0038030373095038063 0.07540488385255759
-0.022421393102475526 0.004030995221174672 0.07551502169420447
-0.02134727741301099 0.003287572234300485 0.07553345607554089
-0.030820250118812204 0.0035374302578889717 0.07536403918036597
-0.031541268907173986 0.0035984833175501576 0.07519065866457696
-0.027038499064290185 0.0038751961578403953 0.07550939626759115
-0.009735121623525689 0.004290919139664381 0.07518999039513091
-0.009719013288136713 0.004555171690310423 0.07510148249420075
-0.0314492206164234 -0.008206515658950418 0.0737254806043379
-0.020025947933464527 0.001707866867084336 0.07582930863953548
-0.029757826908830033 0.0045356506458484646 0.07540246540007622
-0.030105289863838657 0.005425848941002952 0.0752278295457527
-0.030175768053292647 0.004698962403623098 0.07531938465440446
-0.02451872852341216 -0.007762723605861318 0.0743532158013301
-0.020932754171661114 0.004328801477468901 0.07535561299435824
-0.014549170131685142 0.008353521993569698 0.0749948935401891
-0.026141458547449092 0.0005848810198251606 0.07578378086201035
-0.026722623644227287 0.00034484753555438444 0.07586222034534011
-0.03170985518684342 -0.00823686240499955 0.07358595373504845
-0.034217113203859305 0.0033178008191854084 0.07538762087943926
-0.03487366541599095 0.002151228881482855 0.07565925410833003
-0.0352482082937153 0.0027132071523704605 0.07565809013580639
-0.03520662378120735 0.0031750595404622475 0.07559154023654893
-0.03485729195834982 0.002429039219196938 0.07562084551014851
-0.034178744890600105 0.0022531635484955917 0.0755158293087311
-0.03769466413037163 0.015530956072012825 0.06630368864158917
-0.03771633299447937 0.01550595876046088 0.06616665415696507
-0.03902043185216274 0.014793250873283845 0.06709300797829408
-0.03872588211046887 0.014858770955729003 0.06817705370546934
-0.038576133367399075 0.015018013481012445 0.06800618122335646
-0.039324967629181126 0.014449688208622302 0.06770582982287209
-0.029792810237960272 -0.007616484194811226 0.07518192190015316
-0.03868830146963643 0.015063794256426077 0.06865689269167544
-0.038586308985853045 0.015373381840817421 0.06917376347457904
-0.02967163440179104 0.015045121724931054 0.07199407440838494
-0.03256623366579677 -0.009182266119513298 0.0708398304098685
-0.03265896779268978 -0.009428594794575397 0.06957351703278372
-0.03261746086711423 -0.00930924854365804 0.07019136584206644
-0.011303215761303066 0.0010684180749105307 0.07588015456971903
-0.011923669265135689 0.000990677418263104 0.07586334553506453
-0.030173100670743937 0.005986044258690436 0.07513966819764882
-0.029588215377328295 0.006548420981587774 0.07514520061999401
-0.032872030370224486 -0.005348667246933069 0.0760903908423598
-0.03389685098505424 -0.005272113689222995 0.07609595225317431
-0.03313371769086117 -0.005514061470126244 0.07609309201448228
-0.025317451350515153 0.0041070242394733655 0.07548033392929994
-0.025293275467753357 0.004053115991069453 0.07548402656133257
-0.024967363286974284 0.0052273727742761225 0.07542167970391662
-0.025166846811419778 0.005587651615542744 0.07539619679026607
-0.025418577754041955 0.013333161530924757 0.07454796968572679
-0.02582808635250053 0.01277447703685962 0.07462883723398625
-0.02559726721159081 0.012265609412477651 0.07470108251993968
-0.026059819239948552 0.01210279435413706 0.0747254516848645
-0.03572901795955619 -0.008771103386924318 0.0733305055237219
-0.03577056064803088 -0.009287738338533049 0.07237527116383292
-0.03654859384923266 -0.008598679538003648 0.07347223925299087
-0.026391304977803336 0.0038498396255466213 0.0754793302397763
-0.02522027578456992 0.005689753161683192 0.07539009009922017
-0.0261007268652053 0.005400545530268138 0.07540114291259697
-0.009475991573912932 0.002340624699133579 0.07608886705207109
-0.008660715383987877 0.0020114509220340113 0.07604272377112657
-0.03820374185548834 -0.008140411518745427 0.07443099128860621
-0.039368305451868466 -0.005639958147153823 0.07146273136461653
-0.03684021748391331 -0.009486849734185187 0.07105202039187752
-0.037176329436622434 -0.009206286147638406 0.07166259284736617
-0.02050505271997744 0.0025699002333747197 0.0756092343180278
-0.020228274510410368 0.0027290556666008732 0.0755900912679429
-0.015468247737376222 0.005539110061105416 0.07533974519555209
-0.01482980208380875 0.00449131116426546 0.07544792935310457
-0.014480845956330587 0.004486605731806838 0.07545299827873975
-0.01499374906495092 0.005369732218824509 0.07536215014569521
-0.036954761572127556 -0.008866448650466015 0.07277145389539166
-0.036092291089759185 0.015617050705735259 0.0668192962056553
-0.03619705755921289 0.01567098219998478 0.06702087942414724
-0.036866463838693325 0.01547145049998943 0.06565658865437221
-0.023425462863021527 0.003906819849069019 0.07551427491560211
-0.023807528909125113 0.004848564316155072 0.07545454451173601
-0.023314931728299793 0.004462410391543799 0.0754818223987001
-0.02356258919769756 0.003918123666527315 0.07551245878558766
-0.023662350026834953 0.003838312575703966 0.07551642496246179
-0.02076155176893484 0.005249732460981923 0.07535677855064998
-0.02083149760809088 0.00517111864237145 0.07535221565640929
-0.02058758185853103 0.004197251634754397 0.07536600839602865
-0.024540582194505278 0.0006964645966555574 0.07579993202003049
-0.024965572001289682 0.0006283126073407777 0.07573372687879831
-0.0252671704659131 0.0006758468211600784 0.0757111537931857
-0.025229676621858765 0.00031316433751181884 0.07581992860788214
-0.011861005296689998 0.006604293968755248 0.07503667210639106
-0.012455401454208643 0.00687721646784773 0.07510094069298295
-0.01325432345065582 0.007387970127147051 0.07516451199068265
-0.01220780800213769 0.006779337271155279 0.07507166467062748
-0.014228046565655293 0.003555154757417728 0.07554437186726612
-0.015217975796723689 0.0028407720387542247 0.07561908310243286
-0.015559070076392031 0.0020052908322823375 0.07579847848454924
-0.033213354094819236 0.01406779707972058 0.073720401248456
-0.033272468866308705 0.013884625141638986 0.07374911448763194
-0.022318362529449704 0.004122665746611252 0.07548446378495652
-0.0248181066421744 -0.009326318056307781 0.07116409240355041
-0.0247517865627861 -0.009313960362040692 0.07125517778253297
-0.023648334826701575 -0.008169542853290438 0.0735703153576034
-0.02398904611475653 -0.00852722940211373 0.07324031383967892
-0.03715034891548833 -0.008739109684791257 0.07326352541493533
-0.03410066447336431 0.012057568761917251 0.07402255386837636
-0.03412476434305358 0.013058330818997496 0.0738613190659114
-0.01854906383197005 0.005296747463765128 0.07541765873383705
-0.01759701468252606 0.006233996264482867 0.0753308851072511
-0.017574889988777723 0.006278804409005949 0.07532747299228165
-0.016402402440687806 0.005637021506294881 0.07532945731550632
-0.028817740716003057 0.004206212514806341 0.07546119934436063
-0.028618762727198953 0.0037390252523968118 0.0755005527349916
-0.02939391142022088 0.00504742427427703 0.07538233980810068
-0.03030652284150935 0.001712812269433385 0.07550886642675171
-0.03019925561789414 0.002953463352047322 0.0754853230740597
-0.030072842018588355 0.0033858616618569846 0.07550132339787391
-0.02684865586346702 0.0029199159165171707 0.07562833726032782
-0.03203681811072434 0.015636849421311817 0.06785936341416127
-0.031204551696142353 0.01555319054339473 0.06782540251317384
-0.03228853023273862 0.01566430760995538 0.06794689337864948
-0.03234730707939721 0.01568143514703734 0.06835128197661795
-0.016268448164123737 0.008990077373795804 0.07471994066978518
-0.01589849181850145 0.008781243725041032 0.07480931341736019
-0.03440766693709958 -0.00978655489466726 0.06644934213648208
-0.034316657462499574 -0.00969209342330542 0.06710623524677777
-0.024347835269527825 -0.009578614300027183 0.0696886600349802
-0.024104061608377796 -0.009516806433132609 0.06911550961903284
-0.03202339169431982 -0.009205429904612525 0.07030427824549747
-0.03233141035973076 -0.009370954508547021 0.06960180734762735
-0.030695211024154536 -0.009245366938479197 0.07004749131412387
-0.02903846594157792 0.006053754343166808 0.07529226991088983
-0.028849765635299625 0.005975304765122462 0.07532153957272147
-0.022221235911966272 0.013344000179140874 0.07443787754988332
-0.022686074937500647 0.012334801728309823 0.07463099544265483
-0.021890400155280768 0.012349941132605678 0.07460231860184305
-0.022468329151829558 0.013471013580855907 0.074423561381517
-0.027325819220096276 0.004922720040450508 0.07542305875446001
-0.027790363731746738 0.004552485813846779 0.07544844241419035
-0.027854323062540563 0.005310873779975522 0.07538929614603776
-0.02845546794352593 0.005900010800614005 0.07533629582101994
-0.028273844552906272 0.006639267721613121 0.07527228138261399
-0.03499246820597415 -0.007829860650912086 0.07550926308622591
-0.014361687707734393 0.007174008488625318 0.07514445910566359
-0.03656015649755749 0.015586032196345852 0.06842781815321292
-0.036474909920177045 0.015591356749537297 0.06897823308630982
-0.019734925258729823 0.006274465570592254 0.0752210117907525
-0.019436639927858334 0.006173793349160782 0.07523194283266223
-0.0192571819051711 0.005358876962454601 0.07535584256525557
-0.039335168423616104 0.00019110881834811348 0.07065819253734597
-0.0393274894071812 -0.00031084815083668 0.07124649058020792
-0.039220239529278146 -0.0045645242131773425 0.07175521723007283
-0.039562709822564573 0.004312365691038625 0.07066110109222958
-0.03914308411051852 -0.006774393879305924 0.0730464436253995
-0.03771575458048887 -0.008985457534865522 0.07196709717122074
-0.03970598884218444 0.0029594172433135197 0.0693305193385023
-0.03981350722702025 0.0033395495354762296 0.06875874523998646
-0.03979482202010715 0.002860322073757914 0.0688579236573382
-0.038907025995473146 -0.006266532421032112 0.07342218731946851
-0.03944582076463719 -0.0046402778039408826 0.06956409721017803
-0.03943400431393375 -0.0033041474318381316 0.06999342906409192
-0.039420650778302035 -0.0049062285006776975 0.0697473336089796
-0.03945068596448143 -0.0033502338250391873 0.06981973913655899
-0.0395820474443785 0.0032390183848010484 0.0697173953511837
-0.03955861847515903 0.0021986926961859044 0.0697023640322724
-0.039455440504164725 0.0024483200983804495 0.06998079589304368
-0.03848835160326293 -0.0015914271849852954 0.07406844752096488
-0.038514321497544586 -0.0015308899915373799 0.07430364896392543
-0.03933897505145238 -0.003569523035795453 0.07071868097153317
-0.03931953330934682 -0.0039849077998410955 0.07079089565214837
-0.03932248277687047 -0.005789044830197511 0.07048904600378345
-0.03932786148775678 -0.005580516128290221 0.0710174625865096
-0.0395919358544274 0.00464748182340598 0.07006525201463812
-0.03955924953540838 0.003900833003670438 0.06998989637898391
-0.039374951269683246 0.007221942178507742 0.07116925544200028
-0.03945733359161187 0.006821747107180996 0.07063425088628025
-0.03944090452226031 0.0070623448867079466 0.07032072854832994
-0.039184172203514556 0.001966148592881415 0.07095646259234886
-0.03918814346807916 0.0018580281000288288 0.07105046756386149
-0.03826995729866746 -0.0031843347357427007 0.0746397203901986
-0.03727736110318053 -0.008434765527947566 0.07461840351855878
-0.03730640732473473 -0.006440857113184991 0.07613545752940855
-0.03932133632365074 0.0005690085278428563 0.0709565813025156
-0.03947101810679249 0.0037006058083937973 0.07140447716268591
-0.03954186527680937 0.005824486642201456 0.07050285101346915
-0.037775819196099736 -0.005591610113967737 0.07516519363064886
-0.039443256635046164 0.003508019473073025 0.07101143661667716
-0.03928708227599397 0.0007845135460109966 0.0713333277430185
-0.0378282869433034 -0.004351034213105078 0.07599267220564256
-0.03744189991780028 -0.004168627707157517 0.07652231409944443
-0.037573536614220346 -0.003648202754301595 0.0764244092770325
-0.039133268194573335 0.0018492221166240112 0.07182579188959506
-0.03920227739656747 0.002239416314732032 0.07168272190712445
-0.03918969778161118 -0.0021950133502032076 0.07208867831331868
-0.03936261232516548 -0.0015845161159995238 0.07095869523600937
-0.03926411449225859 -0.00121671151555499 0.0717844080993639
-0.03927558485256327 0.005192576260645455 0.07204669451952671
-0.03947687992458559 0.004608666295080127 0.07150175533440911
-0.03928695243439402 -0.0027765650110592654 0.07124178124037625
-0.03917522592837813 -0.003118093557723204 0.07200303414883333
-0.03926196855458506 -0.002843784798438379 0.07141382705431307
-0.03903902183875402 -0.0005755822763411601 0.07258151777645337
-0.03905446809331342 -0.0006370434992446911 0.07253656542714185
-0.03566675808621013 -0.009838576068663445 0.06957836959763807
-0.035683391275130344 -0.009855443460422261 0.07008236597673381
-0.03531006798333162 -0.009802655265910083 0.0686632993754204
-0.03542156527472813 -0.009804434568366088 0.06866241101866438
-0.03925767716666696 0.007530704301097925 0.07179159465487904
-0.03945228342007784 0.006362089369372004 0.07139238530391172
-0.03917700256824926 -0.0042634437780408605 0.07162147422411767
-0.0383028676037481 -0.0015588024565707528 0.0756679492488842
-0.03892745189133606 -0.0032899844789134516 0.07285179592776768
-0.038907821079719726 -0.0034878041136394986 0.07267463695711138
-0.03895234444561818 -0.0006609482373197079 0.07282418157323088
-0.037747874120086046 -0.005563031461797402 0.0750298933950422
-0.038913417791965756 -0.002405418081621854 0.07301652757216057
-0.038590130970148184 -0.0026141247163105237 0.07374421200135649
-0.03872046406060845 -0.0024086582784019167 0.07344901830329649
-0.016102225652120706 0.0006773563406228082 0.07590150058630979
-0.0161011029325519 0.0003655311144228907 0.07591721821843116
-0.016144144797738746 0.0007933402924365221 0.07589557301904873
-0.03854558115122355 -0.0033951878798556276 0.07379595182798317
-0.03886320335157114 -0.003229578487836976 0.0730797663335199
-0.03919718105549888 -0.004373151988491654 0.07168174193176605
-0.03807303155097722 -0.004290734196423576 0.07424562907396491
-0.03821559618390638 -0.0037068249412853327 0.07422318059862296
-0.014333458943404424 0.007530258816259379 0.07511770900186078
-0.014574460888127333 0.007462618567700648 0.0750798817292982
-0.03488269371172728 0.009377557476903933 0.07471409720125143
-0.03534766938995719 0.0075843447159261845 0.07497598798811982
-0.034657031401657656 0.008553747743703606 0.07469990074586072
-0.03500815307063305 0.008006047055323703 0.07484391984953984
-0.02820431767730764 -0.008927499591297494 0.0708679577093958
-0.02760425202511637 -0.009042507588032472 0.07089286660468436
-0.032875077004050644 -0.007779210798148802 0.07429866020750775
-0.038424611634426266 -0.002020298224036839 0.07498303788352653
-0.038149303075811616 -0.004920706348498271 0.07409737677985895
-0.03865230772695975 -0.005242929296828154 0.07357452613015548
-0.038968067302170166 -0.005126807677698531 0.07298965545186176
-0.0215655257991786 -0.007402175418420279 0.07447274232686908
-0.02902736963662994 -0.008444531986245262 0.07318447359881348
-0.024461247100589945 -0.008282390670576708 0.07364499359903173
-0.024803679388965827 -0.008248566092371882 0.0737436939266455
-0.035127138161455566 0.010640514235367302 0.07448793733890463
-0.03540552958545489 0.011319343452231803 0.07429737929624944
-0.03515570951291033 0.010688227541512631 0.07447528113285265
-0.016558491030237734 -0.006201586783405138 0.07622094906207116
-0.016660507271721976 -0.006140122854089453 0.07616218452282261
-0.035436907441485165 -0.008520168173783042 0.07353990924946988
-0.020336894419804397 -0.007386083302709616 0.07648534548429833
-0.02335205327272713 -0.00906379179805449 0.07211081467555396
-0.02303135624852094 -0.008871302344278074 0.07228235234485669
-0.03799604968882972 -0.004535154255607797 0.07486560507792496
-0.0284967925847875 -0.008329232303905636 0.07335897705039476
-0.0399554759827379 0.007025338182525768 0.06874479523461396
-0.03976588720765664 0.0087547670799007 0.0690721223871503
-0.03981351651712591 0.007445351757205552 0.06905142586577763
-0.03991219550197503 0.007151161107293529 0.06883843739143741
-0.03779334854665822 -0.006493013373926459 0.07479398610631242
-0.03813770495484753 -0.00348003380228835 0.07566097266631455
-0.03809905382635167 -0.0029947786126117188 0.07576905452274033
-0.038251742757548245 -0.0008185709858998449 0.07589368502865812
-0.03803365602369202 -0.0016068737358161998 0.07607570780041577
-0.03776900691358216 -0.005415770972546724 0.07497350528648868
-0.03908312618846756 0.0001546524328032135 0.07232222905086227
-0.024493800458595474 -0.008101824332686572 0.07387633556394346
-0.025802330368110433 -0.007887794854999184 0.07421760874637229
-0.02619951938821433 0.014098554844487007 0.0740474359150084
-0.02694746923619132 0.013824232464238145 0.07425342670475044
-0.03844087245662543 -0.006043821656770941 0.07396382141956998
-0.0377705756584668 -0.0014450108250753644 0.07659524282201216
-0.0381908259085824 -0.005409412660558325 0.07409835200545285
-0.03359797549884999 0.00821611652944879 0.0745574364165082
-0.03356883421102409 0.007865188532850106 0.07454878808371361
-0.03258295417848915 0.007264559201047903 0.07442290902056947
-0.03282718779619595 0.015643950618217738 0.0660963499100843
-0.03326555351888317 0.015724372169784454 0.06728773708258715
-0.03337485398357852 0.015623054908401175 0.06603588038397111
-0.039884225832286846 0.01167889176580028 0.06877313040167109
-0.040008033178503655 0.012070765559219963 0.06834169937636735
-0.026606595823443782 -0.0073618311576053985 0.07625051602125917
-0.03722853935297869 -0.005883666013498242 0.07642945752558573
-0.03749161762323536 -0.005604791228555098 0.0761474124769135
-0.028566118978960678 0.014860419098913544 0.0727441948285593
-0.032354389566410624 0.01562304233945067 0.0591447402462334
-0.032882383474489754 0.015609728194270754 0.059351713588978956
-0.033191793712436225 0.015512629846050795 0.058552797507842216
-0.0233829036243904 -0.00944382831022999 0.06844155909354241
-0.02297228290271624 -0.009470959265248385 0.06749898566803535
-0.033233962289976736 -0.007624664578324394 0.07478716246555239
-0.035654160376238406 0.015728859807303836 0.06930273394354437
-0.035412170347350974 0.015775636140689293 0.06810796125552948
-0.032353699488136906 0.012145447659000427 0.07410658733863497
-0.03153993209564604 0.011789497277080984 0.07428045867202815
-0.031055005940509136 0.011707174583730929 0.07435912005331562
-0.03149849033844519 0.011743891869135947 0.07429459529874097
-0.03159284243253554 0.01561259204801319 0.06525351249242925
-0.03204731651800298 0.01561754747081789 0.06547734834505615
-0.03130443107116571 0.015632967896712504 0.06540677931576003
-0.03867108845876011 0.014889726110222485 0.06578750508335454
-0.009693822582343331 0.0011197962919968867 0.07609419057747696
-0.009169762893012474 0.0018543299159591601 0.07610211117003027
-0.03385496400156647 0.015523820324319381 0.06043411880687174
-0.03412067151008806 0.015495540312090548 0.06062939789199277
-0.03218579293027337 0.01574560601617893 0.060309325227115004
-0.033656818064405875 0.015502779005263836 0.05923649783083335
-0.02651935774519636 0.01021573698759437 0.07479526162067654
-0.027321655164981237 0.01059130564352713 0.07472741504666848
-0.025859159540126138 0.009680912182417505 0.07484566021836504
-0.03481602150653561 0.01593343445981269 0.06997949920824803
-0.03459209218804018 0.01594572858928075 0.06934257634642642
-0.034651952114113246 -0.00775030248303763 0.07408116228395947
-0.039329008469142474 -0.0059906589765104665 0.06883994735834047
-0.039379877148318795 -0.005523587959580922 0.0686571594307212
-0.0394781505645136 -0.004538893848362523 0.06914327321083794
-0.039442491586244285 -0.0048765991250902 0.06916656884248613
-0.030352057561261893 0.004193120114558057 0.07535587246685067
-0.03088253622885632 0.0046155188042968365 0.07514979115153547
-0.03962882162082857 -0.0022590914325278533 0.06947501786189919
-0.015866295379374597 0.007497391273717853 0.07496369575920862
-0.03944521322527218 -0.0010309630414173097 0.07021234812336036
-0.03944984542000739 0.0005106117218186422 0.07017390775921507
-0.03956629871664344 -8.841073286555947e-05 0.0697800616361789
-0.027389090818109973 0.013759537411186682 0.07428596466038538
-0.02795831581597625 0.013837829646829032 0.07430900464928716
-0.03963770165820693 -0.003058964507987834 0.06923154984965074
-0.03982729939728816 0.004837439245126087 0.0689480372646192
-0.03994300661338673 0.00539918697565144 0.06857076789338043
-0.03234846625576606 0.015703691152208057 0.06253611362328713
-0.03263395076826237 0.01559832031333538 0.06422739684976858
-0.033083360120134395 0.015658756025719672 0.06289907669951819
-0.032359984376788775 0.015632264385430923 0.06378891633636649
-0.030705285215548647 0.015754928134339576 0.06259276154699488
-0.033091329415549334 0.015601875737046314 0.0638974418257184
-0.031044621242715745 0.01576618290190927 0.06219601256912878
-0.03159027916278242 0.0012889013426009783 0.075307040801781
-0.03157864396004992 0.001580582541434072 0.0753002079848756
-0.03996775689558647 0.006606299063819046 0.06874476513667235
-0.03975802814303408 0.005721599628392281 0.06928643435955398
-0.03960193583460418 0.005307644539591566 0.0696759246457971
-0.0361970259763322 -0.0029203252782033754 0.07650352366013029
-0.03591348571302838 -0.0032729590035540717 0.0764846536589041
-0.02776609326547335 -0.0013983445433817436 0.07583014628007301
-0.027181366710434703 -0.00017737723376521426 0.07585159615610614
-0.027980882513191488 -5.303083147177553e-05 0.0757963001714026
-0.02795965865370021 -0.001055532654976228 0.07581223226178191
-0.027680959303192275 -0.0010738707221459578 0.07583114562263149
-0.037263686825430874 0.0055989451161212594 0.07577760450902772
-0.03445893026207941 0.004515034258616655 0.07518815614012683
-0.034634688066554724 0.0041889937123489145 0.07529900536859963
-0.034043472556648635 0.005036060550141604 0.07498524725557883
-0.034467101077518617 0.00495923751365247 0.07508454143345755
-0.03594615222649158 0.004360079162580084 0.0755914536937406
-0.03646268232136217 0.005659559781923826 0.07556754873959712
-0.03665724214135577 0.004950425224703069 0.07575074527153793
-0.03652338292093893 0.005420718760440068 0.07562752610622808
-0.03924310331024711 -0.0061512963788704165 0.0725761168774951
-0.034542573175548374 0.015124724212562028 0.07194533628765422
-0.02497042107470131 -0.007827805298985129 0.0759539459875748
-0.03325140960527843 -0.00010825542972335892 0.07570142550054956
-0.03404782687899584 6.522132445958074e-05 0.07577152134950145
-0.03374088201499764 0.00024941367006844526 0.07567316076603796
-0.03430609587897081 -7.517315688916681e-06 0.07583091115780749
-0.0317919836920739 -0.000660465015275442 0.07563956459713742
-0.029975541228905195 -0.009495320036006737 0.0688373423191225
-0.030199099949879644 -0.009330875585779068 0.06969627902420222
-0.024763831783588798 -0.007514219134264981 0.07526066287249022
-0.01491448115774053 0.006151048538291112 0.07523175566005788
-0.03443040727119866 -0.007597836269170519 0.07702044182027976
-0.03466598006550578 -0.007832242229884554 0.07384029981448786
-0.03194470013117291 0.005602604161664014 0.07468692188350028
-0.031889181026477476 0.006089300594925282 0.07463101234155815
-0.03144103889915617 0.006122186840052796 0.07477023484320906
-0.03138294635494137 0.014597160825775723 0.07325358937018894
-0.03022902261287288 -0.009503053349319633 0.0687381667990511
-0.03041625590560007 -0.009625915923096877 0.06815568345564249
-0.031112519403174478 -0.009544780869485917 0.06865789809466195
-0.03136451525699876 -0.009432795255224686 0.0692494147629705
-0.037402894811015934 -0.00951095876562193 0.07040482252092328
-0.037498491712331126 -0.009536905951750269 0.07024042172352543
-0.015676833288455063 0.008211003668859249 0.0749421032111761
-0.012937929712836175 0.005388543479490857 0.0753308286715707
-0.01263662543137613 0.005671153696706354 0.07530812267860743
-0.013049647412322141 0.006211794104079757 0.07528280980895548
-0.012389215733662579 0.005377182782913139 0.07532146823000321
-0.028084640270230766 -0.008288244108729265 0.07340683207317858
-0.027842678462481073 -0.00826834581876122 0.07342429925401173
-0.03248625354355947 0.014451144890635825 0.07336181506878635
-0.0330864087141583 0.014810705862781309 0.07291640238521153
-0.02958581551896187 0.00027794873168035815 0.07569207428271192
-0.029940696996341734 0.0015194538438372508 0.07561088820375417
-0.030504453510955605 0.0012557890137424067 0.07546019931031359
-0.034826749629738155 0.014383496709049828 0.07347670466496711
-0.03837945104044738 -0.006542974793149902 0.07418987725076924
-0.030788938207262584 -0.009086668295348077 0.07061975519435781
-0.030888481733319133 -0.009185092580773494 0.07030562022252415
-0.03141717322002627 -0.009036102104725503 0.07091645454632123
-0.03420786607231876 0.014261907601440891 0.07364544387656423
-0.0336356014864828 0.014247213803983052 0.07362891255783313
-0.034013420052634344 0.014743858525296666 0.07300959276510258
-0.03336687709025439 0.014867937676848368 0.07254129710117418
-0.022035170401889015 -0.007243630624001094 0.07505998913114298
-0.02224631296983668 -0.007376403090450073 0.07467531357691175
-0.039652710082521886 0.013922468670494535 0.07090188661817887
-0.03833452351954262 0.015349030634261965 0.07050832281524909
-0.03963861613399294 0.014004983988303198 0.07002786333285746
-0.03926043285637537 0.01484984946594696 0.07099604736208408
-0.03774942738478407 0.015594280606339939 0.07032583931736525
-0.03921555102853938 0.01471485828983159 0.06967983891858213
-0.03461901746849866 0.014548899477389007 0.0724487227320629
-0.03960676546552735 0.014618606798003893 0.0720942129090983
-0.03144371464607063 -0.007734319092602195 0.0746271518110655
-0.03444885144724925 0.014979529825942646 0.07206664880762524
-0.030505048932830545 0.002793727733181114 0.07540941621909192
-0.030859313145558266 0.001590061696797347 0.07536994264288079
-0.023736155933613036 -0.009532242418946126 0.06935649990636894
-0.02762441767500092 -0.003952392372009336 0.07589139024153907
-0.027571875756715557 -0.0027427589029959372 0.07585591580407638
-0.027440931368684453 -0.00520915647678834 0.07591419402171234
-0.02552341988407775 -0.0053071042895586245 0.07580363072602075
-0.02717271833498841 -0.005324175644552746 0.07590144047706529
-0.027796979130883897 -0.004564018468346648 0.07591794476288223
-0.026420350426233412 -0.005423579555809948 0.07585969089376168
-0.027476638601096 -0.0044305082912257905 0.07589546298130724
-0.028020943590834436 -0.00503325447413715 0.07594372269825934
-0.025470616435599225 -0.005224726330903601 0.07579830924897274
-0.026902884532022636 -0.009315851414018226 0.07028663054603619
-0.027122062023419016 -0.009259966769601044 0.07009232835597567
-0.035124786657091095 0.01564833016294118 0.0666827626728806
-0.03584464448934844 0.01534270288234888 0.0652625874139285
-0.03574578743112107 0.015522676553026265 0.06630405799045128
-0.035780635407540104 0.01548539992349411 0.06609741812231015
-0.03441638019832537 0.015503208545522512 0.06534548900728755
-0.031048495085479216 0.01567373351752136 0.06592983204954249
-0.030578364076196865 0.015544616489573114 0.06708215595042168
-0.030982033204512063 0.015585958073967227 0.06698567310050282
-0.034907941655173844 -0.00984135779357095 0.0662036072224732
-0.03454302446842512 -0.009861645505231862 0.06556698384214346
-0.03610172839825174 -0.009835996986830001 0.0685862336553168
-0.03650876748931543 -0.009953124675688074 0.06576550975731793
-0.03584201672606357 -0.009835367463775686 0.06774898388203657
-0.03577696696542623 -0.00983756231413201 0.0674555631127426
-0.03638056395296398 -0.009882158283189342 0.0678665187346756
-0.03634941100726165 -0.004806954845896324 0.07676151310865037
-0.03649190281060387 -0.004539585128479679 0.07675041046114124
-0.03248122230342766 0.01583229939322897 0.06988936103147386
-0.03217428036026705 0.01570191719329276 0.07014768363660218
-0.031080835907991645 0.015056677875823233 0.07198874222443044
-0.030954363676015197 0.007336709427571864 0.074891718596701
