0.014900832881598899 -0.009135649084266742 -0.09094169792559861
0.02072090799057299 -0.0023124453618866897 -0.09080796664308395
0.025480929013160233 -0.015134083727788787 -0.09065456798439188
0.02909125136516421 -0.01335727236184474 -0.09136548890656851
0.023940113915068856 -0.00266212613428248 -0.09083918008860739
0.018297232495310796 -0.0015099842548603154 -0.09089166972014105
0.02403751144013239 -0.017218645551771942 -0.08641778352556065
0.005604059861189699 -0.018689974208860517 -0.07770937670469993
0.006163849238547296 -0.01865204331157486 -0.07778801613817489
0.015832190166735007 -0.01836285874005886 -0.07923651043350968
0.003083438552115582 -0.018239912773407346 -0.08244103064128189
0.030330392989798144 -0.0060418039579168 -0.09084827589814565
0.02451306241930948 -0.004262810179186669 -0.09079506168745045
-0.00482046170791846 -0.019272333820109896 -0.07254594235333033
0.0008067314977668375 -0.01963590599357838 -0.06685989209898242
0.017822366633366775 -0.016546944909806283 -0.0906636395766506
0.017298264718627793 -0.01828037450147125 -0.07847919536713252
0.016173649570687006 -0.018642022486647293 -0.06977599354419518
0.016088460843657452 -0.018786624329770928 -0.06816468099972207
0.01648195967168571 -0.018611507716571416 -0.07002525154810367
-0.002724234455949422 -0.019750503926374632 -0.06753837625628646
0.007312152460364898 -0.018944624138859785 -0.07153901220890937
0.026288229204162322 -0.017261863318340037 -0.08809332065469747
0.020331513647470642 -0.009383864621446211 -0.09092923656417332
-0.00020431274963031556 -0.01650753094316352 -0.09034658966690495
0.018511058934799478 -0.01671179457006619 -0.09003516265503875
0.030786433324904258 -0.003940209458347594 -0.09068904932699978
0.004709917680460685 -0.007160117264016091 -0.09087860238662582
0.021602804355301135 -0.003547566570493768 -0.0907138914403841
0.02394981479211974 -0.01807729025295992 -0.07764058495686543
0.023229894964510965 -0.013220693827286035 -0.09106030691441648
0.02703198800183243 -0.014170251961081936 -0.09104719858181784
0.02009474331606962 -0.004254774171729625 -0.09090109467274693
0.007982922098721344 -0.003994708917920404 -0.09079684568954266
0.01871161326346285 -0.016611689566470123 -0.09012394818153338
0.024094992769332094 -0.017179153382517534 -0.08656733521081902
-0.002309588338707574 -0.01706456410049274 -0.0897439620860678
0.02488712463090862 -0.016888161088792944 -0.08848820005115127
0.0031564036523183733 -0.01823365611865521 -0.08360459937352528
0.003667010532238626 -0.01864692486128415 -0.07894660029816294
0.018823655676399157 -0.0025068883353057286 -0.0908971170608728
0.009856719052178784 -0.017203988037014527 -0.08947023978648921
0.023307797637556582 -0.01692427435083865 -0.08877628566995768
0.02232026922596884 -0.009085272305911916 -0.0909470428430306
0.01199743953745627 -0.018621718685349797 -0.07452917217016818
0.012375138309051424 -0.006374676884024462 -0.09081402644894852
0.005817450524014096 -0.0182169919687202 -0.08321592202460337
0.015688146307657573 -0.014453860603485724 -0.09112822153726437
0.029359333699359468 -0.003970193520584028 -0.09098018036753766
0.020409364780604868 -0.017084053742361015 -0.08900679633187047
0.00888649006435651 -0.014310673290254707 -0.09130068696510829
0.02896315470227063 -0.010185834590795176 -0.09084016146045584
0.012511441529037373 -0.019002443449436312 -0.06434205118845532
0.004956737461648583 -0.018282731266350407 -0.0818073850997924
0.0046279591139208685 -0.01851320410333534 -0.07898807359949443
0.013479580588301815 -0.018297021906239695 -0.07952270793820054
0.010218043194727723 -0.018226575325369143 -0.08185212055663267
0.01568998214921241 -0.018352782713565587 -0.07931191903758787
0.018472611576122032 -0.009805131318014448 -0.09096442888951857
0.021387155622964685 -0.01796350132946747 -0.08239663550449956
0.019731821298530183 -0.0036355550346693836 -0.09087749391134103
0.014604313176107935 -0.01839087671604682 -0.07845628539393733
0.013086246677879219 -0.018967148865694585 -0.06521548666615351
0.01813365605932971 -0.017263184704975457 -0.08853340843854318
0.01836116216296581 -0.002811739329258439 -0.09085923682432744
0.019732966232581493 -0.018185947182929964 -0.07648259514370347
0.014952976214155042 -0.008346807718354287 -0.09089162229564085
0.01690735763252834 -0.016973224326113194 -0.08985202011231219
0.00717720440566714 -0.018905134603177602 -0.07295313561099792
0.02151788663421393 -0.0036998239835062292 -0.09075755206816502
0.011495368689721827 -0.013682784273141185 -0.09108988980715002
0.023315421003410636 -0.012474081050379058 -0.09105279628640003
0.012027943959687135 -0.018318917873295024 -0.0795839502612963
-0.0011190391146672996 -0.019774723093663064 -0.06655122915846699
0.00649821409065471 -0.005696056336051504 -0.09082819918759011
0.010567517141772618 -0.016910289426709576 -0.0899040171818719
0.029201203106948653 -0.0028045044989100892 -0.09081151690849655
0.03242072176315511 -0.011532762110349593 -0.09122888670993926
0.02352306307981614 -0.0008755371149704686 -0.09079661204222474
0.0014323557782474875 -0.01892473485297761 -0.07431200165043565
0.03001397497237556 -0.014124425963547503 -0.09079975719948515
0.0122937265074501 -0.01895679051142396 -0.06752905612598473
0.01884460866907498 -0.00186022762742153 -0.09086267440791977
0.018787998791207135 -0.0185139061980027 -0.0742461124515771
0.006098998199777308 -0.01490229167572301 -0.09104744997200964
0.009043140128686468 -0.012376730724474615 -0.0910669261122472
0.005800764026233238 -0.01949097084542432 -0.0686174003720255
0.012491331476626592 -0.008345917624966528 -0.09089845567576854
0.009190412226873416 -0.011111852304807488 -0.09097332311606078
0.012184193641832554 -0.01863399511294007 -0.07437120327623231
0.0026823299222315023 -0.01777556833718296 -0.0873044804864107
-0.0015870762253937108 -0.019257748500928967 -0.07073943126129398
0.019981977086357242 -0.017950448063387858 -0.08166238705654297
0.02473853609883387 -0.017777108953200935 -0.08235437085239444
0.02394904809926854 -0.0005170665160289812 -0.09079671075023346
0.012625599765333577 -0.013567228692997835 -0.0911864798142845
0.02369109521818847 -0.011247512405862716 -0.09111379699249231
0.003920602596782042 -0.01973406457615699 -0.06819557115243202
0.024956128557082905 -0.0009661714654517389 -0.09069634794750936
0.02784106404527143 -0.012364350759334775 -0.09098262177374136
0.02367912529984912 -0.018040661925253797 -0.0789001104924546
0.028797187068431818 -0.013298281646338984 -0.09130207713011504
0.0050541955083957145 -0.01065231521864571 -0.09113191982104474
0.018605081058861366 -0.0179376176606324 -0.08482607998650543
0.022621511735600855 -0.01398149798103364 -0.09125560731646935
0.028691741791334678 -0.012817123000522491 -0.0911141297613019
0.0043135742221131835 -0.010968226455504455 -0.09102178298788924
0.005367029229021304 -0.011028333486536934 -0.09115198530036796
0.008358266542465345 -0.018173089633541875 -0.0826022362077889
0.012358238204136226 -0.01901357178954837 -0.064231876778827
0.013475477531141512 -0.01759070999914872 -0.08668311976267218
0.01325896598680075 -0.01758478748253836 -0.08683268973047799
-0.0007104509547540979 -0.019475526288538998 -0.06880601276134686
0.024547082600359343 -0.016325938312766 -0.09032948423947501
0.019183074265116142 -0.018419665381972004 -0.07492644338079896
0.0012821614879281918 -0.016901115312105093 -0.08986000806224413
0.02465600540547958 -0.017741098833693826 -0.08296731903440627
0.014887313448114127 -0.018323095032010704 -0.07943454303501789
0.02279935714087691 -0.005351137939886403 -0.09074514802635963
0.012709702921706308 -0.018814197561080985 -0.07119228324761191
0.011464390082176652 -0.01804050811877999 -0.08218326013709618
0.02335608326821501 -0.005074584566327506 -0.09078781638245739
0.02550535120974293 -0.018018587990834653 -0.0802236251276067
0.007021097726462733 -0.009724419912115265 -0.0910169988320201
0.007445230652467475 -0.01924826619585914 -0.0697870131571982
-0.0015798923276999321 -0.017476722368211833 -0.08828640848441995
0.004314668509760169 -0.017029431303270576 -0.08830056059903793
0.005185679665782355 -0.0056735155814172196 -0.09101936885355454
0.007331365756910169 -0.01938451148245402 -0.06762568757475415
0.008068172145303365 -0.019409672557069907 -0.06679281106777368
0.020761069686734728 -0.005030015089744036 -0.09081194450871208
0.020509955210244783 -0.018307090160283902 -0.07581867901116396
0.017231413443885374 -0.018125258075409198 -0.07974919728391025
0.014272873171596548 -0.017039857819229974 -0.08973790235578644
-0.002292542114787318 -0.01945952769898974 -0.06967396105848078
0.013593609093508327 -0.018789735430616038 -0.07098330014864679
0.019261939053566005 -0.01779168424394777 -0.08384190025505572
0.01784284724703351 -0.018102721359216485 -0.08064597000996314
0.018308016721608672 -0.018073901050190976 -0.0806541426508997
0.01592297287351527 -0.018187709062286322 -0.08037907854381383
0.015982614619484463 -0.018114338903395182 -0.080876135242641
0.027113098034662338 -0.015386617270645588 -0.09084955550125831
0.011367134928366598 -0.018351854334027615 -0.08029825905787064
0.017996322972044714 -0.018020381909098077 -0.08132756134710045
0.012305860617030342 -0.018287493081832334 -0.08018997879771969
0.018757406306941733 -0.018174403372448533 -0.07923696904057177
0.02761426559306139 -0.010016699301954483 -0.0910116869601044
0.007819875432470272 -0.004393828831370605 -0.0907669549563879
0.014244295574049468 -0.018136842976472767 -0.08134322448848019
0.012240513184045445 -0.01823755728470146 -0.08093143387317764
0.0188929332441838 -0.01809015295584908 -0.08001358614644219
0.0006328627441851085 -0.019363026593235157 -0.06978026741389878
0.00038597107942418645 -0.019267198026590097 -0.07070241679696843
0.01684332111409431 -0.017273923383977846 -0.08886497549598901
0.013182313743797271 -0.01815063140576879 -0.08182574783557707
0.03085038314694887 -0.010659574678990518 -0.09085035368366351
0.020689910418813125 -0.01549989878109453 -0.09070063014917373
0.012761712310859995 -0.018268154348277207 -0.08100620990637163
0.01326917072121034 -0.018226583739215978 -0.08138116736327232
0.024408296863909187 -0.005938799836217649 -0.09079454727422408
0.005249833351283095 -0.019580334938938848 -0.06805844703242483
0.03048490083287931 -0.006340624400529599 -0.09090976560161129
0.012053201878631762 -0.018796521502365604 -0.07059744609141931
0.01048564600508006 -0.017837135159607623 -0.08595688069573854
0.023932234831075677 -0.017917899570425923 -0.08084143999003277
0.010030233014094829 -0.018928245092008095 -0.07037438227316771
0.00840984896167543 -0.01917407672297566 -0.06954916238572645
0.009925203531714211 -0.018963967537735833 -0.06993111383572809
0.026187233042834233 -0.013898238075210723 -0.09137506435715166
-3.593607125207052e-05 -0.018016955716795922 -0.08706224932131824
0.012682412934340066 -0.018014870979556192 -0.08231756120475081
0.008778750901547401 -0.018581044750180815 -0.0764518829953479
0.010115157268950754 -0.01877839782055818 -0.07275664911957608
0.020049176569877678 -0.005857417899437948 -0.09088297894317293
0.027979269636292537 -0.006774561151030431 -0.09080985083267014
0.011564548306614613 -0.01832854931566538 -0.07847594316254176
0.007215802147341101 -0.017374814293084108 -0.0874755988788681
0.016813258262063965 -0.01859770116343414 -0.07029076745717314
0.01685688056541085 -0.018714427684931232 -0.068812041548525
-0.0007172901547806126 -0.01698836708471051 -0.08995750180461495
0.006524602128650716 -0.01775475169170412 -0.08662686233879582
0.033039684607840396 -0.010842896665460119 -0.09164662448303004
0.0058315635291536815 -0.01881502841426777 -0.07427128111085118
0.0013849111770658483 -0.01808862259284682 -0.0867237535471821
0.015372173694204532 -0.018477859592450574 -0.0734005118354161
0.009676393825812073 -0.016011711999178467 -0.09069874782414823
-0.0004036847699699399 -0.018998693978025824 -0.07307048893231587
0.019361726311936563 -0.018179847088687646 -0.07742616685265324
0.027430972800135227 -0.00883022668195048 -0.09080146540566808
-0.00027755897693734283 -0.01920435949685251 -0.0711064584225055
0.009353506451422654 -0.002900395104141636 -0.09097546552162684
0.007553150903090539 -0.019306660190487115 -0.06850761187942318
0.00701947057271363 -0.01936141028483978 -0.06869415936321428
0.014509272485450387 -0.018522525115291986 -0.07470051869556575
0.007736669477170853 -0.012940460787507402 -0.0911205124443834
0.004738334176139119 -0.011585177093376638 -0.09111914754452245
-0.004403352732861717 -0.019116177747569227 -0.07487861971429201
0.02183497250129036 -0.017894452024782247 -0.08137443413501512
0.02324569111787424 -0.017091288129610364 -0.08591424089942674
0.02293072672509909 -0.017810598220095987 -0.08229656090708728
0.021968601027048156 -0.0063628122479521074 -0.09091006787094787
0.025516592023300057 -0.016533652971652768 -0.09031383428679035
0.021308720658316797 -0.016918997389614658 -0.08954388614270509
0.00916393272977536 -0.01530548862040141 -0.09081962423598676
0.011960642047420492 -0.018002036308067133 -0.08218093982348243
0.023159221855900275 -0.01681207390727048 -0.0873554714795268
0.0029950477262433214 -0.019621779674145776 -0.06910473369501029
0.005890452467541684 -0.01895973643230823 -0.07183606540079862
0.007824604215201413 -0.01839912930237983 -0.08052607599182995
0.018793742648618494 -0.014566252226551718 -0.09087712706906038
0.010218716631250638 -0.018920036135871125 -0.07030462020694209
0.02460729267985482 -0.01775430197067972 -0.08258013828953051
0.024649082787509807 -0.01394658582301178 -0.09131068107933207
0.024906132109286883 -0.017970989606105832 -0.07835662266642418
0.020689662608124576 -0.01798964373566305 -0.0810802076993625
0.021673334598475442 -0.0011844618728707739 -0.09081822631065928
0.021621501695805147 -0.011060977933534367 -0.0910933488720461
0.012351576994650023 -0.017718885530585846 -0.08635481774093873
0.0013279311972749857 -0.0189383922420396 -0.07511206147916917
0.013069211699289304 -0.012248863685557741 -0.09104588987180813
0.014645341470500874 -0.018569747450865478 -0.07419914641218099
0.0077914211691654 -0.018549517890399034 -0.07837935802759932
0.00036468081005247116 -0.016618444142056328 -0.09029585682770547
0.011575996350265124 -0.008634072285637309 -0.09088452427975205
0.005176036334815825 -0.01813120565959684 -0.08332298068236198
0.0115044500417296 -0.019118204888090802 -0.06716823746234242
0.025078253164428112 -0.007993281638818427 -0.09091979421805521
0.02271233699097537 -0.017886997063164916 -0.08153309355169244
0.024386499275976994 -0.017803752064469495 -0.08151561573408533
0.02145307597322338 -0.006455146776947569 -0.09088071637396795
0.01785586108153342 -0.008077764584335964 -0.09090305429799111
-0.0005101045505962892 -0.018144025902234948 -0.08654750232780531
0.010031286379364557 -0.0178663972144726 -0.08609601100065649
0.025031064302257523 -0.013128625231299791 -0.091050463261276
0.023743801950910734 -0.011946886346834489 -0.09103391134007222
0.02619889697401265 -0.00560062020841591 -0.0907883386835784
0.007941827369776498 -0.017887864244334136 -0.0858810961171729
0.022306610453816888 -0.001560573595477487 -0.09085453543526367
0.018231572090868953 -0.01793181397485001 -0.08189688299071841
0.02423967895503657 -0.017901295564829226 -0.08078465934019481
0.007976732913181472 -0.007426444977591186 -0.09077206934734572
0.01761786461083555 -0.012978314014382777 -0.09105465684316902
0.028474671252500125 -0.003657630247553053 -0.0906977497927805
0.0010314286079430223 -0.018790932244888852 -0.0764466306445708
0.017597758327848486 -0.01804916456136003 -0.08131344439962089
0.011323660683155046 -0.018257834828711156 -0.08098378025947862
0.010177697335949651 -0.009557914083275686 -0.09091079212555542
0.020879173175261737 -0.018136539223353187 -0.07811234235316986
0.022980182276111094 -0.017943900001623752 -0.0806160581506114
0.004519797924325501 -0.018161292662019192 -0.08392242427764984
0.004145765054684515 -0.018843155858870458 -0.07302412458685917
0.003239061901149927 -0.018290374246872774 -0.08625863753939517
0.0176454786117473 -0.005363143794776938 -0.09082899749385648
0.0062902347787220985 -0.01926555835511823 -0.07010560882143593
0.00037891496008372395 -0.018973440578301068 -0.07327072205595705
0.013072386800145516 -0.017280347658393144 -0.08862995641995562
0.01692072776448371 -0.017907672158345326 -0.0831961199560803
0.023472032023656476 0.00048701887469717133 -0.09079964701903773
0.015645892878114437 -0.01888348518108623 -0.0639123545098869
0.01209222579378997 -0.01402895157614334 -0.0912383694810739
0.018226161927751127 -0.000340580228147366 -0.09092362568387864
0.023995492171986293 -0.0074007317610426 -0.09085589315772799
0.025000755990620155 -0.017362309677384287 -0.08658913879016931
0.005585292050557276 -0.0182940761605151 -0.08135430634630483
-0.002303103251485185 -0.017212221515082442 -0.08839840263657023
0.016630762845104292 -0.0027084424195492124 -0.090839198083211
0.004700692461421135 -0.013275294472563107 -0.09114519608873298
0.004986196317067979 -0.018206144613434515 -0.08531155383946215
0.006289600095626246 -0.01368258703534227 -0.09119888953514614
0.009009554565192902 -0.002470134132830901 -0.09094037481218474
0.010498879523535233 -0.018595925426655828 -0.07530789570620564
0.008022130398774415 -0.0027119151373801303 -0.09078046265782178
0.011525140667857087 -0.01605300982699647 -0.09065449017032401
0.02665533846136984 -0.013673204660309926 -0.09148201396582512
0.017837550264900026 -0.018252238662124984 -0.07840243765047364
0.01874721648209475 -0.01823513082542247 -0.07623011358489229
0.03277851565470707 -0.011601538505960112 -0.09132995528415697
0.005164424136264149 -0.0075728546899376655 -0.09097788854198548
0.006863774788643195 -0.018252347435964017 -0.08253617679387652
0.024451447402862467 -0.006693764509143342 -0.09083650911966877
0.01416949634195497 -0.01751368317044229 -0.08765724323305536
0.024311751040915743 -0.010183886629010343 -0.09092837792408559
0.005759978684705505 -0.008905638663693548 -0.09117318463872678
0.02454332692135143 -0.002169426262391321 -0.09078022546539545
0.013580694286868828 -0.018759739915301134 -0.06930431661480393
0.014975978860871122 -0.018593896282348817 -0.07223654832096435
-0.0016828285663669285 -0.018911363965556958 -0.0750871963539688
0.014118320213269031 -0.018746155722352977 -0.07095451105198701
0.01851265236912332 -0.015945959239896966 -0.09065333834832584
-0.0013119268628682043 -0.01898760297060423 -0.07374392256596492
0.013162779642553067 -0.018799033291268853 -0.07148130190659631
0.01967896195880331 -0.0083152958706865 -0.09086668528939423
0.02195846588645405 -0.01435122760004452 -0.09072522732159634
0.018861536720273683 -0.0181878130627156 -0.07667992963078621
0.0232867012365226 -0.015636002795576264 -0.09075647986068267
0.029415805835403062 -0.007964261840291021 -0.0908251036208269
0.011619227876795157 -0.01870350698596944 -0.07293070349319417
0.03268616366774049 -0.00731438870508204 -0.09088885016892809
0.028958539928327198 -0.015586783797619175 -0.09085546672828848
0.034027093124818476 -0.01063750364807753 -0.09209570540579029
0.0004301720209857581 -0.01836188510314264 -0.08164178867622963
0.0049545788863629816 -0.013728766136969685 -0.09123291675597578
0.00676840238239998 -0.009171257272330802 -0.09092299477301263
0.02583460319610384 -0.008369176119901674 -0.09089531934280747
0.009528954623923365 -0.018433412852897964 -0.07997069408218133
0.023035993029796756 -0.018308549344548213 -0.07590647511180607
0.013345831592507424 -0.018401004862219402 -0.07591193980399097
0.01600294344003669 -0.01882144779082463 -0.06710442002124521
0.00718480097931787 -0.015404251931116523 -0.09066071012951894
0.00018308279636986173 -0.0195877594611626 -0.06784762531652735
0.012137139637645306 -0.018198383813306865 -0.08136889711093848
0.001486440563007226 -0.019587904608895142 -0.06842102180481828
0.0009158034988755166 -0.019528453323214342 -0.06839212005286348
0.026079280885145138 -0.008528559124394824 -0.09085484173822139
0.024210937882102553 -0.00968233092766251 -0.09088697717432409
0.006432885916531773 -0.013397019642292254 -0.0912235118021843
0.004204391569301903 -0.017218383670326454 -0.08798023513536263
0.01918246653105552 -0.0023002064666223956 -0.09091111783979546
0.011929024623810108 -0.008328646814912511 -0.09089885264427537
0.013267676168566618 -0.0183475533420117 -0.07727698593412971
0.015063795921998167 -0.018855313264594227 -0.06475621692522782
0.009007154564344285 -0.016856333814723744 -0.08994258696024147
0.01562263469817753 -0.012739529277265217 -0.09110364271767155
0.03282508017239645 -0.007212979295291034 -0.09088964607691338
0.004873875040219378 -0.014182794336174098 -0.09129301760215677
0.007201738675042581 -0.01579610671218089 -0.09075513885669421
0.014523717772513881 -0.017737087104604088 -0.0846907841639198
0.032078308267733384 -0.011008463311638033 -0.09119198232965935
0.00508332273042356 -0.019218834685361355 -0.07032105183725312
0.01587510490050104 -0.01860547423098625 -0.07195478401622464
0.012225454732349633 -0.015430936609993527 -0.09083825511491417
0.009724445494296352 -0.018496469158954282 -0.0788902445760525
0.03393775831435024 -0.012809176248361427 -0.09167660571642577
-0.001878570819492369 -0.01785780253164533 -0.0874372560327132
0.009133138931346683 -0.018831289679699676 -0.07287637199212361
-0.0006934400253165672 -0.019618141828059397 -0.0678398710464823
0.020391226687664618 -0.017458224847410882 -0.08589140278672253
0.003605867024206638 -0.019082764281298344 -0.07145477674700845
-0.002636602698560965 -0.0189909326835921 -0.07405190205809709
0.0318014325302272 -0.013100374070607813 -0.09128324626011729
0.0138845174029831 -0.018834924294037013 -0.06615931389407678
0.012640006852751635 -0.0190469018986762 -0.06608397298072478
0.015555087312488274 -0.013715093993259686 -0.09111491435609662
0.0049435581544749925 -0.01960306503105238 -0.06761457547964801
0.005261818176219378 -0.018668056277157057 -0.07784755664342718
0.018403916023285664 -0.00433116952214159 -0.09091582614098345
-0.005113163609592065 -0.0192195709445545 -0.07343849476681805
0.020620382665805195 -0.016178655044941842 -0.0904969336298719
0.01340362920398648 -0.018902393203980454 -0.06625513492128629
0.007349698074879047 -0.01796734041558724 -0.08608484273634537
0.022603616094368964 -0.0076851150962292105 -0.09086521878522716
0.008760590767196364 -0.017887359623374965 -0.08604671043105429
0.019282427836973204 -0.008349967343257788 -0.09086105775487846
0.014660400316032433 -0.018649350813037063 -0.07201365999293384
0.01819751993191088 -0.01659690796031935 -0.09035070021795875
0.02509573031149866 -0.014925101494126528 -0.09066549890637995
0.0036559021845075355 -0.019357190390785498 -0.0700357328489512
0.006715282372734888 -0.014328015490318705 -0.09116303465921967
0.024379185058718538 -0.010968011334285408 -0.09103840635660801
-0.004528318807792141 -0.019458331747352373 -0.07072025820281298
0.025930792363962157 -0.0063918580539936605 -0.09071822916416189
0.012114957249040511 -0.019119386817771436 -0.06631449558453685
0.007312951711135788 -0.005714526349381877 -0.09088458604818299
0.028015402755399363 -0.012169504572160823 -0.0909057447983481
0.017493352223852062 -0.018337151457802858 -0.07535264906090279
0.016658928347232475 -0.0183860994682492 -0.07518422473542079
0.014504175430307659 -0.014732529937299572 -0.09078403774601532
0.019385853377633357 -0.010770897438803913 -0.09106716712484628
0.022672124085782612 -0.01672509775776552 -0.08740956236057097
-0.0019641736143560674 -0.019010915489889167 -0.07557798294981442
0.0015009993431517154 -0.01870425113539713 -0.07717097598247978
0.017588413109036943 -0.018610900854450937 -0.0708057521960863
0.017545783106787817 -0.01857319262843872 -0.07146503300777404
0.02632201677738319 -0.016828384689385942 -0.09012950759815455
0.0072632820161129645 -0.018730367961275148 -0.07544223520112105
0.00781049109611643 -0.018638136059218567 -0.07628583968625643
0.015461829385757294 -0.0018197085222000841 -0.09089319093388673
0.015201015188372451 -0.018501957401143666 -0.07373528675835407
0.012205028156080043 -0.014498565166786 -0.09123447339313631
0.014406421838985621 -0.018570313321340674 -0.07366781823694193
0.003482217331729376 -0.018845840156434375 -0.07309354185638438
0.00929387889037859 -0.018657444769371853 -0.07448506168603657
0.006804727643753852 -0.01896889738012412 -0.07143202519427438
0.02563084035464568 -0.011157478495289384 -0.09097883025885203
0.0071047606953498505 -0.015893739438216245 -0.0907453012692792
0.014861897139775499 -0.016107918709209502 -0.09059716124850394
0.00022333384974228217 -0.01948103563292397 -0.06851502391575495
0.007689200022113505 -0.018928916133474475 -0.07191484480539205
0.006750124160142084 -0.018925323206433316 -0.0723482792690966
0.010785672411744445 -0.01764492548703893 -0.08769015731594891
0.015949075977770198 -0.01789569741065951 -0.08274437015235869
0.014953968305873972 -0.017592358449823313 -0.08762069798405356
0.026636647724419437 -0.012164513788211057 -0.09089320801349023
0.010409806472391318 -0.019012614917736717 -0.06805388007034924
0.006284649817873061 -0.018489729372843808 -0.07947300533604187
0.0250795714889523 -0.01729482187690889 -0.08687981868462079
0.02373977361026306 -0.011480086266247788 -0.09110831095388969
0.00904215232872149 -0.003095678702472119 -0.09099171582035612
0.011659702714774293 -0.014307427580998214 -0.09133421859725256
0.01217238600686391 -0.017844108778842047 -0.08496185802089933
0.01419874086973963 -0.018283776856276863 -0.08013309229378146
0.0026988248845401025 -0.019220526191256034 -0.07066417764814542
0.03357509793683241 -0.009481040107280627 -0.09189441791135104
0.004510242263776006 -0.01806669398519531 -0.08652808086608085
0.016692876713666552 -0.0032851793596637203 -0.09086887489269463
0.02081532073110935 -0.01737406710813783 -0.08560827191063872
0.016237309884789317 -0.0029259819623733726 -0.09080460844566467
0.016279113264550883 -0.0019910368748836237 -0.09081730161609858
0.013339404035048179 -0.0009459761361832256 -0.09087750950199913
0.01693151271572969 -0.002684523458941779 -0.09082666836786447
0.017419928901371395 -0.00040160502659069723 -0.09093156648884747
0.023136068564727358 -0.017349028829711715 -0.08527192023768038
0.01644638019629749 -0.0004612172860961162 -0.0909179593063365
0.02579671139996016 -0.011123919483175017 -0.09097439793203994
0.030082134351149405 -0.012513692604496607 -0.09107495888673071
0.01963476171006962 -0.017678329439104273 -0.0861033953456702
0.021737466101431003 -0.014257892015233536 -0.09116307385444011
0.005024555004211068 -0.01538550359639606 -0.09055952431677786
0.02447543663670747 -0.011950292673175175 -0.09099329329700963
0.01792392847996041 -0.018545770212780473 -0.07340241510697033
0.009853715484736595 -0.004038784010183366 -0.09082609769176919
0.004211400332493387 -0.018852786460746007 -0.07288097321574359
0.025850783442174334 -0.017861550020986754 -0.08232937450911938
0.015575979668603867 -0.007984394111474868 -0.09088702231327872
0.027519908266431702 -0.011655444510347992 -0.09101123423244722
0.016267083336202588 -0.018470135397314763 -0.07366317808556228
0.016241237604870812 -0.018467932749376123 -0.07369239205052444
0.008065126179635401 -0.01821684236189574 -0.08312191680976627
0.013558374623368213 -0.01265305614924604 -0.09109371813150054
0.0029503339300665328 -0.018242791760625106 -0.08335771805230976
0.01342641650575814 -0.01885250497301271 -0.06716691636827445
0.018836083890365327 -0.006074868316100826 -0.09079975556497495
0.005726379592348627 -0.006882842015358722 -0.09091786836206733
0.020262877619601515 -0.012004090487252563 -0.0910610338758337
0.02063810400874922 -0.018130314093389235 -0.0779641820618337
0.020110491847543523 -0.01283675445417103 -0.09105118063140107
0.0045723504081252465 -0.018866817342573693 -0.07453733919118427
0.004497595220166153 -0.018878474421412297 -0.0748257951576487
0.007386532083618877 -0.01852302584200312 -0.07921602724331916
0.026497581314246274 -0.004534476744764422 -0.09075188740497923
0.01956297473741434 -0.0027209620371274686 -0.09089212734119279
0.026935846632576227 -0.01222090211276898 -0.09086898271264165
0.008123112709334555 -0.0034266489621241707 -0.09084777190733108
0.02489011406340329 -0.014145858075452603 -0.0911182379516848
0.01618219531753229 -0.016313844418567664 -0.09056441503126364
0.014994496404012259 -0.0011778238441959164 -0.09086826612677791
0.0213402374098803 -0.012861024084937531 -0.09084082063387654
0.006975112798417757 -0.018205205554471495 -0.08391935918087365
-0.0018880092519523444 -0.019693791997286887 -0.06806678409064039
0.025797441072531957 -0.0028068611192822437 -0.09073041115401838
0.026696994392460493 -0.006901021350153995 -0.09082207141916354
0.009054950640352099 -0.0172796425668348 -0.08930730113573619
0.013937972330175625 -0.008092828024624521 -0.09090204307293827
0.018148357486399348 -0.018570563281843044 -0.07231648044872381
0.01705000416432498 -0.018555123910346107 -0.07135548271208489
0.017608561101591126 -0.018558111234401414 -0.07221953685800195
0.029323227263253555 -0.005920905869503152 -0.0907777773837487
-0.003635103269464062 -0.019643319458216763 -0.06878471475012365
0.005252847291740067 -0.018540226788231567 -0.07908817087364531
0.014208705392922719 -0.01874750472427127 -0.07018932814120889
0.021677321560970162 -0.018393900708930516 -0.07626620091629657
0.014833828239201765 -0.008877944267332159 -0.09093430695462679
0.01400025928241663 -0.0017491620744745566 -0.09087074177984508
0.016702057236071734 -0.017885873748428198 -0.08538007138318002
0.007634339923042452 -0.007829453895860958 -0.09087084425349642
0.021890774378781758 -0.017536793614522875 -0.08427002188649638
0.005076019368270414 -0.017094761007417053 -0.08867799810758792
0.009459232133190306 -0.018883562200608727 -0.07163239299610616
0.019493745225087455 -0.004417064468609792 -0.09088683745046784
0.0092776457065449 -0.0025846675101543247 -0.09089913690513904
0.010465140419765047 -0.008782086625634167 -0.0909724031036382
0.02242544652912213 -0.013095020825835692 -0.09085095339605401
0.013432739188509575 -0.018597996172953397 -0.07309175677732867
0.009308003630763608 -0.018181804106450504 -0.08291067817604927
0.030387175715950118 -0.014805192147448947 -0.09044106285869322
0.0037633639710063947 -0.014319244681564647 -0.09131063091165821
0.002247326805983489 -0.018938448048223845 -0.07380742989673579
0.028306463343393404 -0.014617126547431691 -0.09051527612756616
0.006561009909553035 -0.01943092976613505 -0.06842742426063972
0.007045819437193386 -0.019080237623447942 -0.07094005600214834
0.0021662428065137226 -0.019028960006442015 -0.07205950073194946
0.014395169192567132 -0.00968855026231809 -0.09094429668674955
0.02360090652154507 -0.017679532845544323 -0.08294986429988488
0.006083663837282073 -0.01913853804750111 -0.07066586789785825
0.011665285444341993 -0.017304855166693892 -0.08834706003238037
0.023164802102177154 -0.018237087561921432 -0.07775645483886723
0.00311135731688083 -0.018989541384437883 -0.075150825125502
0.014079533242829853 -0.018419824754721197 -0.07565985155011334
-0.0026281497484883045 -0.019376170756968215 -0.0702757633793427
-0.0030342087272995644 -0.01929932105995863 -0.0707956040637131
0.005275602053319207 -0.018120941221196687 -0.08372298307254157
0.029642632424849668 -0.015528716841632338 -0.09073998604974096
0.028627407093355227 -0.010882834094747822 -0.09083795059223994
0.01568974981771271 -0.018020059108612593 -0.08169077352925207
0.01315407628084141 -0.01840580065701149 -0.07665068272158851
0.024946205906824205 -0.017017624207998315 -0.08929177986601397
0.025474212931562788 -0.006019958054885195 -0.09076801163664994
0.010390044287299845 -0.01881314244322946 -0.07203892971283724
0.01646019055132558 -0.01265429854105826 -0.09112539433994721
0.004657729441890751 -0.01817982427638095 -0.08306178258877696
0.017209788927873854 -0.011826019757173921 -0.09115176352704775
0.01684167860968328 -0.0117356440997262 -0.09114691526301191
0.017685255468821024 -0.011556722086494279 -0.09117272741233029
0.01838758248331715 -0.011343612215171104 -0.09104894524648197
0.01774803317232958 -0.017985192320913848 -0.08458343077878715
0.016908574673462497 -0.010556729002356224 -0.09097194948959143
0.01740205352697728 -0.01831935543772635 -0.07727711934521522
0.002576124951987201 -0.017921911376648572 -0.0869830966455589
0.017789465392737465 -0.009363830017331078 -0.09086726363487142
-0.0030076294392441406 -0.0196758975489878 -0.06818942043474724
0.023086185438126045 -0.017075567002339948 -0.0895340894907324
0.016942737282169967 -0.007479752834594662 -0.09093068686668866
0.017997573191450168 -0.00859290673159418 -0.09090050488927957
0.013796576437411636 -0.006124942493032023 -0.09075620019449504
0.01691074235454656 -0.008757772792988672 -0.09095200943397574
0.0013829618153923479 -0.017729555440294142 -0.08766140621725492
0.003935189408930874 -0.018199298146815163 -0.08333544045677702
0.015148133787654831 -0.005140894461990878 -0.09088755011345212
0.016652245325647595 -0.005457410276036859 -0.0907700533393255
0.006836438274783965 -0.011728907504060918 -0.09105146728917889
0.014334155402306497 -0.006130754137858132 -0.09076983340438631
0.015187759440101409 -0.007856656216507205 -0.0909769027481908
0.007894195490570268 -0.019097406440535227 -0.07072889997655975
0.01322751911150017 -0.008686111687232144 -0.09090063377889168
0.004207484550881934 -0.016959939015684405 -0.08860398920033696
0.011032910043472607 -0.012268149683501012 -0.09107269054164427
0.01409630098730215 -0.007393611020797329 -0.09088431533370438
0.014597702335646645 -0.005473148904252209 -0.09086300390356862
0.016425391418824816 -0.006803176047235106 -0.09082030253792381
0.005818812743085597 -0.018905138908854834 -0.07284994019092822
0.030905636540781083 -0.0100074872499979 -0.09085489443878789
0.0037764050219427597 -0.0176018958139915 -0.08768141732807239
0.013900135082683663 -0.01894658298340016 -0.06398224928494385
0.018591027031345873 -0.010272987584176205 -0.09094212244238375
0.005304845037588852 -0.01884503220958205 -0.07534139491053156
0.01749757722634507 -0.017932794726425665 -0.08221575837574197
0.01571887176425788 -0.007432127970837766 -0.09086025347569493
0.004810111740198565 -0.018515320007173437 -0.08031595732405446
0.018018931593208394 -0.007628137092466578 -0.09085371808402205
0.015474876265713769 -0.007284295742138903 -0.09087864809447654
0.013166757991548655 -0.01628734546788518 -0.09049201754732235
0.004884290632526557 -0.019582544773244285 -0.0689346819323649
0.0029582692520536405 -0.01837874538582277 -0.08592079987465122
0.008062492923050718 -0.014576963239014227 -0.09128139686446982
0.0069044554269316405 -0.013975349631405678 -0.09122482684306735
0.017249393880031286 -0.0043192041418399435 -0.09085445078006228
0.02357854362639592 -0.016761563431259077 -0.08774524759352467
0.020817146334138364 -0.018369189160639024 -0.07556424492198155
0.007955966896624547 -0.018230282019294674 -0.08387745503760621
0.007284030306619303 -0.008938869458575525 -0.09091023720248832
0.02283718144355942 -0.01752468106755368 -0.08457610757459129
0.020316408975936354 -0.018163821039836187 -0.07721615657506208
-0.0006245774371357582 -0.01727183424257394 -0.08923267954938188
-0.004424030306551995 -0.01941465592271907 -0.07092072633711716
-0.0038067695483507344 -0.019452658496265346 -0.07032028138195702
0.009671573034472086 -0.018691924751462308 -0.07398881356347876
0.015038267217139741 -0.005499653279969046 -0.09084802109116064
0.020076989737947082 -0.008012343377992164 -0.09087092966754001
0.011158305497283158 -0.018560489973059143 -0.07577702343244938
0.010586920991175787 -0.012760924602684695 -0.09107491684275545
0.012732403147522137 -0.015849779341168987 -0.09076210328219603
0.024647041682832493 -0.0054354203145923295 -0.09081667953310252
0.01987765958932513 -0.01714441399456284 -0.08863766727611833
0.02139477666389131 -0.016736880740014875 -0.0869143165370854
0.01091235304047602 -0.009710815448003157 -0.09093953153305065
0.010172699260519514 -0.01829774557603909 -0.08117732990867674
0.01750411657132669 -0.004658595527012177 -0.0908583273108722
0.013063830244165457 -0.01780560233221596 -0.08462155756507705
0.0133077712596879 -0.017742504142483753 -0.08509091974394978
0.012963121202463476 -0.010620500095839388 -0.09103481688744557
0.01070270655341026 -0.018273387451980268 -0.08124663004231271
0.003779726365926649 -0.018280535356307467 -0.08217917619146006
0.008634150285013329 -0.018620546092056323 -0.07623248305398654
0.008774267559565953 -0.018717601891291995 -0.07433599541881691
0.012050916922015154 -0.01141195297294169 -0.09107692724003079
0.014875816655425088 -0.017061235233622497 -0.08955833146823468
0.007460597974054574 -0.019156341726917762 -0.07045224380932638
0.02198609260025713 -0.017701962072332166 -0.08350930094810928
0.027394818315822096 -0.00465804445533455 -0.09068406573189103
-0.0017290911725138113 -0.018926389737778482 -0.07479994680473227
0.018879118886350233 -0.013367562253534715 -0.09095645137447479
0.012399120231494682 -0.018049424394977306 -0.0819534212374662
0.009640380645514856 -0.019063501230824283 -0.06849342452925654
0.012640590057198597 -0.014916081974563147 -0.09079738671743463
0.020274098239195376 -0.018189950047085485 -0.07677588094426967
0.012779961113585557 -0.018554265534848007 -0.07471023103607233
0.004461325282071058 -0.019182412941474214 -0.07088897081464614
0.015044186174201656 -0.017864745142189886 -0.08383080941373888
0.011096631679230605 -0.016521969378652288 -0.09025630543326676
0.009002260890145579 -0.01765892343976176 -0.08745386460848235
0.016623612921535226 -0.01854906995062502 -0.07114484394847921
6.742433449963113e-05 -0.01878150430842705 -0.078234276571261
0.003139000283778965 -0.018643162624332403 -0.07913849691057472
0.0018509540024400815 -0.018310947485251857 -0.08204668646731678
0.026597114539930196 -0.01797621698094539 -0.08141635327237376
0.012677398343429932 -0.01519228964436859 -0.09079569549361653
0.015769458908460713 -0.014693162567103638 -0.09091276664388595
0.006992891331747872 -0.017143400766716707 -0.08835160242009124
0.022426529267215882 -0.01836680445554132 -0.07668961551729432
0.012713182736324612 -0.018801469662179753 -0.06910813099756484
0.013116683527013853 -0.018814035519133594 -0.06802232478251363
-0.0003897504735823272 -0.01884534401715366 -0.07756803940188489
0.013875645068227877 -0.017879888479322748 -0.08368302766805535
0.008028349981682639 -0.01884891996463975 -0.07343401114871326
0.007479045899027483 -0.018777155382818874 -0.0746531290384124
0.031147199558920043 -0.006195115786467448 -0.09090811608228672
0.016779393898584183 -0.004556626883894301 -0.09082927153191386
0.0026574534729454356 -0.01866929058353949 -0.07835665945827587
0.006628751598457723 -0.015174851359605983 -0.09077825781589746
0.020700736376590957 -0.006345812673597834 -0.09083176991491729
0.014688492757563046 -0.018428458028982138 -0.07596709391675623
0.011590375080884965 -0.014573575329026915 -0.091222028994394
0.0018711327095627499 -0.016007547389029184 -0.09063792191258069
0.01678280834926345 -0.01785320851857168 -0.08486230282588172
0.009193783748488183 -0.01795490651923902 -0.0855080664729889
0.009566017606157487 -0.01789604102463868 -0.08669546448681945
0.02347248370059472 -0.002157135948806279 -0.09085037636734092
0.021925844251033187 -0.011331628208803709 -0.09109264769120923
0.0024179568705521124 -0.018314465552778943 -0.08370534706707365
0.0024593800234632523 -0.018307959322025412 -0.08365712159442079
0.0303540542007949 -0.010676469441945767 -0.09074517782984531
0.01995026267854079 -0.00031333827079937015 -0.09089816704566288
0.0330215070179351 -0.009453377661375616 -0.09159317023169052
0.033634187355248715 -0.009355403872371413 -0.0917138077139948
0.03414403259963962 -0.00980254024443859 -0.09198748677679332
0.013518865822110454 -0.014725277871155485 -0.09095802312103601
0.0033531843640192804 -0.01888923855747158 -0.07380328466955641
0.001520045060751646 -0.019324411620462133 -0.07039798585096238
0.0015301442613510265 -0.01921955375705667 -0.07110197729503288
0.0003639553230581412 -0.018937898558871614 -0.07409074747799405
0.0068025762306646795 -0.017088243507607303 -0.08958365574360311
0.003949113692713709 -0.018721618217198872 -0.07789306840992823
0.004641649141285488 -0.01700295444968119 -0.08972356154940889
0.004881970296515747 -0.016383974458325443 -0.09038435370087065
-0.0010161436722759803 -0.01892719082198375 -0.07684696437786565
-0.0012229085423143269 -0.01932955832303146 -0.07011742958909914
-0.0010577585224122792 -0.01930730814655774 -0.0703247777825335
0.003569659273907332 -0.01715313602397344 -0.08969650069687049
0.010287448654929253 -0.016540959764891845 -0.09019512452697251
0.04593040199508284 -0.012816171507745316 -0.08517882107271721
0.04558168049188709 -0.00020717004499548535 -0.0890462964264468
0.0459390733199597 -0.010620651637646712 -0.07265428609397143
0.04592348643844134 -0.008263792103136602 -0.07040456382952247
0.0429966649119891 0.000518613265538162 -0.0906051237611071
0.04583439955651609 -0.006948553145754553 -0.070324953013464
0.03465031158196055 -0.016785219139733742 -0.08806655940341294
0.04586929871205597 -0.0019530125302814586 -0.0696037726409782
0.03768311766226211 -0.014534429892986787 -0.09071714564453995
0.039113078927969405 -0.008262439777055116 -0.09067817547025879
0.04568096151260848 -0.014536712430411273 -0.07789483325697462
0.04588491490832276 -0.0027720117692575505 -0.06798267824644025
0.04610162865451387 0.0005391442669106331 -0.08401100888055502
0.03553309392711192 -0.009714829887071732 -0.09179605096019025
0.04578477803043726 -0.011956590764786692 -0.06634218989993391
0.04525780562008678 0.002929287341877416 -0.08869305576510497
0.04621062607356638 -0.005224303851072703 -0.08396017524387064
0.042993873872526935 0.005300480950746997 -0.09090988799348185
0.04589017065220262 -0.010840616669350744 -0.08101004683455382
0.036882980976227046 -0.007694880906985969 -0.09082025742801375
0.03328648964670705 -0.004937488893882508 -0.0907281909175327
0.045900335786127386 -0.013421997672896778 -0.07972185614773723
0.03548598273364521 -0.010158770800800703 -0.09178962362848736
0.045895873874529064 -0.013095383904362344 -0.07950186290055786
0.04579252387223155 -0.01415763827520013 -0.0760713969805899
0.04586276435709468 -0.0077127385858390025 -0.06767517298892324
0.04601431946344245 -0.002997169421759334 -0.07758907413333876
0.03827218000288545 -0.016435164241618023 -0.0895210781571777
0.04591770432179227 -0.008753066526734446 -0.074544504751907
0.04589849088467518 -0.01318999251248014 -0.0856166963962349
0.045872799976191175 -0.00870060078970845 -0.07197752177231531
0.039753351521367525 -0.008860536914486274 -0.09126318865488452
0.04609584426715903 -0.0006378703620700572 -0.08097008713663323
0.04613443826607725 -0.01012665074871593 -0.08810314941365788
0.04538767900054436 -0.014842804363105469 -0.07669853984749075
0.0459707543502607 0.0003010021915801192 -0.07750409063868756
0.045769508540497536 -0.014034988232055675 -0.07710891503861725
0.04594641658660556 9.255451258963366e-05 -0.07690017310416777
0.04619660664984919 -0.003028372265783127 -0.08458547986447834
0.04599987127536217 -0.0066473795604334324 -0.07987365957528146
0.046028018105720624 0.0013892786081817453 -0.07584465538490712
0.045984913603180175 -0.00939261655212276 -0.07253173470980882
0.045913951603349504 -0.010572620312660286 -0.08131136622338536
0.045423172746011625 -0.0024429897896754474 -0.08942140114095017
0.0458522074077068 -0.008792912448497933 -0.06771923124515179
0.043458704427728895 -0.015634432513922585 -0.08624436997935284
0.039517157788777194 -0.005115036567839654 -0.0907946542826136
0.03618695792769529 -0.012137449198117052 -0.09085038286838014
0.04582973448949358 -0.012107760026183963 -0.07488269370623332
0.045741118008531104 -0.0011416697892953763 -0.09031625986966152
0.046186773310138186 -0.003881698966010001 -0.08431667908474028
0.04592141913454775 -0.0043776218702561796 -0.07395727625353976
0.04246364584912279 -0.016007055550583488 -0.08212117898506979
0.045850587055119976 -0.002087923270080073 -0.06937206764383219
0.04221710570308707 0.004693888423158373 -0.09089104600357821
0.03697259785569656 -0.016590917481220678 -0.08949205056682465
0.041943251262434623 -0.014560998193945428 -0.0900544768804449
0.043012932686536734 -0.014413645335608865 -0.09032970474898247
0.04588141683006106 -0.013023134048803675 -0.0813389749686614
0.04314745979945831 -0.014988131977510153 -0.09018859922839853
0.04583953144590421 -0.007287483499049613 -0.06846225460368209
0.0413743260321537 -0.014537420312032995 -0.09006131845078866
0.04425867767688112 -0.014560482193763359 -0.09087511017583386
0.045982035866009435 -0.008800710103401149 -0.07307147346766729
0.04451124817751505 -0.015301232508778718 -0.09071756082104107
0.04551882653513525 -0.0029552506886311616 -0.08962485987090596
0.04492879082684713 -0.013861151695628248 -0.09101263567429027
0.046132358347687155 -0.00547297812765309 -0.0814892851238169
0.04153793830870562 -0.01564939759266126 -0.09020014026151196
0.04606815534087151 -0.007761158171250967 -0.0856445677862668
0.04606815714709965 -0.0061098894820092 -0.09052256325425867
0.045531673503076416 -0.00035804536254679985 -0.09002334927557512
0.04561008876746097 -0.005635471443235282 -0.08910219010151368
0.03321374906786043 0.001700777624883207 -0.09075147944447423
0.046002631279034825 -0.00548886281891142 -0.0790131972799725
0.045789603584114484 -0.010146131920080324 -0.0704404539413929
0.045783465103826915 -0.013138493679915545 -0.07111845331820564
0.0328454959566858 -0.014047854005523724 -0.09081567854791657
0.039939461203139445 0.006394291051985392 -0.09084063668556198
0.04563477606514469 -0.005177721328011447 -0.09010754078867314
0.034504504022121026 -0.00712109047453075 -0.0908834420788039
0.04621913216262883 -0.001079000807474972 -0.08776933624592247
0.046113592569603276 -0.002886351826842589 -0.08786083457228638
0.043405098773229116 -0.009948985209271488 -0.09148447800319347
0.04539327733612799 -0.002092989932018837 -0.08899882442368078
0.038037643090800884 -0.004987905077143903 -0.09058552302387136
0.04585418454405796 -0.011322878412356182 -0.06992592907288007
0.04597483819552366 -0.005634545778817975 -0.0736879831835513
0.04595647135381209 -0.004903612212493332 -0.07205928492164468
0.046006428243116404 -0.009470391154590902 -0.08300887568374926
0.04512712983017739 0.002208476772614608 -0.08974606263102461
0.04545238277542306 -0.0021215306168909523 -0.08877875206743616
0.0456633122661498 -0.004171483082906144 -0.08974176718802418
0.04391730838865139 -0.006095942712018121 -0.09119432600142702
0.04336324864334919 -0.011369017743469708 -0.09160575488260024
0.045367335939010336 -0.0031101098492988277 -0.09125315176870459
0.04494018853580256 -0.004331583712509975 -0.09122185760142805
0.04297269753258855 -0.002687074708495097 -0.09076623262416246
0.04588536257004549 -0.01066044818814483 -0.07373733233579757
0.04577873031306 -0.01318186205533228 -0.07592446847012133
0.04584319978498525 -0.013260806496306406 -0.07342884855053224
0.04581336310412316 -0.014020764721352398 -0.08029933111202618
0.044969621877530605 -0.015931155781846146 -0.09004527099068248
0.045261280054017486 -0.002279871295331147 -0.09117702198942458
0.042390072703184165 -0.010615009726431836 -0.09164148369147551
0.04225082902242498 -0.003825761393497988 -0.09038678838148959
0.04087539994360491 -0.016388937870000897 -0.08977940690275703
0.04130147902478094 -0.013216998223450585 -0.09102991259642865
0.04029902896141559 -0.01524355890783661 -0.09054834531705454
0.035812933872067354 0.0026205368695849493 -0.09071553030314553
0.045831622427187475 -0.01214362829464551 -0.09098223148859057
0.04347314674819146 -0.010373530703889442 -0.09161188323154255
0.04604068120922429 -0.010382554181684833 -0.08432584657524066
0.03869552946459042 -0.016407464168513897 -0.08856471753737927
0.03799930427119881 -0.016384794118255514 -0.0891230228065695
0.043935331195658386 -0.01049143963131844 -0.09157478232115089
0.04562237434459847 -0.0016331138918023813 -0.08841326232279534
