0.0301780834328708 -0.01753071069814517 0.06753026854627388
0.029407480840494972 -0.017660945863851144 0.06776697324752229
0.03318436504546742 -0.01781467252935734 0.06955244204863231
0.015219808124272996 -0.01830616532638072 0.08231534263986687
0.0157501172642848 -0.018249831858470164 0.08263344423174185
0.019575920006788834 -0.018105474003713852 0.08205923077220989
0.02062098135015402 -0.018145796776100183 0.08224263845254004
0.014238118259548745 -0.01807648762280497 0.08479411103711729
0.024460473859170617 -0.017950405568505523 0.08130414017729293
0.013353525871624906 -0.01831618971496713 0.08018760151147247
0.013528464310445954 -0.01826255537530235 0.08069920362400408
0.02768721294776032 -0.017760238295640635 0.07066690931143528
0.03153147562029342 -0.01738268333749198 0.07881405072916926
0.01155822203323129 -0.01829167042719361 0.07983851653484784
0.011292115217980103 -0.018265963209894515 0.08010620596481183
0.03345048791081773 -0.01763040565284476 0.08924542681511759
0.029692230613261948 -0.017703716911577964 0.0697061938484481
0.017261750980140156 -0.01859379195211828 0.06722507606890162
0.017388113349604647 -0.01855904767871311 0.06760895698911851
0.036543176426568034 -0.016966185408432432 0.07920289545897657
0.012578902074840604 -0.018837234617523194 0.06437152272833291
0.0125539970643814 -0.018811001316032396 0.06477338186724385
0.0279580508574094 -0.01754166799910542 0.07411349415350578
0.03341049960523154 -0.017453419194191928 0.0850479697229705
0.037326586796810564 -0.016993950830617333 0.06733192776725073
0.03112844189345809 -0.01743909797624689 0.08100316558257092
0.02052636477394519 -0.016957052454317133 0.09064879409788612
0.011757543586177806 -0.018290278493370983 0.08019702964553475
0.01556549772380569 -0.018277988766979218 0.07363369512224728
0.015175796342733625 -0.018267293297681956 0.07356569893900278
0.02777763562614425 -0.017691321360707956 0.06487990974009095
0.027070851913134047 -0.017793230367638083 0.06502616943780812
0.02760820915198159 -0.01771524374735176 0.0650797483212332
0.025862523279004533 -0.017760004251586727 0.08074676678329912
0.025825463248850197 -0.017801448882543026 0.08003674455444022
0.009689625394307025 -0.018515037547474918 0.06928524675249272
0.00895276775251069 -0.01884329040612772 0.06410026048096218
0.022370248708884124 -0.01632962882083337 0.09082104481465955
0.015286422962993207 -0.01797583570232844 0.08494475154704204
0.022465005959889442 -0.018050561757289425 0.0752545179572786
0.012976271028086623 -0.018797086487339174 0.06492808511278389
0.024745910029183756 -0.015568704029834976 0.09130176851113277
0.0036030943375142265 -0.018194714075160226 0.08741268346498485
0.004528631630319364 -0.018135306043918827 0.08758953415172405
0.020725103202934872 -0.01817703450824281 0.07052866584624728
0.01964975952764592 -0.018263636540272493 0.07128103122388188
0.009895806907748352 -0.018211398467055273 0.07941441669997575
0.03395700819478322 -0.017384693518016695 0.08535756356482069
0.011614835617265895 -0.01898314579425179 0.06638021104036756
0.01656029916254321 -0.01843476102489603 0.06930149523041122
0.033800277859189425 -0.017639187071953534 0.0706146785947014
-0.0014078433951526638 -0.01897441689566242 0.06620891566857899
0.02677408835066859 -0.017812238539206642 0.07589044720037616
0.026440935082266356 -0.017889351735946038 0.07656088450171646
0.008542015006839536 -0.018262026784107335 0.08522694925133589
0.0076043476870757 -0.018304278394406334 0.0848757817576555
0.005780548812187652 -0.01854697602606136 0.07349600974226612
0.005376071116662705 -0.018535622724956905 0.0733182852799461
0.021672824505283024 -0.01801550143669037 0.08374492629884664
0.01825226094373386 -0.018319776085888077 0.06975597708750239
0.01785295284592596 -0.01835035518606288 0.07013955488764897
0.0143945543236065 -0.01805611306235133 0.08554286421341817
0.02910249485636616 -0.01752897321698038 0.08175565635291858
0.02585972543702404 -0.017938084782382728 0.06594983524634299
0.024813662942767017 -0.01815364545036932 0.06616883258742132
0.02150422574213206 -0.017930594237436474 0.0841230493327455
0.010112282295672452 -0.01771940405565767 0.09019944592615971
0.009409082424521752 -0.018226367175539313 0.08537831437018804
0.01025847997150897 -0.018249791890121443 0.08456105573185954
0.01582430684784037 -0.01809310109846491 0.08856121779283271
-0.002276294075673397 -0.01855442570709677 0.07260154944268926
0.004874103532201975 -0.01858785445900355 0.07251664988493561
0.0024289254983683034 -0.01888086266168796 0.07712291413648484
0.03347663786402661 -0.017696809748980774 0.06920251032934749
0.010660171374354164 -0.01808736556463305 0.08655483597582171
0.013169516458191638 -0.017634652516084252 0.09020045288121033
0.02575106908420216 -0.01787770299577359 0.06866918261477843
0.02535981024683253 -0.01794574434870106 0.06857090793417818
0.0074143219869559195 -0.019126564194067996 0.06401982862259124
0.024088370463689723 -0.018226237754142408 0.06745865620597903
0.012497469834311919 -0.018376710998176192 0.07176997957733008
0.01980131125210059 -0.015699970832119197 0.09127189801804594
-7.897105074762148e-05 -0.01897853943238886 0.06616185453226683
0.013650427079076828 -0.018298694481625098 0.07577527000347861
0.031180194523768554 -0.017589882613465068 0.08959317268110413
0.015871533859932577 -0.018280831926341598 0.07358299722310806
0.01434778917299184 -0.018314281868269833 0.08298564202386496
0.015311397181257328 -0.01828588468892917 0.08269328267365327
0.0002763212212145427 -0.01891586740750356 0.06932948182261384
0.03467580215044189 -0.017402596214555782 0.07100048967366698
0.02626138554207032 -0.01779696694666351 0.07974693090437499
0.016601270393340938 -0.018181685618210205 0.08024934225347438
0.017269848345428964 -0.018163282049869205 0.07967209731168858
0.0004482698456923323 -0.018304773133806473 0.0864659145525535
-0.0006654968868088095 -0.018160531762308176 0.0874270526044707
0.011989137884135234 -0.01867156250150447 0.06867308587438277
0.014668039101553204 -0.018030371598137064 0.08528683937081594
0.03409300002425986 -0.01751488314366343 0.07761656727506212
0.018788947894659118 -0.014626217908614184 0.0918882509917859
0.003513343801080583 -0.018658912545873665 0.08027541389499068
0.028394001332806184 -0.01738238830343957 0.09062555581762219
0.022507938150968076 -0.018005893960755096 0.0836002445886822
0.0319254830379613 -0.017796722962669202 0.07046961689117562
0.00451123206107665 -0.017943515579268883 0.08970081150000093
0.011404322470233395 -0.01895784728259705 0.06285125880453084
0.00561261626027154 -0.01868082291082327 0.06715507511425117
0.0057028799887338865 -0.018694990625568966 0.06802850105755688
0.006957477762426631 -0.01860029581151663 0.07266361866552731
0.022908424505563352 -0.01816721499471516 0.07713501315013864
0.004528101471014953 -0.018580729969811263 0.076681021449488
0.014129066644252614 -0.01866612396860882 0.06486406776010793
0.03654823402344015 -0.017121591137218506 0.06839063589532018
0.0004804103198596067 -0.01910578381544832 0.06446915525644037
0.025098190584577393 -0.01795453859340412 0.07848215313552448
0.004504443623824981 -0.018502088603451365 0.0740198208272214
0.029171125885210935 -0.01771488097376055 0.07920843428568004
0.010074605372982985 -0.018762594367544135 0.06601245418126292
0.0120076910215479 -0.01892218128909669 0.06587602471462524
0.011798862806936697 -0.018902675891301117 0.0656392042081367
0.028502723503856756 -0.017734147800379765 0.07871096683615408
0.0028639593697709974 -0.018469436293348657 0.08443549258334522
0.009107852258258112 -0.01813282012438326 0.08642118246294157
0.011979033399995483 -0.0189509631454623 0.06621354192643769
0.003824141976315934 -0.018739702940146017 0.07820985703946651
0.004112285823925628 -0.01870563531506768 0.07819255529866026
0.029372123535304787 -0.017616755256399916 0.0711469594342771
0.004914007723362189 -0.01874435249781276 0.06884959875647645
0.004548854233262468 -0.018776502117009035 0.0688265834677784
0.036666726641823244 -0.01712225900505641 0.07734847676625843
0.016066654510431645 -0.01845390842160162 0.0698828001742959
0.026680611194594944 -0.01799860732636329 0.07132790608101255
0.00423841456229449 -0.018800591789575466 0.06672559984239716
0.01120036324261804 -0.018242374602390615 0.07650967996370141
0.027212643553718798 -0.01769785874166204 0.06779750193499007
0.026932385226548217 -0.0177390810199438 0.06767293089058693
0.026324440044013894 -0.01803653620435997 0.07126188714525442
0.018090420097207443 -0.017883138770268748 0.08896160010490647
0.01529079540418035 -0.018046891321277566 0.08672100917871604
0.03071104754737771 -0.017849505944768876 0.07033438570516753
0.01374956892689655 -0.01830516180499401 0.07632921402926553
0.00456946976540396 -0.01906279904719179 0.0641255425118741
0.008436602990302803 -0.018622501383931903 0.07157495551849063
0.008580473932347215 -0.018642455549896814 0.07120726515733924
0.0191180344496503 -0.018077318089477316 0.08259303972499063
-0.002377308149475865 -0.01819965424899995 0.08776748843705637
-0.0026067873787982156 -0.01830328235995978 0.08711045774689236
0.023676554114173378 -0.017772040617187353 0.07293075165539845
0.014130816589659574 -0.01861032736503323 0.06865263919445284
0.03571913415720722 -0.017179912523160104 0.08986823116828159
0.022552000229069953 -0.017826813590838566 0.07444483449167472
0.010729436739057442 -0.018257306126758705 0.08001150209684728
0.024500839133845168 -0.015606355657106852 0.0907726449526215
0.010400405227006757 -0.018800565901605424 0.06738079970214739
0.03975424611687633 -0.01689977862067895 0.08120140622634786
0.02666546525195005 -0.018069409016119944 0.08780281766799013
0.002516528291854111 -0.01878342876548294 0.07845408595822087
0.003214954516536266 -0.018757180245891972 0.07868021739750854
0.034130781316755246 -0.017162612338964225 0.07288191030012273
-0.000804203219146506 -0.018426558352009743 0.08298307763916295
0.027142185816957504 -0.017735314972980108 0.08933892869476467
0.016185704976945773 -0.01823816062188867 0.07741407349026479
0.009660243427464672 -0.018557294692152865 0.07008261614267706
0.023396940715935403 -0.01777481167036604 0.07436033612123688
0.006860520173764029 -0.01820066706576315 0.08598714821165346
0.007167110559902181 -0.018245804589936323 0.08555726359548307
0.034658307545765675 -0.016964941860470477 0.08094506778360791
0.035756683037216325 -0.016925420694586767 0.08036252316909738
0.02503148351417026 -0.0179558297627018 0.0765329672569576
0.025620022249633966 -0.017946291998483407 0.07672186995655993
0.03762078996414772 -0.01695858568539587 0.08396648568472202
0.028818016007310925 -0.01589359892531277 0.09093201791510257
0.02390580162698957 -0.017756006138605993 0.0743454658661664
0.0073596627123140145 -0.01799215779218989 0.08779236834717488
-0.0004078578881579955 -0.017872295203612765 0.08998745728702652
0.02578609570247207 -0.01769454721802933 0.07360936596685295
0.02665589912985223 -0.01763624814926923 0.07376269303796266
0.024957065327629306 -0.01807010311827397 0.06714754736897625
0.006166342080004783 -0.018642319530663524 0.07228192533878418
0.006794085874433304 -0.018672883017345716 0.07136787872251024
0.01568346580495087 -0.018352088159475304 0.07182700044116748
-0.0013740876015676876 -0.018693208440435424 0.070771719820813
0.025080937895568835 -0.017754066585237448 0.07454279034831356
0.024962371157220706 -0.017815785661799394 0.07521341782228816
0.03308691607596128 -0.017270447476250266 0.0874433951860065
0.024849047019954235 -0.01785411925305589 0.07545023224247743
0.02721115550360303 -0.01786164306329717 0.08553629041850674
0.03517890887421703 -0.01708136479941792 0.07315647160684317
0.03819174730056583 -0.01706272266765513 0.07418120864109003
0.01796597876990048 -0.01808111402411958 0.08234864633487984
0.01742065022290927 -0.018120972627164052 0.08308854086499129
0.029961756994234794 -0.01752446840192126 0.08930697581662211
0.03726545683872954 -0.016913354501480567 0.07805532491433988
0.01611846464881784 -0.01797063447160545 0.0854993481686013
0.012636136247573992 -0.01881055887809093 0.06698058549627714
0.007162471199763672 -0.018657433425859127 0.06922046347046229
0.006913554674927649 -0.0186654927631538 0.06909819274097753
0.027734683356463785 -0.017910462377612783 0.088205358364304
0.007639845019296677 -0.018574328186518194 0.07258631643016344
0.035383763341569875 -0.01735612724265393 0.07805453391623052
0.03500561720788271 -0.017236660318015077 0.08713225351228569
0.015124351787042408 -0.018561540012229615 0.06659434358219328
0.03312834653909383 -0.017359979095874167 0.07843104947983631
0.032570617509018365 -0.017446329867476684 0.0777949913075369
0.02242843624252153 -0.018236193071959766 0.06868371589882749
0.004388022548231823 -0.018719448811135287 0.06983830706185651
0.025751666182288684 -0.017760525561133556 0.07483394360313467
0.025895238954638748 -0.01775835190551656 0.07489132282610096
0.026843378356142214 -0.01811328458333336 0.08744606503700922
0.010230596754781326 -0.01836261701535173 0.08340530591741463
0.010885968986794657 -0.018292683887669477 0.08408628759685077
0.029769318249717038 -0.014289691463023568 0.0919825277121224
0.01736075771850233 -0.018108402886334883 0.08341184281792235
0.010576361894417687 -0.01852723693599446 0.07206355257770115
0.009197097051983334 -0.018580465460537213 0.07173881666841195
0.009433737845528561 -0.018583286886640838 0.07149613904918954
0.0027988622623914944 -0.018232583834188833 0.08728985203886529
0.026688086401241987 -0.018017980438300517 0.0836597821061031
0.026145248921045774 -0.0178285099341665 0.06810394821446986
-0.000940606184270954 -0.01857856342950995 0.07231150132508132
-0.0006226736450567115 -0.018567262123462665 0.07228267847478213
0.024435616710261662 -0.018148249231169176 0.06765844472884028
0.017606550825037977 -0.018042399276761725 0.0844473506474106
0.008815431224389256 -0.018645218357682455 0.06761953156318154
0.023723662662159972 -0.018022426837245906 0.07777062483887826
0.013623398959565332 -0.018620022154565537 0.06942696924950845
0.029540837014727445 -0.017636843234337708 0.07049276398273577
0.0193718557965799 -0.01797252895875636 0.08049936013928698
0.027234393605866675 -0.017747448927556024 0.06678651558229247
0.02627482519736786 -0.017893651075845812 0.06571619999023598
0.027611150582924526 -0.017704328857511508 0.06671106019296918
0.0015637613231713828 -0.018952335888998206 0.06875819259683644
0.012172442090698853 -0.01836918603377962 0.08264209367724325
0.012243117610489634 -0.018363554436056397 0.08250324784117848
0.017997945431749107 -0.018094117534563036 0.07849860592052557
0.017252954216807784 -0.018188404920243855 0.0782230331957875
0.009701296827956772 -0.018325796655884883 0.08164917921221185
0.009684589301582792 -0.018327152825289076 0.08147852429357619
0.015673804521551822 -0.018264565578264728 0.0752907382611723
0.02108872722237099 -0.01563514218076109 0.09145492533726898
0.003780037301161894 -0.018231884740200835 0.0854109327933936
0.018836631196723325 -0.018060175971867144 0.07958268533492265
0.019126334374846215 -0.018054758674881773 0.07942192890811337
0.0336272809326532 -0.01757186866347121 0.06875397393764728
0.02803793713711945 -0.017562242659023036 0.07543605152533328
0.008356416141596993 -0.01858064501726756 0.06841651436173898
0.007563757600247406 -0.01863818546452382 0.0687176822651575
0.024831117507728286 -0.015554279080756545 0.09148644032036399
0.008159563167767352 -0.018669384400127095 0.07014344747712006
0.008373305793172487 -0.018676169230980033 0.07050715200874642
0.01843148667767075 -0.0179344279835742 0.08612733735091162
0.015839156316002245 -0.018586494497028285 0.06728678892649656
0.01219096903200765 -0.018294920961011523 0.07692530610549614
0.01396512428399664 -0.017022853376245036 0.09059595433397655
0.013714791594779764 -0.01829845888215385 0.07601552893813224
0.0348753720165557 -0.01714704166291218 0.0746052766957345
0.034728396205664494 -0.017146926139899425 0.07431665164113033
0.012171607410278682 -0.018294774809071986 0.07552268339778256
0.007643532238152811 -0.0183084982561749 0.07851830015240956
0.007791379191751007 -0.018289707537106608 0.07848789192454042
0.015086109476029758 -0.018284845036529312 0.07713367434839845
0.01953724322285124 -0.013316965635732755 0.09190529604246479
0.027724387952204665 -0.017645467679969738 0.07583999792373466
0.027485371395539283 -0.01766157283436884 0.07543530547655068
0.024625531118504376 -0.017685581415951994 0.08453215053841179
0.028300447300412944 -0.01768048969993878 0.07135587295737164
0.008289936480299385 -0.018690230857250308 0.06686071354954339
0.0044922195356002035 -0.018831841675836732 0.06751563756432524
0.028227027062591527 -0.01763421158901611 0.07041071450532307
0.0046288853541819885 -0.018394845999322958 0.08337751707584774
0.025165016538379617 -0.017979070101375783 0.0770452102526182
0.03480684177124405 -0.01695850388633737 0.07990320229965063
0.03975609697474067 -0.016780424875100355 0.0706004923175195
-0.00020774992605022914 -0.018645419320372225 0.0729714011938038
-0.0006418679891404819 -0.018824860648760943 0.07398805867578499
0.028579934661599082 -0.01758945933547602 0.06599208508432884
-0.0013239224109506675 -0.01860071661028319 0.0719798757951961
0.027050044512070624 -0.0180736842234654 0.08658281236279551
0.02386115197775155 -0.01821402441004067 0.06655174844650398
0.0366507533602925 -0.017189321949415262 0.06951793691825106
0.007741842739919576 -0.017786750012362657 0.0899836428543989
0.030088447567140547 -0.017508337568515973 0.07188441522562858
0.005187113322852628 -0.018852779604228657 0.06489349041200135
0.03820057122319161 -0.017030371742002618 0.06773752595714135
0.038268864087688446 -0.017013631410533595 0.06895347164677654
0.0007535665645529756 -0.018594303102737526 0.07982167944882178
0.0010165738759202348 -0.01851287282238028 0.08025334363927339
0.016393199574894882 -0.018327338638042 0.07221291784610513
0.031887216454861325 -0.017282148900246 0.07650074305077019
0.008909444035622879 -0.018702843809140803 0.06702052752202252
0.0046300014218173145 -0.018649569501554934 0.07848659702823693
0.005247744400267381 -0.018614813140789242 0.07921483588166871
0.005694828228773693 -0.018575719421800377 0.07911238764014286
0.0005577382396567967 -0.01811938580850835 0.08849100319627398
0.026714703371076513 -0.017772798855157056 0.06965511438215448
0.023473304717588264 -0.018291513566601393 0.0678949888488268
0.028125154232367024 -0.017577745222472706 0.06968908284097476
0.009850509936943844 -0.017952615621887824 0.08787220682716419
0.016978764931378787 -0.014650779811480916 0.09189421837114597
-0.0001808157017429324 -0.018346245043113968 0.08242955601477325
-5.389554377395312e-05 -0.018301993278868275 0.08175761844498747
0.03166847876172066 -0.01728399304493928 0.07669908680480694
0.029737245741273635 -0.01764534234804826 0.07970937038698774
0.027519080759277864 -0.017681516769988966 0.06867716164348531
0.019933657471090015 -0.017911386306123656 0.08938797758830765
0.018685805488484065 -0.016820806067386673 0.09055746252500102
0.02661031483133157 -0.017907634320204577 0.07752884424540214
0.02707550699463103 -0.01692828290069444 0.09098659250230377
0.01158444315103098 -0.017872670335722637 0.08842756511362018
0.012341902475188373 -0.018761801973203075 0.06787861258098624
0.02855767382162912 -0.015764660202867996 0.09124996271970637
0.02986405806169168 -0.01747910482666623 0.0722375338030022
-0.002857525217807114 -0.019070884082321608 0.06606028535852845
0.012484767802880978 -0.01840619215633547 0.0773249240666143
0.03928191738163872 -0.016830971380918706 0.07110894302272724
0.004451873989790212 -0.018597363303238672 0.0724586523384004
0.02515454853083121 -0.01778681109054698 0.08898905035796914
0.025337152756380436 -0.017863111014480484 0.08386368634350473
0.018106277213450827 -0.0180934770288961 0.07709341597824357
0.020791182438727775 -0.017501424443109974 0.09031579463708034
0.018091782405123297 -0.017970654811465106 0.0846768594371216
0.02611250856312378 -0.017861505295231905 0.08863044772625286
0.035020263513663955 -0.017114350063430987 0.0738807200022136
0.03504761956688763 -0.01709923553834052 0.07364867914938925
0.039601852076262406 -0.0168490775407609 0.06901501472591905
0.03903566251764562 -0.01689852040777418 0.06940725551483806
6.181730344569602e-06 -0.0184755106418034 0.0841872606946513
0.030092471894387088 -0.01745497810149557 0.08759651578053307
0.025695384644819904 -0.017880292253120628 0.08387918129803483
0.03526452341947847 -0.017347745993837885 0.06917197089392525
-0.0010514197361595505 -0.01811879258456281 0.08804118205866691
-0.0008626797497851329 -0.018132743114267 0.08777041060114224
0.02312126565575875 -0.0181601401903767 0.06956339099562726
0.018108309413057896 -0.0180888172363969 0.07851997871520347
0.018497750226118513 -0.01808250857787833 0.07858776608463311
0.003613423510674704 -0.018872230977396806 0.06659939781279112
0.034227079239153815 -0.017559562124552994 0.07041190925419406
0.026192096007087835 -0.017977642768999002 0.087000830902953
0.025370475277509692 -0.01798610540494687 0.08259530060926736
0.023647843598917234 -0.01824414208424746 0.06725000106581089
0.0015122567757905414 -0.018723989320383258 0.07304360140938014
0.010684610786082844 -0.01844954866703752 0.07446809866086716
0.021630800962409266 -0.017444893056212156 0.09044892918223546
0.006191553017260964 -0.018525834215351405 0.07888347321531541
0.007091788877931144 -0.01838909068137595 0.0787558749391727
0.028370320779300018 -0.017659678438030908 0.07193829159862745
0.0020542383767227735 -0.018846706044149335 0.07458253904388898
0.002473243502672625 -0.018797388903289008 0.07460816884450669
0.016812472832526883 -0.0185154144787486 0.06808040314153208
0.030430111655703338 -0.017346396804059264 0.07289591515431713
0.02224832989405762 -0.018262244237663688 0.0685166304961401
0.03335811214841684 -0.017126696491620463 0.08198362401990769
0.007117819718970516 -0.01844846191288072 0.0742903660639279
0.010581063564108473 -0.018289519243481857 0.08151926990809862
0.0030349721784790947 -0.017874055559872162 0.08988885268246034
0.02421528181132985 -0.017733208440046555 0.0841217086835444
0.02564208973794278 -0.018032335698776866 0.07082115833834784
0.025159774307267006 -0.01805631604241753 0.07077760977043555
0.04015369085372043 -0.016828284593164298 0.0728049552950822
0.020447952669326717 -0.018238724673583902 0.0736627886474217
0.025515113017321935 -0.01785832093879665 0.0880645966026983
0.011804435286249332 -0.017745157081021177 0.09013114105911109
-0.0017834066682637236 -0.019530771784819326 0.06415994378675259
0.003514447484794475 -0.018615329443483774 0.08173144039202856
0.014393114967313443 -0.01854902883835993 0.06679778356496241
0.019199256226205493 -0.01805278713377796 0.07768077175570978
0.013345327136362942 -0.01839974600193759 0.07731698251667381
0.024344696168722216 -0.01793548217233968 0.08114450491319364
0.01861493216458529 -0.018383787887738184 0.06837746863583545
0.01906167097808396 -0.018346216523809182 0.06832138102287211
0.03180099219914266 -0.01644165352040623 0.0906786894396287
0.0017406162073570126 -0.018843630399514134 0.07398990567156338
0.012923666419030871 -0.018527970888283188 0.06996633687313084
0.03812325330277162 -0.01700293882196983 0.07177810927092634
0.023580188244708408 -0.018146533919610915 0.07025591701197806
0.013534785475002743 -0.01863755420630994 0.06864202119681106
0.030347122347383834 -0.01756835819493791 0.08021323956100798
0.03813937245470642 -0.017040281350405615 0.07301208992159529
0.009109263294673276 -0.01882211909230629 0.06417536191259472
0.025163348823901432 -0.015465877352238108 0.0917939215425794
0.025362946246379553 -0.017843122745194822 0.08399552015400652
0.012064522620676105 -0.018343477601817683 0.0835738453432215
0.028799440061862414 -0.017579131856200227 0.07244269830781158
0.016187890029242265 -0.018430495791293973 0.06954358984478581
0.021060875371763516 -0.018070410954166068 0.0817951129389051
0.0292352582318823 -0.017711878082924747 0.06818118370634578
0.02463791898535144 -0.01779529826469192 0.08696423417103635
0.024720492390202582 -0.01782897207020462 0.08677686452168644
0.033220004767167244 -0.017242831721874255 0.0827539279656771
0.017868635523229367 -0.017974280681775295 0.08504561615941578
0.024326232968816877 -0.017641280448842573 0.08795355537856303
0.021162078026628225 -0.0179706365890296 0.07998261120778308
0.028005078321694663 -0.01760656358707486 0.08183382230877695
0.0335657219161471 -0.01730581042791688 0.07542600511641925
0.024260653302193066 -0.017642852813492604 0.08836719169445513
0.03504359822274697 -0.01757924951281046 0.07764342738439461
0.01970640804780912 -0.017996823181625234 0.079684401116707
0.0016364678436320424 -0.01895188166111681 0.07646212041621135
0.03604204970303033 -0.01722153189083633 0.06992483194464474
-0.00404169427789748 -0.01942173180194518 0.06379125489853588
0.016659516800266935 -0.015187633382971785 0.09186168950601467
-0.0011315524653251424 -0.018072219949744613 0.08887735821350194
0.003402102481697695 -0.01853179903335345 0.07340030176100383
0.0153914757804202 -0.018234367023480982 0.07505744728242641
0.01629396100809529 -0.018224807965466192 0.07474587376704683
0.013522727142993563 -0.018783552282633422 0.06462170053218094
0.0134207262808116 -0.01883439161837463 0.06363334818671607
0.009127102058411973 -0.01842353302505071 0.07432237741321279
0.017134166428299076 -0.01825203502203715 0.07557798140722705
0.012346076662448791 -0.018509062062709847 0.06984464489817226
0.008601405338765654 -0.01821189526563036 0.07872362804007829
0.006903619550577744 -0.018656512350436697 0.06761125773281965
0.006463982793041779 -0.018665332977076024 0.06768629200174697
0.01474452061986552 -0.01803964989712859 0.08915854372148421
0.004266897347386676 -0.018323328462065122 0.08478639733530416
0.03464201263688313 -0.017293477397734357 0.07573573943636616
0.03912128019990531 -0.016959482967544855 0.0725500043464212
0.011650234669371765 -0.01878145811277663 0.0680894242854543
0.003280087404663419 -0.018667099288578355 0.07941038234095922
-0.0012676168073643798 -0.018452040020744027 0.0822130792453663
0.020568248291401227 -0.01809471373909991 0.08783321236103114
0.009536406334659969 -0.01895048308609167 0.06307440347591264
0.013550801843423327 -0.018607990459649552 0.06958751500370867
0.007219446154935991 -0.018638803819518487 0.06972073652777697
0.032489137639755965 -0.017166045069641228 0.07311587188308222
0.03232626302026645 -0.017161743821731388 0.0732834729140596
0.01954805374237269 -0.018223861469983588 0.06968626576186748
0.019558546142800504 -0.018223664131971875 0.06972997030623919
0.026709453418092055 -0.017583886717100525 0.0850352619885912
0.0019164963100972978 -0.018469674554764073 0.08394230422632107
0.014333155031949932 -0.018445981764189497 0.07081450830603177
0.014039676164227752 -0.018389434592510214 0.07130428699919672
0.028128553665355112 -0.01739217156948451 0.09057377393092825
0.029823650304520194 -0.017779186229617834 0.06933968353471114
0.03300805056713925 -0.017022442214507646 0.08006102710427616
0.0030930646369278676 -0.01857502813293975 0.07193847803022126
0.02288069909265212 -0.018177269327825863 0.0701461709946184
0.022627629696905304 -0.018180496426150588 0.0702984704583159
0.032087819502869576 -0.017477306203751142 0.08424561412495396
0.00948922027866227 -0.01795866106375471 0.08785911968300598
0.0006528958268806721 -0.01865772949274738 0.07279542219568426
0.01813115248855861 -0.017968292336955738 0.0861690429468596
0.024785160007302996 -0.01781495233743205 0.07280462375578543
0.003989666020690267 -0.01874302964794847 0.06518470563207275
0.01387825991215157 -0.018377534504640945 0.07143477718216605
0.013040024948410492 -0.018693010627957786 0.06800992864558118
0.023486956198082967 -0.017712454843538197 0.08680159151014315
0.023520664739151757 -0.01768123708538285 0.0871431005112808
0.029079134991036634 -0.01750047656542804 0.07281748249840492
0.011311138517490306 -0.017926285768444773 0.08762437207366977
0.02585558918655256 -0.017948579409265156 0.07808367226176133
0.005509878544952252 -0.018449616593265425 0.08144222616064288
0.0345532360922466 -0.017520102053655548 0.07783643080233976
0.024753271746601774 -0.017919549126369595 0.07904290654861999
0.023970784260336657 -0.017921076841421687 0.07888219509169933
0.028141887009859888 -0.01826964012253257 0.08393574519232538
0.03294536938950076 -0.017328905430419088 0.07168475019883225
0.004644105203103561 -0.018751906511687146 0.07092613358990817
0.02253260785782232 -0.014990976509380367 0.0919056588509686
0.02013471241616577 -0.017766430429641752 0.08607025392733389
0.025023616546409957 -0.018002960727911 0.06995714084760003
0.021031403745609797 -0.017976335117136973 0.08048464650884107
0.028857023599804226 -0.017788015829579517 0.08710432871027414
0.023239661290286727 -0.018124984961221908 0.07647635618226838
0.01690872112509515 -0.018385271187156202 0.07116755989884545
0.00414281747446945 -0.018502198105480632 0.08323450695350648
0.015779996955353624 -0.018504298902259093 0.07056804551909522
0.01521105154800212 -0.01852587305078807 0.07022759019035342
0.025486048714946218 -0.017553499862542954 0.09016113798427089
0.007040818213275312 -0.018190253098343892 0.08628976693235067
0.009983870338171514 -0.018788454480207318 0.06423982667084517
0.013207742405023346 -0.018697509951228326 0.06724014351704458
0.028811120616896158 -0.017539452525385593 0.08128240723876623
0.006331946491739603 -0.018454032560126392 0.08109325820255817
0.0007425362780495299 -0.018386674932286372 0.08355189925204319
0.007952445014111815 -0.018274321609222745 0.07720276787772723
0.029647140140079388 -0.015445367574506166 0.0912117250602199
0.023334382424143534 -0.017757930452053386 0.08550690799990983
0.01745516670409735 -0.018086244875603553 0.08661527318351249
0.006560202804007406 -0.018957562678399948 0.06494452188130277
0.037738671694164325 -0.016999967769818998 0.07376516641491625
0.02119625959615447 -0.018173930402164983 0.07868772317379777
0.021932414312961675 -0.01816774548154598 0.06996650602968871
0.02212421098000577 -0.01818654176987378 0.07046993476109055
0.004666155047656556 -0.018663189759547276 0.07991369430331555
0.005700115432094562 -0.018581715676280478 0.07942314768201693
0.021478120763452496 -0.018245654753557054 0.06850272846369884
0.014226888275108096 -0.018603534973524155 0.06530856412427127
0.0023993406918941603 -0.018163462401519653 0.08870458314259778
0.007752204963245241 -0.01909388706963334 0.06386137473059374
0.035910367436606666 -0.017151449070438095 0.07149692096645119
0.02655603291137326 -0.017917842126268197 0.07212671292107231
0.0313656329421879 -0.01739113958863019 0.08003995039630686
0.016758159966692707 -0.018638386295275377 0.06586768505743809
0.016612301858672636 -0.018612723840640538 0.06696651847534199
0.03260943262142253 -0.017237646972354657 0.07239671609847996
0.018949048332089505 -0.018109432253073116 0.07524133584826585
0.018394036404940372 -0.018106286958846574 0.07618999873029891
0.017071135244453563 -0.018131504596430446 0.08285056870293064
0.016777759489610074 -0.018164266776592688 0.08239523761987354
0.021157597827273247 -0.01821804186066888 0.07564373449438173
0.022383755322673223 -0.017771035191271333 0.0858289950762592
0.010105716326802324 -0.018583881342085766 0.06854449415969387
0.010543704296202683 -0.018513130765391163 0.06943775709207177
0.019690366689414256 -0.01809617893458399 0.08824202874013003
0.028417479914096228 -0.01768055139504331 0.08054283634545645
0.012181939225582389 -0.01834422376924586 0.08217596209447289
0.0120307259441589 -0.018313700922139787 0.08170757026835186
0.01862612039846703 -0.018052441935161468 0.0774791942118304
0.02892817187256576 -0.017795506231787453 0.07994660447274415
0.03286534228387851 -0.017413345143215526 0.07710225535241388
0.01837553652217897 -0.017336765655238163 0.09050095174412431
0.00889208668584076 -0.018689810466876112 0.06507637831105678
0.005151905058118931 -0.018145684724211204 0.08564410935116447
0.03477418643866015 -0.017500721279907396 0.07687698924539456
0.008933269655051089 -0.018663070019455413 0.06556435513180342
-0.00324969914717943 -0.019074206026918686 0.0657576007926333
-8.99675840635746e-05 -0.018946692554889816 0.06601737238428235
0.01563019053032684 -0.01817010570501253 0.07866254606180013
0.01720927467246004 -0.01815951113310484 0.0794417917409078
0.02056288574859981 -0.01817801355348117 0.07593738346268994
0.020756620712637674 -0.018202722597322234 0.07584756866647621
0.00909711446802823 -0.018526546196722875 0.07327645488993773
0.03693030727041589 -0.017006015747124625 0.07518839545485909
0.010671767996518176 -0.018266141587993445 0.08038961294001105
0.03043740498412629 -0.017573473849275472 0.08324919468180839
0.0107486094082425 -0.018825312926216947 0.06411590719842637
0.03986843532733161 -0.016929106363862786 0.08050950764603892
0.027522735833708928 -0.01779691018224306 0.07836307579827213
0.02266225162290896 -0.018060067052926832 0.07834491969955397
0.022391652898576173 -0.018149813803884054 0.0777813545339964
0.023462186784793324 -0.01803788372482651 0.08206295259764626
0.023003365640376312 -0.017988813267179778 0.0818231656160366
0.029841568613010065 -0.01799450924232971 0.08435278075735773
0.011839744598795873 -0.018277848844684134 0.08079212910449268
0.029446368041833287 -0.01751303697334828 0.08817066213256544
0.014252005447547154 -0.018276060674958516 0.07335710145135399
0.013838104160578645 -0.018293533882319333 0.07311784739949267
0.014497386728681096 -0.018259271976448225 0.07367769917175869
0.012856653934519013 -0.018364614259333396 0.08306896295776908
0.02055143270764556 -0.017828385767846677 0.08485628736380099
0.023052286629605866 -0.017898062704862758 0.0797340229608286
0.022912516912948818 -0.017908526861800035 0.07960621043829275
0.021857769949819326 -0.017496996024806557 0.09031106272385957
0.0008615055257254806 -0.018548451131325555 0.07150033249499299
0.022575141555092416 -0.017871348521070227 0.0841604332402792
0.005846962747903108 -0.018158753619742313 0.0855104004357023
0.005948346725664812 -0.01815766073008368 0.08570779682288455
0.029628354553936406 -0.017537244035910657 0.08123085969453381
0.0028247291469873596 -0.018255604541330808 0.08697144552574973
0.0025978853947209316 -0.018290346955457025 0.08588176897652486
0.021372669166379338 -0.01810256577600745 0.07900668499231754
0.02380432592260797 -0.01792966375342916 0.07194439300228445
0.006536266221979733 -0.01854294518692641 0.0730833474420387
0.02314907171960171 -0.014488671926359192 0.09201705749240582
0.021315090913852135 -0.017972994167069874 0.08843925783401442
0.008487458057355303 -0.018635265610817145 0.0696629226070428
0.0010005523869911163 -0.018904730445805443 0.0780174974198622
0.0007335669683675173 -0.01896798098210398 0.07743495011956891
0.005778211878664446 -0.01856808425951876 0.07995274111596633
0.0017739786786644595 -0.018362799906068844 0.08556415847033683
0.025737966730425152 -0.017775449812932692 0.07303470434733143
0.002275560220207524 -0.018805954461516866 0.07079599506346354
0.02337744072386486 -0.017952339218528828 0.08343934436472898
0.02065927583981596 -0.018173725571952678 0.07837123077048752
0.016845353857980454 -0.01780002262612273 0.08949448310228089
0.03445299169943516 -0.01750994096808178 0.07030771316451165
0.007098091275715919 -0.018320557715895597 0.08370299242700426
0.0067838891565490615 -0.018272418657853028 0.08444182398394964
0.023823497119196343 -0.018118448275310017 0.071251390829298
0.031336072352439445 -0.014918687678256694 0.09188260129594822
0.018627621045842674 -0.01815961054776979 0.07438053892737967
0.019466315019936956 -0.018202831158682587 0.07419514079409825
0.02120028763981509 -0.01791804309796034 0.0869109904744563
0.010635328553301193 -0.01886518724463574 0.06631423858624474
0.028738222847095114 -0.01766492983249814 0.07805563457728525
0.02990916964571046 -0.017433106648392364 0.07783983879668574
0.014004086833479446 -0.018075791525710174 0.08600239998652512
0.013619572921627032 -0.018298492990569813 0.08348112368408928
0.03512894282983375 -0.01715947168854779 0.07230827041566598
0.017129437050982643 -0.01827331744985295 0.0726670155752969
0.029574550613301057 -0.017491921471750514 0.09019852998400127
0.019767260080738994 -0.018154325905349288 0.07527864163894166
0.02244962776054065 -0.017911257230196487 0.07323548327040784
0.030872193539254272 -0.017332148462487772 0.06722730035405006
0.021557620767988943 -0.01826248271358011 0.07714301081101774
0.015762820628690402 -0.018594810051526002 0.064988715235042
0.022323604326258455 -0.018090058771266956 0.08332141044337349
0.006872996169035839 -0.018315832417971786 0.08343904742257725
0.029548402904315173 -0.01546954134952307 0.09109686928186245
0.0011258595986196713 -0.01889706707670523 0.06486093709356934
0.014014494648651015 -0.018032055009768153 0.08872125843308779
0.03618801770129858 -0.01692529377724658 0.0799597662496467
0.04012270243734642 -0.017066907674011363 0.07427618887297106
0.005831698997501918 -0.01812068959351113 0.0873875572869699
0.028243856526551106 -0.015274591441298446 0.09198864494365304
-0.000729979631579913 -0.018469274973224162 0.08364542116505683
0.002428770855053561 -0.01859849673524935 0.08011065171707382
0.008239978420089368 -0.018372294984157787 0.07998942850958884
0.007716995889702734 -0.018382922464511703 0.07949709975136514
0.024266516483340158 -0.018009152079103658 0.0818548910969824
0.02982839296220133 -0.01735819436796326 0.0737500601391291
0.021136015557654445 -0.017768902474926015 0.08572664384835484
0.03109778908215594 -0.017371760080210217 0.07807092453196555
0.002068743453954379 -0.019027300495884934 0.06774970746629357
0.002551879746630229 -0.01900941695949893 0.06757092871182717
0.00037579476263350706 -0.018808798097746226 0.07861269867885269
0.022973684460970055 -0.016603426747458846 0.09078197438389905
-0.043734531483765035 -0.01690790518166685 0.025049235681149695
-0.043301208171734745 -0.017344057306029 0.023582631965086726
-0.044241318328843024 -0.01693536168220763 0.02313600686493797
-0.04329085353614319 -0.01729783271057184 0.022206015866978956
-0.04370322851888888 -0.01688467000015959 0.02162003400638829
-0.0444383868917145 -0.016646267504411554 0.02521493155130519
-0.04305600899531708 -0.01747185751263486 0.022008852754846597
-0.04309463918391199 -0.017473221502234685 0.022479233320453908
-0.0428158465139758 -0.017613934768898085 0.025428448142998144
-0.04260721729286057 -0.01764706750461085 0.023463692368995412
-0.042105738111516425 -0.017823753688817976 0.025199311157748396
-0.04163547234599803 -0.017929814333415128 0.026007488403570714
-0.041554940343761636 -0.017912763114441673 0.02435635579390516
-0.04107043363687987 -0.017912266929375247 0.02220193953501421
-0.04123433406983791 -0.017860831591804165 0.023069241484858966
-0.042609099996608585 -0.017678379024614325 0.024340515799873067
-0.042207839502589495 -0.017774726024631843 0.023999432408639346
-0.04083633295742506 -0.017987260954414844 0.024978934319023375
-0.041702445825124126 -0.01783295339114552 0.021832572041441373
-0.04384698090879369 -0.017028146403812616 0.015910177911352012
-0.044188274858631506 -0.01679284097116717 0.019033031460994783
-0.04317817509852426 -0.017305663697014837 0.012501215011939987
-0.043547030934207816 -0.017064668660185196 0.0160538282932525
-0.041236697510004666 -0.017942134193635745 0.01897725877336463
-0.04359720818205285 -0.017073002855999005 0.018228550453292157
-0.04263347581842232 -0.01761245711540666 0.015741806749572162
-0.04232080630166693 -0.017696244443939295 0.019653371290736285
-0.043768089874299934 -0.016997554080890705 0.012551482291663599
-0.043732088198862505 -0.01704821405436404 0.017676671293234917
-0.04372872922048367 -0.017010449135073547 0.014873162374419437
-0.041110452780238615 -0.017973101935670054 0.016349369091583743
-0.0420174478835145 -0.017744346626556908 0.01831502873249705
-0.043898591096233175 -0.016944905514496664 0.014600352784941872
-0.04325641740856 -0.01727679331699289 0.018513337405487027
-0.04153708473716335 -0.01785786676430511 0.016897170117418786
-0.0430329527701793 -0.017330848702383175 0.020084755320768925
-0.04264612185057591 -0.01746997553172735 0.011491853228117056
-0.04227438204356178 -0.01760405937532616 0.012973899959234533
-0.04205257058315749 -0.017760938726577392 0.01681677791764404
-0.04231617322624373 -0.017664405337675028 0.013993930761959022
-0.04205728967185473 -0.017789030350922413 0.01560859234911106
-0.04226180842455925 -0.01773290983482307 0.015147429394619312
-0.042340361292186504 -0.017686170419995585 0.018967071164499198
-0.04342121167513965 -0.017159189946504935 0.015640639918890052
-0.04279848139231151 -0.01745847715798579 0.012669316597591612
-0.04329896830667751 -0.017287468043259917 0.014589714329874796
-0.04326339066503526 -0.017334647250515693 0.014373851830911548
-0.038732639862304415 -0.018198148416389014 0.01920036410787747
-0.04015346670166978 -0.01803971381389683 0.017245691162120075
-0.041964060797425116 -0.01780264729858333 0.021089055652520505
-0.03958187171702287 -0.018059271939565927 0.020118399557085692
-0.03931026150443204 -0.018151311666965785 0.018404542348483623
-0.03977091999965752 -0.018103279236477702 0.019226414588301807
-0.038265912595529014 -0.018198085269326987 0.01771627011268851
-0.03855452673789482 -0.01818470903568312 0.01784212276795894
-0.04139950614548032 -0.01790927791927003 0.020321079446179183
-0.0408311031675533 -0.018058220068777945 0.019824850770400124
-0.04079554105652919 -0.018004772834742805 0.018838369602331827
-0.04251998022535983 -0.017769772394782796 0.03090803845013635
-0.04325543868466887 -0.017370237485869054 0.027406597757303613
-0.042518214245210545 -0.017772973233594728 0.030405413080782064
-0.04205682508248217 -0.01794089369103421 0.029688819846843628
-0.04274423078083292 -0.017583040557997393 0.028234965014426204
-0.0431537198356863 -0.017431744859317366 0.027518352950893082
-0.04310771946957659 -0.017445489516250943 0.027579863636974768
-0.04187056294143754 -0.017885212656939292 0.027247535320258323
-0.04219639035459029 -0.01779290643769511 0.026230541719492233
-0.04431782047535188 -0.016749076505747557 0.029222502197991333
-0.0430982059245531 -0.017412761014399272 0.0314683875547888
-0.04442265130995199 -0.01664549544878076 0.027884045591257196
-0.04309432661323366 -0.01730514196820405 0.03239306727212579
-0.041917342412590625 -0.017940086559100073 0.03193437172316067
-0.04415548586029305 -0.016762191647773872 0.027967045759728422
-0.043601618062207026 -0.01712244623419427 0.028092090470182077
-0.043690337233774766 -0.01694275394052898 0.029300922502621708
-0.04415447221684511 -0.01674920238050925 0.0308946935465361
-0.04262615684954457 -0.017732218797862232 0.03183612808105412
-0.0383976609228094 -0.01824192299736606 0.014239626475902418
-0.03777786036805548 -0.018286602673925734 0.015224814043792058
-0.04066985062254005 -0.018043075289149023 0.012516968869376397
-0.04092322312100907 -0.01798426102052228 0.01303399779757962
-0.03897233498818597 -0.018149615819998927 0.017170870629389615
-0.040022551464120926 -0.018149363426271586 0.013429823318365595
-0.03642565631286433 -0.018384624641605687 0.017447078218496948
-0.041211993122694544 -0.017864389383309268 0.013984404584309178
-0.038269767601810195 -0.01838819792664042 0.01232288886636823
-0.039313699957594844 -0.01825382188540374 0.012957682662873556
-0.03852559809308251 -0.018222443483338343 0.016317698178676905
-0.035682658603100305 -0.018401445828209666 0.015422759671421569
-0.04094151019634666 -0.017971602140582292 0.013244272110161387
-0.03983969134361608 -0.01821082258731461 0.011625061676811647
-0.039858063755196294 -0.018216954828136463 0.016256789686313024
-0.04021531008767213 -0.01809166845676019 0.01682040696442117
-0.03795724533982488 -0.018302686015450535 0.01084291814341976
-0.038374736117030975 -0.018299710054270765 0.0110239298558631
-0.03901108731642706 -0.01831815160713647 0.012323254120707982
-0.03914429205043601 -0.018219757823270434 0.010728052169617561
-0.039556509467297024 -0.01821599194383061 0.015220037346835979
-0.036595225100760055 -0.018376116534551897 0.014314484197148198
-0.03683153576400376 -0.018369305910996055 0.014092032321527411
-0.03694790109614599 -0.01836481570556194 0.014031220460560672
-0.03797596795473741 -0.018295220702186574 0.013902220204138735
-0.03720193156204634 -0.01837665334330442 0.016073218158874924
-0.0409573640745792 -0.01795272312061327 0.011004455572344146
-0.041985687956587886 -0.017647626300283957 0.011686268595197214
-0.035736206718257585 -0.018414912898954774 0.01561904794686941
-0.03537592207606129 -0.018482195799810676 0.017087535678051245
-0.03738712229307472 -0.01831675018163101 0.016986629631388066
-0.04171402036820264 -0.017758946858464908 0.012339326267357455
-0.03927534380996424 -0.018186610049094477 0.014375550643013605
-0.04068597816426053 -0.018033050928899126 0.014817118831746752
-0.041723139691749324 -0.01772763379699501 0.011096396842407947
-0.022091319145430992 -0.01638137362258688 -0.09027628480452944
-0.019725042984396368 -0.017248675970708234 -0.08973969324721662
-0.017941923841033238 -0.01636708531772322 -0.09052454435903268
-0.02034497841994809 -0.013530372444138024 -0.09100358595444802
-0.022356616725446293 -0.016244533510848248 -0.09034856107169721
-0.015048103433416622 -0.01515517166935354 -0.09111230199491027
-0.020935527125877033 -0.01541097051969327 -0.09106236964202594
-0.019983647765474104 -0.015716374718257497 -0.09080376403056248
-0.019347911812571412 -0.01789622021847777 -0.08858907587675957
-0.017650928852034585 -0.01292424576454118 -0.0910403804277445
-0.01892705970463666 -0.012096634359295717 -0.0909788462954034
-0.015257376277844507 -0.013833345922460709 -0.0910043431036148
-0.018049802793394503 -0.017646719478174793 -0.08933804076763167
-0.021126173138352487 -0.017774552057873982 -0.08900112684506267
-0.021941062305615364 -0.0151699598858672 -0.09109264174231205
-0.023202294623539645 -0.015156496004297852 -0.09102600050942697
-0.014973869407954168 -0.01371935741900733 -0.09102555093218481
-0.01699812481106471 -0.014019162103458976 -0.09103282959044412
-0.0207770183118922 -0.014946077439287433 -0.09108148802089103
-0.02277662971146903 -0.0173075040552084 -0.08959289946657437
-0.02297217710668226 -0.016865660929506893 -0.09001134828120137
-0.018975756034939385 -0.016215611992597294 -0.09050996072934847
-0.014784137324864248 -0.015399982428312933 -0.09112025321352682
-0.02221438697567451 -0.015520657700803011 -0.09105143222430287
-0.01893783153275368 -0.01750823128161805 -0.08939612559148974
-0.01614459016574507 -0.013616699842653138 -0.09100675706930382
-0.022037069815664896 -0.016600797731327634 -0.09021908867278391
-0.018249070590923466 -0.01284901468385612 -0.09103990793317823
-0.016235999153528885 -0.015467462966237144 -0.0910801905691682
-0.019756137381264458 -0.01203164305528044 -0.09099917440570887
-0.020768551748737527 -0.01517760326227242 -0.09105310363760966
-0.018268314793064268 -0.015443682589623076 -0.09100110140981514
-0.022847716478296375 -0.014969030383558462 -0.09110873443059263
-0.02346962282518432 -0.015793572456844623 -0.09073322760959295
-0.016632971468776302 -0.013142964317670631 -0.09101507121304266
-0.024586813441280515 -0.016111639945775767 -0.09043732425263737
-0.022086871956805684 -0.014694679035646058 -0.09109506733084072
-0.017437795113013382 -0.017470934597441937 -0.08964084075975116
-0.020579944472316748 -0.017633148362528706 -0.08916805537040923
-0.022010852629409744 -0.014876157456700602 -0.09109243620040607
-0.020980130243268127 -0.014405745032068325 -0.09105061855219042
-0.021462086016350537 -0.017524794290476292 -0.08942437343561312
-0.0156205589576697 -0.016634054454705526 -0.09037072752650865
-0.019966123550310293 -0.01760441532320334 -0.08921632433979208
-0.018520025085683345 -0.017894939065325948 -0.08866947210667576
-0.024447952486897673 -0.015933117320281617 -0.09071328083022749
-0.018368139818098126 -0.017666536551225718 -0.08924041120238427
-0.0178842330449909 -0.015252865254038777 -0.09103623467338876
