0.021684289250215268 -0.018517692058355392 0.038674088850326194
0.021711770379895138 -0.018503305234715942 0.03825464870331875
0.02909991056540181 -0.017913618981079238 0.018908478480531017
0.0020504946421012636 -0.019101923021218863 0.059580458422499136
0.0016467657401133813 -0.019133910755685046 0.05902707572579439
-0.011432161005398303 -0.0199937842226743 0.01214882290255281
-0.014596209149477278 -0.019435455675094502 0.04653604700790491
-0.014911013340608095 -0.019411082168553986 0.04637937020849145
0.02529129778400781 -0.01821804378064545 0.025075769420259734
0.0004096922749535312 -0.019505977289351658 0.03808094061996287
0.02982467129170951 -0.017955743826666697 0.010941835640298709
0.017241042716613884 -0.019002489664510513 0.027503207578495382
0.01756878487553718 -0.01897635964742903 0.027264528889434814
0.0172957328666545 -0.018920523362863397 0.025815884446266868
0.022716704583038205 -0.01861004482374874 0.01969824620729787
0.012771046485541022 -0.01941171319368388 0.016382440901759103
0.012614377926604931 -0.019394209532604248 0.016509806543675877
0.033602927520433645 -0.017449420028846002 0.01296367170886985
0.004353856040120275 -0.019944379491396855 0.006382387804940572
0.009381302610770328 -0.019838473788337477 0.013532715954964214
0.017964769012206734 -0.018721241596109068 0.04206165911606658
0.017318789323721447 -0.018778715077434255 0.042002014872135354
0.01740843893151537 -0.019122756069457805 0.00358106025468368
0.02371798323672452 -0.018482978619315058 0.026251154250570764
0.024160952815787427 -0.018585729148931147 0.006782852050969391
-0.01659694738868163 -0.019638817402204557 0.033688614432181525
0.02015340795656448 -0.018824964987195915 0.004618206482004175
0.022309640961071873 -0.01867178570880776 0.026586129237173326
0.01678291063050085 -0.019198791034168227 0.0037128330267510133
0.005929578408997172 -0.019807286215753988 0.010393801748982858
-0.005119638306900745 -0.01929350862209899 0.05160254071267137
0.027292332864431453 -0.018141690941551346 0.027013350565327093
0.026488114022237712 -0.01817774419409782 0.027472304453182293
0.012126674931126862 -0.019489574223465173 0.011917764148117897
0.005248584642541628 -0.01989896286313162 0.009311959411246965
0.005239183058586449 -0.019934897413185614 0.008872700413947592
0.02051749306318675 -0.018752006104612202 0.029748934239184
0.020108932813623578 -0.01880148816654491 0.02929876685692482
0.02083247448541618 -0.01888827068037448 0.015202679484514973
0.019379053944038965 -0.018990175422742325 0.014823252036114832
0.024607174125512807 -0.018209314847261175 0.03225292802446139
0.019506113963216158 -0.01874959762464638 0.0374062939281364
0.016754358760759095 -0.019042971246205798 0.033648372613528044
-0.014928617515553272 -0.019555534983615938 0.041939163911816166
0.008631385701182707 -0.019705280033616372 0.0026080786296065425
0.009158515137648187 -0.019679526122898097 0.002997708890570241
-0.0067360566181045925 -0.02001036950706792 0.005510609274967033
-0.004714140127621889 -0.02014255462176715 0.006432216791515671
0.015589124283628335 -0.019126374339011216 0.029688539543821314
-0.01111487229111665 -0.01964511616646742 0.035290695530413425
-0.010940933313512369 -0.019624189272356346 0.03578703372541832
0.040410166704828394 -0.016154611367071862 0.0008600664952188915
0.030656121268169547 -0.017742872598641022 0.02650747759366467
0.031248104525968445 -0.01772481723330155 0.026659806332737054
-0.0002037943197214895 -0.0196722205007488 0.033065212037853814
-0.0009770650282659127 -0.019687337547323436 0.032963412039761
-0.00516739198498725 -0.01962471502679439 0.0421075620643393
-0.005887194008615514 -0.01960414045270917 0.04295353915864983
0.033717949293000954 -0.017459006541729244 -0.011396121221394433
-0.011747032062910886 -0.020088637121635135 0.020307570363301608
0.028037410978253893 -0.018120542367774224 0.027609995900379256
0.02762021433279982 -0.018235818202144354 0.028924273072454695
0.020204345384448753 -0.01874089620651625 0.035993031669064375
0.014667829223701124 -0.01943679778163529 0.013018091613595222
0.020295549594058042 -0.01900908783842495 0.006343395399003991
0.03380258840286349 -0.017233909982145 -0.00039506114497549205
0.016872424538377326 -0.01913195635711515 0.011055652822783037
0.004826841523703532 -0.02004449488065749 0.0013966760259586865
0.007212589511966775 -0.019849877034637285 -0.0033046438731554476
0.013817551744886037 -0.019386562086532763 0.012489695783897081
0.042801600922782346 -0.01620819386401435 0.020819696144195467
0.016930498619552925 -0.01929340728302633 0.013242100979295105
0.030708612438468987 -0.017888040770624804 0.021204978368769136
0.029905184630410725 -0.017990338656663447 0.02131018432648994
-0.0008065760500898852 -0.02018232104448162 0.006095594910940678
0.0019002860818318488 -0.020127774115508482 0.006149599468554073
0.0010761237267481343 -0.01999679878424305 0.0072513582359742795
-0.004129566073204557 -0.020247574503679505 0.01378203695751945
0.024728545975347627 -0.018709696663483204 0.013890064745747993
0.019023005305566568 -0.019047494165943438 0.014620284360667299
0.018706773206309785 -0.019113543641465183 0.0144304881362433
0.029853225703729603 -0.01808253774777351 0.032074437192956384
-0.0017149133085239971 -0.020072822608315513 -0.0019576396940294925
0.0374936781273582 -0.01682917726022827 0.013238835498363124
0.03805387270211677 -0.016747827635986794 0.013459181100065864
0.017406544658619814 -0.018884797736073874 0.03241139877817427
0.011081994134597567 -0.019776717454310762 -0.0042950544261774574
0.005406417164070275 -0.019461644132253327 0.036196664286134765
0.01529533295460737 -0.019119631357109656 0.03323157719568175
0.04228622777442198 -0.01637212087080003 0.027095217766711126
0.03296103664295732 -0.017654653282910576 0.016735755607934073
0.019417394312575078 -0.018924686252832976 -0.0025119056277681405
-0.01814792671231231 -0.019088006446602152 0.05439257128577857
0.032511858955956374 -0.017557984021752553 0.010829127337569605
-0.0013826858066187326 -0.02013132533778498 -0.0036423517727574425
0.01867743206509195 -0.018987616428866667 0.008385063037482963
0.0175204049937942 -0.01914313013633244 0.007908495206051181
0.0008384164712713982 -0.02003980791258898 -0.0037455067029126972
0.0014718411673949596 -0.020076024993189872 -0.003570623260065407
0.023478341650296226 -0.018448250160809004 0.036626508036938885
-0.008493296389018867 -0.019894637681238416 0.016646563316354494
0.003924661746327944 -0.019443817664227446 0.037796493177560314
0.0068722041814996 -0.019856833862874408 -0.0008092864324245274
0.02678144135728252 -0.018150513222719707 0.023831153321633672
0.02329272781981156 -0.01841675275546202 0.03147671890517087
0.004703217829441873 -0.01988169043591287 0.004176281715762037
0.026041749599896344 -0.018253173153505983 0.030296003141873928
0.02597405059613781 -0.018267541733653206 0.030177090162268844
0.03583974201790658 -0.017113428139900373 0.024339454573916692
0.021946021982218938 -0.018689993287999657 0.01977980019877369
0.02082268423096568 -0.01871187082710817 0.019215786580012172
0.00824625199834241 -0.019755571720009128 0.008733864934740277
0.021087544394621873 -0.018860862587845473 0.013430807086111083
0.02100522792173935 -0.018877047269518537 0.015093573136847456
0.0057382897121159016 -0.0199646682525412 -0.005551304442192992
0.028221565437010265 -0.017903737937379816 -0.002090415140709999
0.01479964680325507 -0.019281609857772688 0.012243257055483936
0.037078732031409656 -0.017029851991576427 0.02317511087868006
-0.0028294189820337588 -0.020104781526556016 0.004961485276991751
0.0063943560060246915 -0.019931122201251712 0.007501816581521565
0.006245936405765166 -0.019843678721242528 0.008309753345833299
0.023793405663055933 -0.018665549972027264 0.014977800218912578
0.011084662818282211 -0.019324155272911158 0.024019872207735923
0.040531547508886046 -0.016590628408236382 0.0124884011598815
0.04159730105652814 -0.016602485983796725 0.013419283356553296
0.0037727981367999784 -0.019968064092948008 -0.004202282290589827
0.0037315881544707752 -0.019842121719108385 0.021571198018628196
0.015157616001904106 -0.01929773588935869 0.003636000458114565
0.020351777508094727 -0.018946475499447276 -0.004210266986556423
0.028688942367970333 -0.0181411355043299 0.03380789890275734
0.007297987138770142 -0.01966426599474119 0.027704225423121016
-0.007919290380093882 -0.019539559171038973 0.04648699899421332
0.04209235254836896 -0.016110814146679347 0.006299978434740972
-0.008817424226222028 -0.01995923936339229 0.027266300793636535
-0.007490913819421371 -0.019740706794473678 0.02567788817789083
-0.00028454792170228775 -0.020048853740065778 -0.0034868920233897217
0.02864334744776742 -0.018051922582216412 0.031122366677817828
0.021516141089167606 -0.01854964117687373 0.03698705183841525
0.020855197183327474 -0.018673995777740218 0.036357146086832756
-0.002754648304941835 -0.01997044640997421 0.011173613387473287
0.04175341638591009 -0.01647727030220375 0.02857525688792051
0.0015662177918778647 -0.019391277516937717 0.041876926694090426
0.027553621803553016 -0.018046346198926172 0.031423728642532095
0.027957208607210283 -0.018086753089259597 0.03092465516971186
0.019260116777389563 -0.018911783515734665 0.02763080380208441
0.019608637291925236 -0.01891216188644096 0.028133815752323196
0.02643672098462497 -0.0183195002232445 0.00568037335781252
0.03148451008869879 -0.017623175609248316 0.024313067729410553
0.02396321764849821 -0.01834927949367299 0.03498094422918231
0.024058526958135734 -0.0183422737618245 0.03525404705319994
0.009882810350919147 -0.019576172267660463 0.010238790763787897
0.017613960180281163 -0.019270332315151382 0.0131688671738532
0.017286913690791345 -0.01917787123091147 0.01236878896640654
0.02068562856853934 -0.018789165298961158 0.026357353267452633
0.03824936130763798 -0.016669187704643533 0.005801523686691886
0.015387363512328923 -0.01941975174947233 -0.009688148355661761
0.00829487959195306 -0.01946745194952247 0.02349575976649377
0.014861328874310848 -0.01941315521130198 0.0017509907679923073
0.02055974082387204 -0.018612031383587926 0.03938571606893459
0.020740947344650866 -0.018604036775679053 0.03947971116813266
0.03123186117360651 -0.0178224547714942 0.007482319032465376
0.015916384024532212 -0.01936090659825523 0.013754867724041244
-0.0016518787285911011 -0.01982106736960652 0.022997883094792344
0.0198738424442498 -0.01866097233793829 0.03946279411792557
0.027781528849542485 -0.01811403623306488 0.0341411259820869
0.02841268185885357 -0.018117362416636404 0.03376772558656234
0.008424269233188076 -0.019826415478308563 0.015442456505135996
0.020207360480806104 -0.018918861575232662 -0.008665717676597231
0.0036518537810651844 -0.019960294929710104 -0.007796619495143407
0.01782885292439321 -0.01907900794697848 0.016689281805020093
0.005409991260636956 -0.01984195193376177 0.002669097358284844
0.016070489095649104 -0.01922781198978433 0.0038874283218747734
0.006825578742916305 -0.01990188171998545 0.0007175811837448496
0.003651084053477687 -0.02022273254761041 0.0009896983227054696
0.011679652667316319 -0.01981416419000104 -0.012730284407187948
-0.013581268913207444 -0.01941723510803353 0.05626756449808475
-0.010682465597074742 -0.020164093735557758 0.013377084609639118
0.01166118056051593 -0.019508772067667535 0.01089555817331708
0.03651164152124666 -0.01709249261502123 0.023534776788926053
0.03427597346501493 -0.017280195581992792 0.02483449688371311
-0.004537759703022582 -0.020193351591168657 0.0019070896010059024
0.00441858638916314 -0.01993771721731405 -0.009002027317400121
-0.003219560017722963 -0.020083000614360753 0.004813156388572073
0.016366228002079188 -0.01920434326582143 0.0020971930985611603
0.01870477408710602 -0.018877485624396638 0.03732648558824367
0.029383380631829617 -0.018183168571765423 0.032760281666108435
-0.0024975439040119587 -0.020137003977688944 0.00798135594732591
0.020040789263854174 -0.018906595262474755 0.013704002626978226
-0.01457693307589723 -0.01965641783831648 0.028812300040756758
-0.014049897669097151 -0.019670129811857985 0.029382096830990526
0.04335306287063265 -0.015985720787025242 0.027125382517527795
0.043648217832747846 -0.015847152883460284 0.026849384579441513
0.01423234619905855 -0.01936170425029724 0.002531258847500207
0.0019072171862035232 -0.02008895238966306 -0.003001565514570359
0.019212507978428148 -0.01876233247101416 0.024740545594232916
0.019198850331585963 -0.018782865973199843 0.024096779198047397
-0.0009377785321604876 -0.020168888420739266 0.000925005067944855
0.036258361038381696 -0.01673526473944299 0.0047121389156111115
0.027037080008029478 -0.01804554209078573 0.0332477654596801
0.027044555835609236 -0.018036421945135425 0.033067331625435
0.024175069022705387 -0.01837694598661634 0.02946778565736259
0.023749872804184197 -0.01844140981951107 0.02971926291499167
0.020062473922476325 -0.018800283073886384 0.031931907991501335
0.02029260608169185 -0.01876810250161307 0.031161475155115796
0.031216128406392797 -0.017675585947081063 0.0303701865409216
0.019599269251747327 -0.018767904106673495 0.025757831555367133
0.01981400102316751 -0.018688981823131362 0.025182176907245696
0.01888466630853468 -0.01895327321795393 0.009692616669325872
-0.013207507648113712 -0.019864747637269815 0.016516452651664702
-0.0014143463409884748 -0.01999740207612669 0.003924164644678707
0.022107624298956588 -0.018507008675935167 0.03131213686390436
0.02181702022143048 -0.018552706065497297 0.030743811472140222
-0.004103536845621721 -0.020166172022575153 0.007221346832226031
-0.00345836159405158 -0.020188967160637467 0.0075281642163558295
0.02028311592811199 -0.018755764499790564 0.017199943475703344
0.02875838566400253 -0.017955967160006178 0.016683444172123578
0.02868970720327236 -0.01795377339177911 0.016905567720526486
0.027478923941404946 -0.018129297358407466 0.016303817869571705
0.04454985550537363 -0.01527805774003828 -0.002250260589030873
-0.010807562171139967 -0.019309452805019892 0.05413117460258156
0.026907265017883302 -0.01827001951021943 0.011534912311462569
0.005202218224222765 -0.019964332349255605 -0.0014901519331621126
0.03685052531197334 -0.017159859136453043 0.018882982488772175
0.017771726315442382 -0.019255680537812545 0.01309866608662828
0.018048839850652715 -0.01902529334871621 0.03069110429635046
-0.014856143849014918 -0.01969703905801311 0.029718591476965955
-0.015379139847892593 -0.019677315944912427 0.029572579477307865
-0.015471358799458098 -0.019692332304469286 0.029929758805473366
0.009210991056910959 -0.01969014492617407 0.008715826882139819
0.013656720551745626 -0.019406160551415974 0.010789822420741849
0.014593446228870472 -0.019288499104804208 0.010602041219759887
0.024890330837513765 -0.018276542740541003 0.027159777542583762
0.006309510236419161 -0.019834217482139774 0.012300882270275856
0.01765398996478218 -0.019083080934624765 0.00453195849941953
0.030085207843387314 -0.017651772670870404 0.0036960831181484014
-0.010711418646528604 -0.019522665105161482 0.03972335971569504
0.001187810932766484 -0.02005781218412321 0.0052328429814438426
0.0027049244808898766 -0.020053804498824726 0.0064999398432265855
0.043957599078316686 -0.015710463177469634 0.025068245158308945
-0.0009346701985998682 -0.020031429285004808 0.0044834905935137795
0.03665660562361336 -0.016991409792377184 0.025087837072425328
0.036449405170718825 -0.01713299393597866 0.026126348188403807
0.01564028271886611 -0.019051616411583382 0.032883376349802096
-0.011250283671816838 -0.019425028977563534 0.04741297003925516
0.022313942960555642 -0.01847923613459517 0.03151508345837383
0.0055988445118146215 -0.019790284058099124 0.005554379119560641
0.03188990375399944 -0.017387712565975103 0.003593289854626108
0.001735108591109412 -0.019958382398376013 0.0025235739596088783
0.020179977040428555 -0.01891637911266117 0.01277632640450572
0.02436631770528263 -0.01839412847160839 0.010711900944487403
0.014506496940011411 -0.019360135872917104 0.0036925383406598874
0.00020994275170546525 -0.019906868474062422 0.013866394654023203
0.0420212442811395 -0.016100339883079615 0.008977535826198743
0.04138827488618494 -0.01618850599420767 0.009285692362508828
0.024464345994603395 -0.018377118923068352 0.03675721484500601
0.01691865630159676 -0.018955965565071273 0.02993626394029699
0.003417254966986803 -0.019981220448263337 -0.00272097939621884
0.02116733601696818 -0.018561767870531393 0.04020290258224599
0.04440339233893161 -0.015243821707932348 0.026756130378505383
0.007389044898560052 -0.019877157565496913 -0.009915096048884797
0.017490532257701218 -0.01899422851203048 0.03455502896751273
0.02152116565123574 -0.01890465569468173 0.005282301735699168
-0.006729118192644919 -0.019584777881929943 0.03823841153372941
0.03368725230195248 -0.017283586505998483 0.0018523998387363896
-0.005417707747674223 -0.020086103732584636 0.012231979030902786
0.004398157982312352 -0.019370670220075874 0.043389718771460285
0.016957380537385852 -0.019035541573491594 0.034417173427726835
0.017544378079183416 -0.019016169553202445 0.03403460991269414
0.005887608614951369 -0.02001917235179271 -0.0066547374092760835
0.04392675650720106 -0.015669346335180787 0.017449619840871396
-0.0025666192245790945 -0.0200838197807265 0.0033592200665510173
0.005706105064230321 -0.01990312818130476 0.001421344017255521
0.020113152059649055 -0.01888792382525046 0.012398446046499144
0.008173534233762044 -0.019762989176491746 0.0007766558234174014
0.02323375067944483 -0.018417242317692116 0.024568712543455936
0.02379428499339567 -0.018347054803711106 0.032914486176758476
0.0237763339610118 -0.018350377669232844 0.03305374943436312
0.042998252715695136 -0.016154379178078333 0.02859280780456832
0.03795610216005582 -0.016833894267540193 0.015746103767012538
0.038817867000059854 -0.016761438105637877 0.015885884148472487
0.03126033708356195 -0.017506620931317263 -0.000863847039530621
0.018692735952371177 -0.0188904196087447 0.03585786209180607
0.011450737152289317 -0.0197169984525958 -0.010463401333461124
0.02753478932635527 -0.018018059042806463 0.010381733464832083
-0.0022090195880508285 -0.01934049401090834 0.053081876728990326
0.030674049482012668 -0.01778802549620186 0.022198068554184037
0.025996092672999543 -0.01803493177110734 0.03296217788853413
0.03170936838446388 -0.017397245549515435 -0.0036212210966596317
0.024091905275901555 -0.01843102383128 0.010218943508683475
0.00948696482555303 -0.019710738704184584 0.008059591700049433
0.012619967272798068 -0.01956697998793106 0.009523775903286354
0.015700167615492117 -0.01927042932962535 0.010829261512058904
-0.006285964327023424 -0.01924536667784902 0.05178180618945575
0.011095968144296586 -0.01960221040939527 0.008927001233111883
0.026897797387048387 -0.018078658455659254 0.02580758229869473
0.027454499386780035 -0.018069366116293176 0.02606871271704027
0.02762261894000105 -0.018001627742663215 0.025243203522324675
0.021280059086954125 -0.01880196619043848 0.027147761858077463
0.021618527546722464 -0.01877840245260519 0.026901687591330117
0.025372349213253285 -0.01853228063338457 0.01520383171667817
0.02553402770000894 -0.0184956083449893 0.01531576001365972
0.005409914782508181 -0.02003486020010099 -0.00642642631077813
0.01584133908042492 -0.019288166950777588 0.007336524905392725
0.016191928783012205 -0.019307863545809177 0.00706683992206284
0.011919241383642892 -0.019508558223890894 0.0059284899235238445
-0.011168451583037397 -0.020043323615228422 0.021118834456760324
0.03187647321147771 -0.017499096156867896 0.004967141010458016
0.0018718084728336023 -0.019907232856375565 0.004029113590086572
0.002984447125722515 -0.020023419206487845 0.00449420871947305
0.0033825828503066266 -0.020106574656141 0.005249552955271556
0.012310419444168922 -0.019367829130765762 0.016977843860348694
-0.0009217945737569689 -0.019966864648539463 0.003367637715094412
0.0066522070715276296 -0.019920359931522053 0.006329558494565407
0.0215295642490135 -0.018697611188542722 0.011891654094475686
0.04405934034444962 -0.015693082906363075 0.02381449843590093
0.0409159753842117 -0.0165104719504174 0.019978798933524018
-0.005556519591222955 -0.020388700944322394 0.014242060218430335
0.020086606660744088 -0.018919471690397757 -0.008351620638310655
0.011390396065028206 -0.019544331099672105 0.0034890047989273223
0.011720784029753363 -0.01951186663213087 0.003985250305627379
0.03043098121155064 -0.017812640934631165 0.015228189741347358
0.02939743664654317 -0.017954474551225216 0.015777138569522866
0.012288507731356861 -0.019108838115794908 0.04271746423674823
0.02100199142130156 -0.01870209417935995 0.033997414308521365
0.030073482388135543 -0.017652827480187358 0.004589003724976394
0.025343408136101652 -0.018660248580479225 0.013405966881206433
-0.0030020117040699358 -0.020121979520032363 -0.0026422685106971874
0.005819194195598581 -0.019898873412090328 -0.0073523813658728
-0.005911746169393864 -0.020011875857905412 0.0077113540499367935
0.018317652928494355 -0.01891801847973778 0.02882787647883088
0.018806196405464923 -0.01887837353715745 0.02902384768383869
0.043643547805620186 -0.015802289979600436 0.01652778227636468
0.0017548514839499547 -0.019672739056238855 0.03206792135780165
0.0013706151755880362 -0.01966426741260416 0.032484056081625086
0.021410587458140243 -0.018723603088267322 0.029454746824832668
0.020978737247941706 -0.018729723490802732 0.029752436162489317
0.0015030644468712877 -0.020098033915551365 -0.0028209958002451286
0.013232190667334614 -0.018961464595580492 0.05299066861092322
0.008571087560800808 -0.01980410152506563 0.007052605089206601
0.033245116923200035 -0.017207297828571288 0.0029445657919347475
0.008052675177880199 -0.01985753759142042 0.006683635594704144
0.018040042420623355 -0.019171485800420232 -0.00752924222110472
0.042869586442181765 -0.0161482271665279 0.015067504064648258
0.01601346312810544 -0.019243475155178144 0.009859124482181517
0.012696298170686696 -0.01957965207354009 0.00861349312135942
0.0262213186970884 -0.01800802807367424 0.03275682992010061
0.024876412507133037 -0.018195809903617157 0.03370269543570514
0.005011166722725085 -0.019900298221894996 -0.010504284084195693
0.023807477631138337 -0.018617285293427262 -0.006171684552487448
0.003588251213326395 -0.020028514589182225 0.004519156478067636
0.005896155953418348 -0.01997492541610223 -0.0006714953278854575
0.004878379185227991 -0.02000900808015986 -0.0012278441414938673
-0.0010039747005551043 -0.02005197121359989 0.0023672016617513492
0.0033259218646291147 -0.020017490969932744 -0.0017563643618263855
0.010853277185904618 -0.01921041985636453 0.036387393304249706
0.005832047464845797 -0.01937396963352704 0.03908509529221063
0.020305711995683966 -0.018779168994567032 0.011491015724518612
0.01679206466390842 -0.01909209052087183 0.017090107064845504
0.01108344982488954 -0.01957818595667957 0.0029592116241581585
0.01147374274936976 -0.019560057947689988 0.0024921415441486257
-0.006041720720361934 -0.02003111555179235 0.002767585243414756
0.019446517511934543 -0.018975151295688348 0.005885122358721451
0.0044071571691404274 -0.019552971835637114 0.0410279910218654
0.0014467846077423643 -0.019959301934598207 0.0030204596396532727
0.009317536976790105 -0.019818012372569003 0.00689384752376166
-0.017054999983965233 -0.019457232236505785 0.03580839064476824
-0.0031781679512045673 -0.01980933252820043 0.025131012985649796
-0.002228801865975156 -0.019782061561587544 0.02475275528153138
0.016930657889067953 -0.01914162557476532 0.010195646088773585
0.011589530144182557 -0.01957991110287969 -0.007493550583490633
0.016601888713072964 -0.019207052589401283 0.009406134822194573
0.03559337882290519 -0.017295807981834138 0.021174174451781904
-0.002470522643926892 -0.020054119284115053 0.0021272119438293805
-0.0014215354803451534 -0.02009844943201703 0.0019258634319536357
0.013904558071119922 -0.01900042873278316 0.032163421248431134
0.014080849611349311 -0.019097166374944352 0.0326352416619347
-5.860407433996986e-05 -0.020067461825473438 0.0016585910146813688
0.0068724545926414846 -0.01980834594493007 0.005142129261689211
0.018726665173503625 -0.018987075319800813 0.010944950131648229
0.013070780634692632 -0.019022535905038204 0.046541317101745014
0.011725699746198078 -0.019378536787428506 0.038448745220151445
0.017410877063411188 -0.01922880541757843 -0.004453963886852565
-0.0027171431686435613 -0.019300912444310245 0.055811194299977725
-0.0015733186022975174 -0.019199062147820297 0.0563545707201354
-0.0063236116612878385 -0.02002666890924994 0.0034629193466285653
0.008442876123388754 -0.019816194759456618 7.769436000943754e-05
-0.0064150661090179445 -0.02013653928786111 0.012555954842358814
-0.012382957020282907 -0.02006317065379046 0.012575790196436565
0.009873974771525521 -0.01978159300303388 0.006669911285639896
-0.01608355909370665 -0.019527507164702626 0.03555740700577154
-0.012831444751797462 -0.019543216792488757 0.04318578003210194
0.00993152738113199 -0.019775659952363273 0.006929643292568439
0.021118082904251014 -0.018778279379293362 0.003053763937307889
0.014226255752067776 -0.019461547724380822 0.008107053820880032
-0.0011016154271792156 -0.019959557011695623 0.019710174438041114
-0.0006888337765993165 -0.020112934473285615 -0.0024545727458569248
-0.006409419246059138 -0.019790494669937642 0.01840316634033123
0.003235546404395228 -0.02008831299493261 -0.001104644519759587
0.0035461977596842973 -0.02013731399246293 -0.0007259209131983353
0.044977944854869105 -0.014797315958787347 -0.0069823235578896
0.019754267171922302 -0.01904008039958808 0.006468088621984028
0.01598342495645348 -0.019378702030044985 0.005465914687018322
0.0032671230451178203 -0.020201723909369796 0.0007269251904946079
-0.006893319083357805 -0.019937973090850804 0.019554362137850712
0.018137704534295876 -0.019117803414963032 -0.007984599607323704
0.014195955592573877 -0.01937619891985845 0.002960766108462941
-0.0012569775535805415 -0.020239778426045095 -0.004934220185643181
0.009021297935870804 -0.019640282599409507 0.005046055041611269
0.014617492266749719 -0.019359369260561525 0.007725382073433694
-0.008804266850417223 -0.02011719344274448 0.005665732798522631
0.008774282767000225 -0.01969778671114223 0.0037281016967658067
0.009567844540108927 -0.019641220220123767 0.003878359593775977
0.007612513731555624 -0.019762748250612267 0.00360773023854287
-0.0064674321669091 -0.02002833938498795 0.003208217788482588
-0.015207616957104816 -0.019192149511856296 0.052510414735076366
0.020533501712348905 -0.01878031944741866 0.00992702877397558
-0.005474566537408101 -0.020286108852173475 0.0011365684830581006
-0.007339792520069796 -0.019991210815446296 0.004511771010516088
-0.01416027847719966 -0.019470681304070557 0.03803056205038168
-0.0015286678770526831 -0.020062247238284064 0.014272267356447703
-0.002859575659206375 -0.019659963309756855 0.032435885341557426
-0.015138048892850345 -0.01954520405124345 0.035271640935603435
-0.01776079725497886 -0.019211095761733687 0.050222508206012685
-0.017673243061032476 -0.019215220369021326 0.05019473845933496
0.014155992799087112 -0.019415924722149223 0.007652497893808566
0.002964614101768445 -0.02001536519803257 -0.0033283367285238405
0.013762884660438431 -0.019401151090200817 0.007100704557524094
0.006500051285888188 -0.02000648899207122 -0.0070915284073363475
-0.001305138811490723 -0.020117888272403565 0.007023799269336575
0.01762373764202216 -0.019108630475357123 0.008943915533512627
0.025115609819867157 -0.018387190722059313 -0.0005941213792792147
-0.004472904702141145 -0.020260828527506942 0.0006587547242800551
0.019445809508251033 -0.019200577290716926 -0.012896776620142677
-0.002792249735310526 -0.020197408565061286 0.0006517947525549026
-0.007145767729529546 -0.019754242003084864 0.03294661080632457
0.017106561674302533 -0.019198929106382358 -0.0037743557136643447
0.015079889449396398 -0.019092783031784966 0.02537597422507261
0.009547867511114999 -0.019676046652335827 0.01566192384960191
0.0018547412437737495 -0.01989760360663715 0.012224312070678886
0.006999222867028496 -0.019891559704475245 0.00011266935716272301
0.0074328643708815685 -0.01972569065792239 0.0030490457106308695
0.006776497139467737 -0.019738011143249606 0.002738507702451264
-0.009209124430883916 -0.019895281217718965 0.020543491413823424
0.017225915571965716 -0.0191900124238926 0.001897146763242054
-0.01448373603398452 -0.01913570779498982 0.06125547802560177
-0.013307287558756797 -0.019154043108451105 0.06140900586957854
-0.004163516783811869 -0.019984102669897367 0.011626036369551559
0.017121651331678887 -0.018829389980882322 0.042669081982494764
0.0177014842693841 -0.018806326378600018 0.043499035324908786
-0.008955044549183597 -0.019478612865677612 0.04012752511258264
0.0009038923389147048 -0.020106568505963367 -0.0014802426271553707
0.0012824424729559899 -0.020084403679447707 -0.001624887489595306
0.013440657592277316 -0.01906193055224883 0.0429761608302972
-0.011728147116567226 -0.019341613038728 0.058337344457478305
0.01360230586245334 -0.01949091937882732 0.006262192139072982
0.005913000114750241 -0.020029207714883597 0.0006395780956292359
0.01759697461146261 -0.018966854719339295 0.037627989183886684
0.01788285594817858 -0.018951195367914123 0.037639667741348096
0.036469724041749675 -0.017023577658005457 -0.009020355950047448
-0.00027024009809847687 -0.020102150722501634 0.015327277982656989
0.002002842815822968 -0.02016020818153238 0.00032141355475957226
0.016475800396966105 -0.019356052837625464 0.005953116654925117
-0.005379685903744569 -0.020266544898623538 0.013111228645700804
-0.005498194090892885 -0.01997956861972713 0.011509019963884225
-0.008676724269957381 -0.020072485919376062 0.014999630457136972
0.012892228475595253 -0.019466758685890023 0.005587125683234088
0.01314950318133215 -0.01946275947093761 0.004896485269378098
0.01016741038411932 -0.019544463887103 0.016232245232634092
0.03353649387947957 -0.017305481830937147 -0.003992615617989026
0.033369545792566305 -0.017313431337120124 -0.003994276366857433
0.00015629923140446969 -0.019729664715239487 0.031882306392759574
0.0007074825741495096 -0.019704262847569265 0.032154861846631334
-0.0013305796341215096 -0.02024269485439201 -0.0007149661865873097
0.017434379210295392 -0.0191561174454278 -0.002257433328721238
0.021016783576223552 -0.01886595257627992 0.008341887892720763
-0.012623030004874851 -0.020132740626947636 0.012996584615759837
-0.010947121704935425 -0.019527099098301824 0.061303279885058695
-0.010675599631480893 -0.019506979160131225 0.06122462205318961
0.02259938025458378 -0.01850104557600179 0.02396705249802646
0.023849193398029978 -0.01849460057101359 -0.008910528720709993
0.007104798067034875 -0.019589459689954708 0.026461016064910192
0.003200791173018394 -0.01997300978981644 -0.007129173879637455
0.014417768210381203 -0.019447804149432306 0.006442104262931394
0.01489374348995518 -0.019355510081060706 0.006938577195963016
0.02066883911012561 -0.01881114573865341 -0.0013988483492622448
0.007262202610200131 -0.019740581147598354 -0.022043628654145025
0.033504219516997856 -0.017181057412106168 -0.0168572358176521
0.045852459214284026 -0.013665465884184148 -0.03446413123765891
0.01936555040699431 -0.018791073475262602 -0.044297345433905934
0.023478290230343382 -0.018365294892634196 -0.02776968723856555
0.004669434728877948 -0.01997212322595178 -0.02702414274836865
0.007913055705261244 -0.019672647765814844 -0.028527916418234132
0.006263727803340285 -0.01983902549563881 -0.024180524978002632
0.01753526548147957 -0.018979567973694073 -0.03649456458328497
0.003771565522413626 -0.02012158356408724 -0.03242979743040622
0.03122145247216425 -0.017337845234526996 -0.02950592454994676
0.021516150555101976 -0.018603498289775963 -0.03294108334919098
0.02572418147406466 -0.018286935434209763 -0.0385207302951269
0.028899442621846023 -0.01795473826872188 -0.013895364328555957
0.017430906468653674 -0.01902490710042919 -0.029438670915303666
0.020426583026128778 -0.01888007555382851 -0.01949810024306934
0.00877347255584108 -0.019807337714035235 -0.02020989299831802
0.008780831224715483 -0.019600033539272248 -0.028978113313167263
0.04461679961865532 -0.015279981633919667 -0.011917254288702578
0.021193066049269897 -0.018663928884512355 -0.034530568084333225
0.014059967083983592 -0.019396755787809486 -0.015455706403439325
0.00956393802909835 -0.0197670945768565 -0.016704494888701155
0.008957912068312273 -0.01977077886235186 -0.030090436691793118
0.002323929016300441 -0.019968276542836248 -0.015844089275978735
0.03101076618483522 -0.01763850505715105 -0.026015593603781507
0.01684958988302651 -0.0192337606710648 -0.02551627657936677
0.006023885048686422 -0.01975818382386195 -0.03264349338838316
0.01248820879766549 -0.019540065770766155 -0.015553254593669723
0.02082121306819451 -0.0188176670694781 -0.03875962194306951
0.015233779739777393 -0.01921513354628705 -0.022036469611487537
0.008032135532375025 -0.019738357829901507 -0.017693570636397562
0.01108221675931042 -0.01968510656286071 -0.01885013377552795
0.007965186998621622 -0.019836125802997998 -0.0305444194343168
0.02638253027095074 -0.018207973457481413 -0.026500002513700216
0.007610150570416887 -0.019894986856584983 -0.025363646426973113
0.0071486697610575346 -0.01984889435728733 -0.024311701034801646
0.018396085849097535 -0.018882933272802917 -0.04123103113849953
0.0172765841463042 -0.019050286872108614 -0.03470917906778369
0.01336852126329745 -0.01960126769804526 -0.01923197063770053
0.023502249202078964 -0.01858194688204205 -0.03844189041207959
0.0011011564440826206 -0.020087829114647817 -0.01747218504870427
0.003422324845807858 -0.019939766071764613 -0.017299451991333707
0.0051729627740964715 -0.01980405302453725 -0.02322586182233142
0.045371561925401094 -0.014228238593468423 -0.03613812445334978
0.019475993850209136 -0.01894913552638052 -0.03954391846016508
0.0032693220111711767 -0.019980096534459826 -0.021606641240164648
0.02450465040776177 -0.018411434044704647 -0.03954982733442893
0.008023069284660612 -0.01989291109346513 -0.020070479097712295
0.017508904669944366 -0.018953825417210336 -0.03581315095623624
0.020069938895540144 -0.018931265248481297 -0.019956447763684576
0.03108525244363923 -0.017502484551303994 -0.030834881650191895
0.015431583507288633 -0.019183305759262984 -0.029771305406930494
0.017131047001968037 -0.019011035582452287 -0.04053113767831898
0.010650131265832558 -0.019548905487696375 -0.022677975393996037
0.01991450244837862 -0.018837514024658143 -0.0358113927650614
0.023645571800398956 -0.018346960611218075 -0.023611882878891613
0.0011755213848796933 -0.020138489297298893 -0.018631852842589457
0.01758817467783489 -0.01914309241350305 -0.031749543126709745
0.007535966920022313 -0.01989540380096148 -0.027616773557599502
0.04398263430373021 -0.015481098584428407 -0.00886104419726388
0.0032969382182747482 -0.019892532746597896 -0.02435682727313988
0.025179643182914612 -0.01833879744511265 -0.018946561282125966
0.02552583403778968 -0.018325507409994855 -0.019002814291975006
0.01953557630044038 -0.018914778272455614 -0.01552170121832933
0.0073420898529212054 -0.01986630581382167 -0.01637691419493663
0.015207468628731933 -0.019375693471874744 -0.018171067799203043
0.01535797722825267 -0.019309872620573282 -0.017824210857288036
0.02051686558792241 -0.018778520509547248 -0.03674107416120724
0.01991315488467517 -0.01884542869792896 -0.037428828354191736
0.018671223454425817 -0.018951239563248123 -0.030743772805951513
0.019681877200323144 -0.018855315260760667 -0.027174592952741203
0.015547457594637415 -0.019166799437165694 -0.022646184832707
0.01130401255773928 -0.01956307132977658 -0.023830452850310924
0.013967310999782594 -0.019274898187158652 -0.0332183416816996
0.005768008882296326 -0.019857449035168822 -0.030615898539846906
0.009232920434915144 -0.019822815448488573 -0.019921235513646295
0.00367343196938817 -0.019897134076884877 -0.03049208678274133
0.019773626188261194 -0.018803116197133943 -0.023993475681725242
0.0072182902241933414 -0.0199016831519025 -0.014118654427988897
0.01433422446932571 -0.019311339384082492 -0.02406393311645701
0.0024787111282684143 -0.02000827104638873 -0.02537576900516853
0.01022350793395772 -0.019623416645034305 -0.0238873101638839
0.04531942956368693 -0.01461772894529455 -0.029281373773911087
0.022007735268938396 -0.01865783466440599 -0.03164498006179959
0.0025090909993995218 -0.019982643212584132 -0.01696225389329634
0.009707943053388544 -0.019647399897959213 -0.021506214790623968
0.020148466917101582 -0.018815659461109212 -0.04009103195735473
0.04483487444141623 -0.015174525711644895 -0.021154487835468784
0.00269908852706621 -0.02011126253244791 -0.02006459940827803
0.01612601018875487 -0.019377637147678005 -0.02067776655967938
0.00026261918896522873 -0.02002120555134743 -0.021920667378398706
0.024007857408248217 -0.018392412063403585 -0.040063869988492734
0.02082586512017867 -0.018732524850894668 -0.03612795359418876
0.021377087085572708 -0.018646356723929728 -0.03595578918206806
0.01872449984024789 -0.018996630907233393 -0.043460512515729084
0.019163238996179638 -0.018908652878051484 -0.03796824262621033
0.03261801025031683 -0.017733056078463198 -0.012110600021532362
0.015849502951943123 -0.019392077990614168 -0.031523134175205615
0.01731275180335975 -0.019129392548187896 -0.027420182405408857
0.012581256987665638 -0.019657092787289106 -0.03214056888159558
0.01975907001682734 -0.018852233585255826 -0.018445447767241052
0.006574615757930335 -0.0198435282894828 -0.023830789486447946
0.024775729208780548 -0.01847011343383438 -0.019895936213799148
0.01492712218693406 -0.019257384229517685 -0.02340766815221225
0.01692293995264911 -0.019310679063976002 -0.019062152997785586
0.016909745187021395 -0.019210834550502973 -0.014334593388833033
0.04597418066675362 -0.012557075072962328 -0.03443339777857785
0.020786638508882377 -0.018774131771666255 -0.02888847594712251
0.018234732765846858 -0.01904385267606532 -0.04362864234298068
0.0169702393620912 -0.019386978070260488 -0.013455248723150275
0.013422118141724214 -0.01944769917719885 -0.015017751761421482
0.045570603730622994 -0.013982032086058914 -0.0367590174648351
0.0028875101588586257 -0.01988893170779661 -0.023877089062760884
0.018701703579102173 -0.018837500868406704 -0.02820380149975789
0.011585665084485228 -0.019594210305215992 -0.027401420694842835
0.003163776413985394 -0.020067698655976917 -0.03161110327879463
0.009117704222946051 -0.019748037134616352 -0.024266601617623996
0.022493515362217865 -0.018534680711237525 -0.023175347098502986
0.021859318824111587 -0.018754252828832533 -0.027373035974495342
0.01697172361478061 -0.019204632928243728 -0.021036919235263123
0.011739376424292243 -0.019592700932515743 -0.024791297621685
0.045965128381954275 -0.012403740931626795 -0.03452576596253509
0.009629160418903692 -0.01971725648873814 -0.031528654887429994
0.012448976923053462 -0.019519363987641737 -0.01804272261962934
0.018852068860460484 -0.01889794786964712 -0.023754482963968593
0.01926120053792211 -0.018836490947128724 -0.023162062691470156
0.011748794862428608 -0.019577791077913766 -0.020874058438674428
0.008163518080490446 -0.019677438280906803 -0.029408580559683734
0.025109551780030524 -0.018168934159008353 -0.03574154958662804
0.01894365075552376 -0.019012522035833476 -0.025310242791351887
0.0011630509827557003 -0.019948452933927326 -0.022707267652760158
0.0032674358000504516 -0.01995752342758552 -0.01605539467500416
0.0118757525794789 -0.01943037190685222 -0.034413554906236356
0.01782292988017353 -0.01906227742255246 -0.02733467857076034
0.020479135196331797 -0.018822666694393853 -0.038237506674457494
0.020163449090706456 -0.018868286945700925 -0.03864550496784756
0.023652379313088313 -0.01855027691124453 -0.03894717769252742
0.019628548563223082 -0.0189301483529715 -0.02595587582381646
0.04575163129034037 -0.013749589104192626 -0.030447606040508036
0.008129030017567398 -0.019717267619543125 -0.02817908644508924
0.003517677149089263 -0.020000514150523518 -0.018617669466937624
0.045883744484576244 -0.012878754957318354 -0.03235845673002108
0.014488308817048079 -0.01938098034609252 -0.017396067988905615
0.0070190813598700625 -0.019738254967171846 -0.02816405839102227
0.02351112386148792 -0.018379153143197182 -0.028380627009601936
0.017498441307216363 -0.019057095638299788 -0.029795074571367833
0.014773386219249321 -0.01944824450271801 -0.026017751955350287
0.04520666385955473 -0.014829338651268457 -0.025958855985503494
0.010498481838830408 -0.019521660378778852 -0.03477701773241683
0.022065038836154603 -0.018585769625100414 -0.029286978809150124
0.015343011280565186 -0.019272207677088662 -0.015095893078544267
0.018393613397653878 -0.019006371453897712 -0.04261055454016967
0.02240935866082782 -0.018516152703087003 -0.03588692739396077
0.019284481071903222 -0.018823221483909282 -0.029623069180096336
0.011870580940788782 -0.019554657307318948 -0.01443114915142715
0.04584381270904187 -0.01362050941809265 -0.030904104228372933
0.016306302233741805 -0.01925018246297841 -0.018106809254294212
0.017025853608953503 -0.019221393102437936 -0.018324680610675447
0.01724150967959189 -0.01899529060554306 -0.04227350054271502
0.013089705252136454 -0.01943288733910726 -0.02178769444233751
0.018995333872780764 -0.018896628062347418 -0.03356207129431597
0.02110449277216241 -0.018734512042442735 -0.025524647201880274
0.011479996658034671 -0.019636795213703415 -0.016593761053106098
0.044095753374739574 -0.01504138738487902 -0.0356993032844934
0.04593547495971874 -0.012842586687754405 -0.033070540917263525
0.018271246172451277 -0.018892452637285215 -0.044850620062109325
0.01665254039986523 -0.01914380609242542 -0.01655659239739047
0.02078229827324275 -0.01879757968467178 -0.0260921332818009
0.010451929734105615 -0.019704038684338544 -0.02060266168360636
0.016918352876965876 -0.01918192017237052 -0.015697981563612743
0.02358122387905269 -0.018313924968851054 -0.0462362050923327
0.01633190234037652 -0.019414102347197475 -0.01944687254847449
0.005835955310395223 -0.01996950436486433 -0.020508260816300333
0.006601988991138301 -0.019953892246202636 -0.020609808275516405
0.004397693625576741 -0.019912856053477465 -0.016189049645326213
0.005533726155257838 -0.01991798101116836 -0.01758225264314732
0.03345927309586782 -0.017337001542176954 -0.013930843420289607
0.01361889986491983 -0.01930338875778835 -0.03610183845168347
0.04484715233342634 -0.015179200034255255 -0.01246455066792506
0.018213174416546057 -0.018997028314663433 -0.030438549661638913
0.01487712732481083 -0.019292900023433684 -0.024339884364122474
0.015912328203056374 -0.019112492966892467 -0.029354497754294155
0.04584354314654973 -0.012370467604097287 -0.03289066831843797
0.009238745120011186 -0.019745127180777478 -0.015794453605863453
0.007709679199979652 -0.019678225462588118 -0.029083145420881293
0.027719100225241287 -0.01803031926566477 -0.027016976514668757
0.0008676781709503719 -0.019952984471347766 -0.015660654861768535
0.003949129283554736 -0.019867650303207668 -0.028460370511251776
0.04418237782594956 -0.015512036317389684 -0.010621886769858898
0.044853216396807186 -0.015068199536947734 -0.00971703291477114
0.012658625945169276 -0.019451801124195485 -0.0291351043034269
0.015930770146961894 -0.019285027867378415 -0.015514286411058597
0.02014243584348999 -0.018762552211495122 -0.023018792939277305
0.044711568465215 -0.015073663508568792 -0.008383361822226907
0.013772980727994266 -0.019453520564339688 -0.02494989086979495
0.004958320320346764 -0.01999271025936075 -0.03183721992072929
0.022494957634707605 -0.018657753472139632 -0.03921365213012552
0.0014363132266062295 -0.02009061127036403 -0.02626477729201223
0.04470325935370613 -0.01519007538982172 -0.01119921734205193
0.0057776790539816455 -0.01975985307392378 -0.03393360082687141
0.019594265521176227 -0.018827672695841582 -0.04181124181998684
0.01458379901957247 -0.019207081506366755 -0.03428252336199525
0.027226671819173116 -0.018170346393258555 -0.03864904194187061
0.021660649616439247 -0.01882315830464244 -0.018826320538240834
0.021723262338190375 -0.01880756292625638 -0.018776465654954805
0.010108319464528774 -0.019594401001862945 -0.022460388866697954
0.03347590565841889 -0.017664527038094364 -0.012452441679944895
0.045991613123590715 -0.013198882656950935 -0.03501275961369684
0.022491585720048193 -0.018647218561789757 -0.015416892683450006
0.02598771470318619 -0.018090858049638735 -0.03538318989012714
0.025663398860362813 -0.018362680935505648 -0.025578700773337147
0.012267593091416017 -0.019567124046741956 -0.02590605087509726
0.026299795037343723 -0.018057057107727627 -0.03596652630782852
0.01946512239590095 -0.01894152142590261 -0.016410645840210503
0.0184786643091653 -0.01887759938419009 -0.04012459420429275
0.043730832343333526 -0.015716026551622502 -0.009556423647011637
0.04558514083610626 -0.014159687346516365 -0.030655252482796505
0.008570453511311006 -0.019672362166979495 -0.022542206359091925
0.044971506182780174 -0.015009524365609372 -0.010050024708715105
0.015365955059999922 -0.019111199015802265 -0.0355746757350999
0.019392277233710422 -0.01895689898367139 -0.031011177537912396
0.04591444837110985 -0.013565342805115174 -0.03410682500834032
0.012920150266955152 -0.019661046881973995 -0.02036151131459965
0.01676770599092591 -0.019064339509568436 -0.02181656207425618
0.005895621318818401 -0.019819088700576054 -0.029365596287075274
0.015215715331557121 -0.019377229820097517 -0.014335545191113937
0.0026127776274447803 -0.020011974051246925 -0.01621474945328798
0.009487030203898386 -0.019575021277070562 -0.02892418216794991
0.014837303039114742 -0.019236131040827116 -0.029595097602026214
0.013117308900717392 -0.01946889282145993 -0.026950730915458944
0.019553020372201135 -0.018872887250993974 -0.04293126857233362
0.023556405084504895 -0.018366574678116372 -0.035875689813934505
0.014035750896039749 -0.01940753963407514 -0.014206198455191638
0.005421317355786679 -0.019921735466410635 -0.01711522103408906
0.004670575482687775 -0.020084244861193902 -0.020156577987998907
0.003105170875284359 -0.01990985399071505 -0.029244800527583034
0.0044669139409973906 -0.019985055985974096 -0.018031288154834506
0.017762907037528104 -0.018929960701129137 -0.04155048360400009
-4.8888412789783566e-05 -0.020096552628916044 -0.021007477846802097
0.006780822137633082 -0.01994535705765579 -0.027542708983896737
0.006592281111474137 -0.019864540661405396 -0.024786004312585642
0.006121532977469691 -0.019999519007006458 -0.026238904840440832
0.012549732713586871 -0.019467446113227746 -0.028899022306994315
0.0030373434927847276 -0.01993744397818082 -0.029862877540858285
0.01436857973447346 -0.019548657381890062 -0.020910885024204816
0.017375602631593635 -0.019217124045174856 -0.025039321885638923
0.025488557688026027 -0.018308419020753988 -0.03768312057270761
0.003661997955021477 -0.01989634368201329 -0.022124943587175844
0.011187126801462683 -0.01952182649632038 -0.029987773462739425
0.0116916072229581 -0.019622942538568243 -0.019029937722088792
0.007191411770020203 -0.020002244034207226 -0.02682803579164944
0.026600485123137632 -0.018105742317134726 -0.03780131683028282
0.02210791120742918 -0.01854519498893594 -0.03312710862562963
0.010012682876304581 -0.01976122200570661 -0.016860389177763068
0.0029774945519642155 -0.01996460322127496 -0.025243817662305205
0.014558680151948031 -0.0195677115325893 -0.02083941899804311
0.00801328150249247 -0.019785453446505907 -0.0213534675215186
0.001509164488298044 -0.020048247756150397 -0.024729768028458988
0.02259392543961979 -0.018511081815669735 -0.027756310302299744
0.019489783310321016 -0.018829269355145548 -0.02834089520044672
0.011066234924714969 -0.01955894228024603 -0.02152298075442031
0.018574134079660055 -0.019006210042053488 -0.024667201892310732
0.015013696412814243 -0.01940163952615905 -0.0311055345554778
0.006264490550081153 -0.019980413023943107 -0.026997075133149077
0.006207938629303629 -0.01987913853817414 -0.03083562261545846
0.006632258461155547 -0.019868219232145774 -0.03082785657349069
0.009318011318070536 -0.01962572297295041 -0.02791745882830607
