-0.06798898950811412 -0.033900815261438275 0.06927780905262876
-0.06001402062354193 -0.012725259351040411 0.06940947246930614
-0.027034863774131595 -0.03743119329285826 0.06844333330239394
-0.046122184059399704 -0.029013717731415888 0.06941225157559255
-0.02107476290779786 -0.034339183382049436 0.06886781222049579
-0.026949670145519175 -0.03632456791244384 0.06865544181561128
-0.04864875948534026 -0.0362117871791389 0.06910595118699274
-0.061260863361621724 -0.032003532187204614 0.06910070369299853
-0.030271161633498612 -0.037940771372026796 0.06836230212723628
-0.024510529955144328 -0.037395057514237516 0.06812654757254172
-0.06386739579945193 -0.02301852563126463 0.06948231231167862
-0.047999801549332116 -0.032410842097885875 0.06937480736259581
-0.06629609968513472 -0.02488768293586688 0.06947840283235496
-0.05212945345251901 -0.03661967752492544 0.06910724343586216
-0.05846676872228974 -0.031723435188006785 0.06930616491069902
-0.06271287949831776 -0.02547405337662818 0.0695742298920908
-0.05933330383813329 -0.012453211302947596 0.06938056685813683
-0.05894500261605223 -0.01768026855267965 0.06949648018417873
-0.02150509701940355 -0.030318250941798956 0.06914433798808718
-0.06414804309713962 -0.03263290687438992 0.06912906624944921
-0.06540385738223883 -0.031635544054619255 0.06921589664263403
-0.06384708019718408 -0.024870981824143885 0.0696607359875537
-0.017095987961876488 -0.03796563763666229 0.06841799487291363
-0.06339425631822256 -0.032408548835333006 0.06913223089664179
-0.04907458915083311 -0.03531257858426568 0.06936884335743243
-0.06472709393313364 -0.025494033840083218 0.06942565703840219
-0.05356700471051945 -0.029601702581067903 0.06954866594684224
-0.05828637252888053 -0.03069854457980562 0.06929747646519897
-0.022824058869188132 -0.03830973139619412 0.0682627984722452
-0.0632730230238861 -0.029122707290331704 0.06933121113858232
-0.06663397598681789 -0.023137223636133034 0.06941179216445112
-0.06485760430006869 -0.02690154321572339 0.06937391174097815
-0.06408181217160959 -0.02424313076145561 0.06952061274411944
-0.05044007758003742 -0.023040318824137766 0.06949511292519692
-0.060727972419924545 -0.02614042557615443 0.06935521924574638
-0.05280860758683557 -0.03365992166096656 0.06934009390246988
-0.042661365423737885 -0.024868721024893937 0.069293674782439
-0.06386270367536989 -0.03332537074327595 0.0691940576654438
-0.06289643741149534 -0.025076638723270903 0.06961937464337076
-0.0667019160727529 -0.03184455701299397 0.06942809486934481
-0.06688502853494992 -0.03623884649340818 0.069112085977393
-0.061549123444497894 -0.025687964059904575 0.06945826524027787
-0.03188690263683687 -0.037261133890869366 0.06832090070521721
-0.06414393994001508 -0.029014732409912848 0.06943017490503117
-0.05859418948542151 -0.024891951722936866 0.06942626814558381
-0.06590105326681403 -0.02722489095025923 0.06941999294686303
-0.04170200954294254 -0.0337218428554637 0.0694153282856106
-0.0702074566495347 -0.03627172049433723 0.06922551611111226
-0.06608546260260788 -0.027100325856003703 0.0694412197732753
-0.0649057134295774 -0.03143548755351844 0.06918038535308342
-0.03140790981399109 -0.030733694385904304 0.06911233324513907
-0.03467861147234577 -0.02792617029155683 0.06931767016439393
-0.031776257219729244 -0.030336591381267597 0.06911715856573412
-0.056632994758103884 -0.012429166563794057 0.06943974763106871
-0.05203473504118667 -0.02931173299700212 0.0695159691613276
-0.04976612883892065 -0.0372835689029615 0.0687610110441554
-0.025584881792646945 -0.022568040219254508 0.06929892972356756
-0.06511888416869549 -0.023436229996376366 0.06926432286048413
-0.040254813042048365 -0.030130613444560042 0.06929134180503388
-0.06663005548533457 -0.02792533574599795 0.06935245757083779
-0.02100931196209292 -0.03855576464297032 0.06827938401025961
-0.024593622932470117 -0.0378919690044255 0.06814344110071126
-0.04833524863928924 -0.023660592231402496 0.06935531853048141
-0.044329622887327516 -0.034839229155556824 0.06937232695343695
-0.032398531567911594 -0.036518386646795076 0.06885355798529522
-0.05874213875653869 -0.012051254763358282 0.06948953424939994
-0.06708461207502801 -0.031769190955028045 0.06948732654193417
-0.061411089008914115 -0.014173432424512099 0.06938355301301286
-0.0205306697849426 -0.03708433920141977 0.0684221565025395
-0.05266654855930181 -0.027390000932974556 0.06941204431482677
-0.06809153806792224 -0.028704126844819725 0.06931528992565691
-0.020281784441318382 -0.028121578457872887 0.06916730499173356
-0.06123086313544034 -0.028900978595583278 0.06931841361839798
-0.05427528694665319 -0.03301943661238755 0.06942945003711715
-0.039984468820281366 -0.026067215353989932 0.06934727543762798
-0.049751444518961796 -0.02785619755824923 0.06951334179329385
-0.0204714789274951 -0.027726990340884515 0.06913028321255585
-0.0656238555850552 -0.03275401186108591 0.06915263380966505
-0.059217491071943074 -0.029700744268553507 0.06933017645909084
-0.05903960736490548 -0.029819750437320984 0.06933496953712981
-0.04331741706081605 -0.03617001444583849 0.06909025739238764
-0.04597615376742667 -0.0203645686707843 0.06942133974817391
-0.03001733849897161 -0.03201469725329431 0.06914918983512267
-0.023915985966612437 -0.03565005417981788 0.06897793900963047
-0.04827446923045557 -0.02943633965460154 0.06937584952355996
-0.020870984174113483 -0.037060519067682984 0.06837353376366101
-0.024081798712748764 -0.03672968254572935 0.06837031310328526
-0.03272109160977237 -0.03410431574146916 0.06932865497950998
-0.054005394205808396 -0.03798506396945399 0.06849763553796834
-0.046289923243931906 -0.010210172051777239 0.06954315178308014
-0.05220726582189805 -0.033452579617871854 0.06935607200081499
-0.04708921967075418 -0.02967508143362404 0.06944900458065201
-0.05899938984736629 -0.03112466213262799 0.06921990890941196
-0.05608444703740287 -0.02486227547738022 0.06948149906066556
-0.04555203589360325 -0.012744937869380404 0.06949624768560418
-0.020437856254989437 -0.032293286116734855 0.06896799339478722
-0.0637507123407868 -0.033897726800198494 0.06921335107599105
-0.018707978952509703 -0.03411224703194474 0.06909864351300729
-0.04639340101993096 -0.0249509250600532 0.06948031723946045
-0.018979568417689257 -0.033203655335790026 0.06905934415914297
-0.05719049644667173 -0.030265728804055526 0.069389788154873
-0.05004242831283677 -0.026144391837837705 0.06942512605536344
-0.0568199285888319 -0.03105102148242523 0.06944299412705948
-0.05640836652341285 -0.037806097502387316 0.0685208939672759
-0.06337877795419346 -0.03220929493964635 0.0691216725197775
-0.04822428576632347 -0.027820072197293058 0.06940248769105284
-0.044323031959136144 -0.024380145706123194 0.06934699750199437
-0.048558192701329904 -0.018635000680455528 0.0693448263634063
-0.040201607866627784 -0.03593137332067174 0.06908265210169127
-0.03932434121015284 -0.03367425771207225 0.06938326957534242
-0.056887166674551265 -0.030837687694585406 0.0694521926328433
-0.06432301413118784 -0.02937415418462938 0.06942456495685882
-0.06865710781036566 -0.03515914852745891 0.0693589762190203
-0.04219258222188242 -0.030471892887459783 0.06932474702028857
-0.03071424431986535 -0.030882977340055573 0.0691908083808668
-0.021758700508408214 -0.036203751650049396 0.06850627169616806
-0.02738025756461933 -0.03521006045792998 0.06906455346430951
-0.030335527762259416 -0.03368441571970141 0.06920957679850373
-0.06382641780267667 -0.03567755417304459 0.06919245665045068
-0.05114517976207102 -0.02377582210433934 0.0695096176567639
-0.02502080726838037 -0.019483907944671988 0.06930826693170092
-0.04664130874446175 -0.011722396110094251 0.06949429374798952
-0.051163728085638925 -0.027761834579140336 0.06940949106714563
-0.04770753917549964 -0.023668729277493236 0.06926587635499551
-0.043355710813166456 -0.007279067382222315 0.06949872900068192
-0.03011384300829522 -0.019636850336139936 0.06918413213945512
-0.05305398487267657 -0.024582617154843785 0.06932275468869811
-0.020889618723492976 -0.030626181206822527 0.06912931170256996
-0.04590718398231032 -0.02940024342030756 0.06945323062025616
-0.025992981766268408 -0.03392740036432529 0.06913808246514742
-0.019238225406132164 -0.03671126924138865 0.06842032314077078
-0.05171198018485572 -0.02339114486528111 0.06939602237720342
-0.04464852793351086 -0.012756178058204563 0.06950691933176179
-0.019519751932654116 -0.03662928929406538 0.06849919415691906
-0.03707380160099513 -0.031465372095936146 0.0692902488785443
-0.05186241782355877 -0.03168773564067406 0.06926950223494571
-0.04493430095278854 -0.012306264553029071 0.06950156307295885
-0.0483024070191168 -0.025747331203868875 0.06935129687125263
-0.06509633467908656 -0.035980070034947936 0.06920974475316863
-0.051096092038617605 -0.02312864083442226 0.06949948499914065
-0.038716155369466695 -0.008516884903158276 0.06940772021163685
-0.022144483613009868 -0.03542223063851391 0.06878661186852578
-0.06283159914182436 -0.03456306572116298 0.06924472337328733
-0.06766931562859091 -0.03386334605292222 0.06929445942441168
-0.04283496700545039 -0.03386611183912307 0.06949434116442936
-0.01850353906739806 -0.03711991315788043 0.06817804224241991
-0.04923117339425295 -0.027231570041126515 0.06947520963416032
-0.03826239219157801 -0.011506903377191598 0.0693801895230555
-0.050336265061251065 -0.029205721113343405 0.06945856768795972
-0.044006591528301 -0.034003777576490285 0.0694654240008886
-0.03692089041797894 -0.03581662640272318 0.06915223973357162
-0.03961696826609469 -0.009128936146310138 0.06937610851467244
-0.061789421204642016 -0.0238150768271566 0.06958776986773581
-0.05008388216533466 -0.024930417149592363 0.06944286818518838
-0.04002774125805704 -0.007219823393020305 0.06944130293454251
-0.0568367436494847 -0.03609116493028683 0.0692608276794571
-0.03602584118071907 -0.030994081650039244 0.06927649166246468
-0.037273018671321496 -0.026206151596286364 0.06935335754492908
-0.030937552009724725 -0.03275970729131651 0.06921043399231717
-0.027333659304208287 -0.031970045111735214 0.0691505310442847
-0.0389132784229433 -0.010927608389614655 0.06938776370887045
-0.02925738439821106 -0.035346472224475234 0.06915423546691284
-0.031123191125080007 -0.0342247606023187 0.0693046038922978
-0.04464212633125135 -0.029255391628351064 0.0694188219910914
-0.04090187264418675 -0.0072455886783302755 0.06952208399992599
-0.042208362972974756 -0.00790899900248212 0.0694927970289302
-0.05579465382751086 -0.025467847744828055 0.0694745482509718
-0.03705357618421694 -0.03307940091295531 0.06933132969049133
-0.050096637954072626 -0.023718201391540406 0.06951624357878916
-0.05431158976805498 -0.026539470688846514 0.06946968770166671
-0.04211223837758758 -0.010235952046525446 0.06931615569332608
-0.04342611170910418 -0.009669015502477304 0.06938502698043356
-0.05867279507491007 -0.02833228528288585 0.0694073371297569
-0.04560849272915539 -0.009855542029166905 0.06943755657618877
-0.03520773594063226 -0.03690533762239703 0.0685121354597232
-0.021582182120241572 -0.023601543786997033 0.06916011503626274
-0.04442976534852855 -0.02800060440481781 0.06941446063212002
-0.05869746535334316 -0.03262726297803731 0.0693481219942513
-0.03108473819054233 -0.030520708893240073 0.06913847638435286
-0.026862364260438767 -0.032564099046568436 0.06910407389523932
-0.026207330281927958 -0.03216287456586766 0.06915378543056461
-0.05602042588032301 -0.024583827934437252 0.06952008433245951
-0.05439127158813311 -0.03414407493830866 0.06935074066347596
-0.04502606264038007 -0.03641529758013708 0.0690403353530693
-0.047210735969734643 -0.024236993258993585 0.06935425171994174
-0.047107229574143754 -0.00819978130369157 0.06957481481739773
-0.047010235650856914 -0.008565470796622277 0.0695982674086117
-0.046340338829312745 -0.007386026491892132 0.06939116116383885
-0.0468591994358907 -0.031232531868102764 0.06941823252607932
-0.03932651622147583 -0.036325974553487246 0.0688137726948779
-0.046979141111584785 -0.006792017101413308 0.06960885538409307
-0.042857706268943405 -0.0056716349969144235 0.06952864718839655
-0.0243425802129674 -0.018715009203081487 0.06908208078402939
-0.05314075452734109 -0.02314880200883136 0.06935050403683632
-0.0512616883659967 -0.03716493753350669 0.0686888237164138
-0.05835128849376901 -0.032700811609132095 0.06933900796184746
-0.052971960789013554 -0.023410761772442452 0.06933087006370407
-0.01688296759365186 -0.03576890420372608 0.06865905000375686
-0.05154004404881048 -0.032095254707638764 0.06926633356618973
-0.059046854169676824 -0.03490262723198033 0.06924616933835787
-0.05515890368032391 -0.023829062838820518 0.06957114374897144
-0.035930634968206705 -0.029099318744292467 0.06921139404596563
-0.06615039279305394 -0.03629518581833148 0.06907880902158853
-0.035842415736218734 -0.02614509359585718 0.06945985389553766
-0.025140089307364895 -0.016997614163833122 0.069154960245105
-0.030623358966306816 -0.01645002722981138 0.0691557110901057
-0.03596757619371056 -0.03462866068408106 0.06939728864175881
-0.035539031002538954 -0.03244951039138365 0.06925510665668183
-0.04761802280517143 -0.03138166562014417 0.06937699506021186
-0.03744686735538643 -0.023046428379755412 0.0693160643532954
-0.04813051895806783 -0.0264643012777684 0.069449841856425
-0.02654926213471949 -0.023042057503455372 0.06898929814712017
-0.0279024139137746 -0.028262310583327028 0.06921074832123703
-0.06151338568971669 -0.01698187393001932 0.06940900173863646
-0.052216706558714285 -0.030922855271593733 0.06940422281663283
-0.030239226936566242 -0.029110157785066836 0.06926083741166203
-0.05925372512045213 -0.03269943788344994 0.06932947376013521
-0.06107467218788985 -0.03615306110239804 0.06929683553913918
-0.047354638881242785 -0.03564276460506007 0.06934525548805483
-0.04992576086896803 -0.03101024366380838 0.06933599501321538
-0.02755935966961996 -0.025551350610704206 0.0691765419690879
-0.048363418156686294 -0.016831970210656192 0.06938127868717325
-0.0637341453349884 -0.01734987775722799 0.06930019548660864
-0.02899934309684049 -0.027079238913046727 0.0692114642153544
-0.03233033383162636 -0.032710178544100486 0.06919460229491238
-0.06429943546485317 -0.017463104387533263 0.06924807151425938
-0.028454189653156055 -0.025734120986187263 0.06920609448555486
-0.05363806462462895 -0.03504097122554794 0.06955202527800512
-0.058080186457938256 -0.012533788633094591 0.06953784436275243
-0.02925122529077518 -0.01910401167845626 0.06907721336368886
-0.03112824855511127 -0.027022291824110898 0.06926767190779524
-0.030448987458789326 -0.025729668679307236 0.06930067912727511
-0.03004901985910428 -0.024589156163406865 0.06932614051103922
-0.04367372456307853 -0.026559690728125758 0.06937318949380376
-0.047522608495277736 -0.022175388951179865 0.06935504202613214
-0.028446449436466476 -0.019143550743241054 0.06924373511895703
-0.05722599249672742 -0.035460228355808456 0.06928386779329831
-0.029823749834161632 -0.02314243065131951 0.06919651963734812
-0.04119198030383319 -0.02974354516589233 0.06935768876640053
-0.04747973858138793 -0.027536387952118976 0.06951839682733976
-0.03900382582273709 -0.022517399995758837 0.06934412734807402
-0.029909900251085766 -0.022630618286936355 0.06909315917918793
-0.0273474605319856 -0.018682386554001472 0.06920752999658217
-0.05153653114437527 -0.021544683873715803 0.06934727617284003
-0.059793877736770244 -0.01649165550564288 0.0694409816553087
-0.054835426582601335 -0.02362503159884033 0.06954786338437607
-0.031564635757403564 -0.015903500502994966 0.06923936273584344
-0.04117349338008129 -0.02673680404972272 0.06936971731936922
-0.03912646543602338 -0.02941046327160979 0.06931541844382488
-0.032194894398604124 -0.023704217384518375 0.06919328291974453
-0.017800370889724835 -0.036872553677614606 0.06833448076845464
-0.05462258140029567 -0.017738850371950325 0.06961822874358808
-0.03182163559401929 -0.022425415854256496 0.06928161655085323
-0.033125701042170407 -0.024289186702363165 0.06918371453397588
-0.03230361714894156 -0.017483292706295103 0.06927791717235618
-0.038696629094104686 -0.028693984637938763 0.06930933156496995
-0.03528169478653665 -0.02634967626012056 0.06941642064217787
-0.036721373749265304 -0.013368750812796204 0.0693506095671269
-0.033350709169179434 -0.01745087935726432 0.06922582102931049
-0.03252056108051318 -0.02799462081867184 0.06922887894567596
-0.02751798900311037 -0.02279980102217223 0.06911015454914224
-0.03987060224047345 -0.027543392932037322 0.06933254739858127
-0.03240620364142256 -0.019051917537865865 0.06917041475265323
-0.04771550843477078 -0.03185066397909874 0.06938097571769698
-0.03764936247086049 -0.01780398491628082 0.06927099653052116
-0.03695899428550116 -0.026580569341991656 0.06935587664147962
-0.053939639890668245 -0.022624781645956243 0.06952326655395048
-0.033385681266309065 -0.022850308020877525 0.06923481964579378
-0.029770196012861513 -0.018117555487119328 0.06908030163257062
-0.04460047184863279 -0.0305319335778377 0.06944394912523036
-0.0357066038870772 -0.016378940138006122 0.06918185154272292
-0.04597592331078289 -0.019104457166418332 0.06926730663856308
-0.033017946743131944 -0.018839483404789543 0.06918938383164511
-0.03925595097993419 -0.02753634689675059 0.06930633173437152
-0.045305496610746045 -0.022397682654125835 0.06941122635918937
-0.0324214347767948 -0.020676151040317135 0.06936009855586653
-0.033451238996467576 -0.01924627552690985 0.06925300029682492
-0.034165681525097254 -0.02452597178464178 0.06924324320767676
-0.0297240654185398 -0.021991647751956493 0.06911209629145436
-0.03393562426819717 -0.015452502084684216 0.06924606206674971
-0.029874585690901057 -0.030149509773519326 0.06938540391186382
-0.0540358678079448 -0.03614924325178935 0.06936382569534917
-0.03141853486789602 -0.02001954718187665 0.06947315400333076
-0.03294905960216753 -0.021778260291664374 0.06912627427957635
-0.03470382597956395 -0.022546977317602083 0.06934016185524727
-0.03488432000800614 -0.024414874846428056 0.06933292352567369
-0.028714335904197114 -0.0224415939981164 0.0692825264423319
-0.034843822964597974 -0.014799501399600028 0.069265384275394
-0.054879283824553725 -0.03566276150397304 0.0693273163640265
-0.03287985550186692 -0.014701241889453922 0.06920980712087957
-0.03547477750582548 -0.017683229740922006 0.06927843072274534
-0.0391840636177348 -0.013340490534124224 0.06934196792936402
-0.036989336666932195 -0.025779359274439674 0.06935588409123775
-0.035404452865289426 -0.024107280266382147 0.06934033351294255
-0.03635596403010822 -0.017661541551632222 0.06924230068077553
-0.033584853523884815 -0.014653307531150874 0.06924237777671582
-0.03813676224194139 -0.017811917924864272 0.06928814600036093
-0.035992638072419716 -0.023820388671156104 0.06927686121845468
-0.07649178252591372 0.005469855590829276 -0.06881053741113742
-0.07656860463143825 0.007192225336504906 -0.06888070160980439
-0.07807065473900568 0.0048783833332521785 -0.0686891559074869
-0.07707864749798148 0.004117358204500536 -0.06863734509495217
-0.07861393960200272 0.005922804894161052 -0.0687432639316075
-0.08050753145173588 0.0059979797038713575 -0.06691161863642439
-0.0817048619846589 0.005505459721956474 -0.0657663807768752
-0.08216709811050552 0.010420337477249953 -0.0579244277599037
-0.08162600989375332 0.018758284227682533 -0.06532495817952186
-0.08217544565466292 0.0086670097787172 -0.061817904051269246
-0.0823547491269957 0.006307391113334252 -0.05541948474249133
-0.08082247922726823 0.01284134178898508 -0.06676245702265401
-0.0818443896319954 0.004665157824431127 -0.06557051389598444
-0.08103474723694598 0.009622482574309232 -0.06663948185979408
-0.08079195611704415 0.004867116153328718 -0.0666416513833156
-0.08170888957318775 0.009514973719315666 -0.06573513148099003
-0.08013888757700555 0.003930979887545766 -0.06720536154755818
-0.08147170363179512 0.0041692857863093805 -0.06630941578242797
-0.08129872821483654 0.007011553116547876 -0.06634327903022066
-0.08014185710706323 0.002084610962853323 -0.06860295343237852
-0.07951142642078657 0.004661215673391304 -0.06863619383080163
-0.08091232045684096 0.011536758273631985 -0.06654379754944934
-0.08016120109115203 0.003507114133206569 -0.06841074262755796
-0.08129859909950997 0.0017368289018405126 -0.06656165949198847
-0.08169783274544479 0.01571483396151075 -0.06491030419086077
-0.08055039050885301 0.001288493058212669 -0.06739680111166346
-0.07992562843667282 0.004566991469539469 -0.06811765666700306
-0.08084786433449856 -0.00017080796201908164 -0.06801970345344556
-0.08169496689374042 -0.0003181373768134233 -0.06620741771617997
-0.0808252030829912 6.496243202791363e-05 -0.06784374192571795
-0.08055594902944882 -0.0013546877648071979 -0.06720862690994985
-0.08081463850415771 -0.002595993907873939 -0.06734216769565042
-0.08166562202273425 0.014001598333827022 -0.06541443340175614
-0.08215434430250405 0.012055492595841686 -0.06000650132860243
-0.08176640644362121 0.013385691485128566 -0.06490934430690397
-0.08219437035367094 0.0014038028448321504 -0.06248018204133992
-0.08243518825573704 0.0017170116267056998 -0.05898199264556761
-0.08207459413205292 0.0030955229947692174 -0.06397003518030307
-0.08055672271109564 0.000577191210430727 -0.06833788803941568
-0.08229349788919112 0.006857375230641422 -0.05711243065542824
-0.08240092009816588 0.004170680043855007 -0.05613586396121209
-0.08246405448919164 0.0010456882953648592 -0.05800862229220158
-0.08071263327713848 0.010865161527848877 -0.06666423949493822
-0.07979584080806403 0.009667772169637304 -0.067106080588439
-0.08163334655786711 0.013371518296318566 -0.06574064204094271
-0.08189832689252549 0.01505784026589537 -0.06274072687656117
-0.08211873154635867 0.004291709384689503 -0.06282109791719491
-0.0804180649215988 0.009059593065554188 -0.06691013261905589
-0.08210549321003469 7.105377641274766e-05 -0.0641568647586703
-0.08112009526189783 -0.0014972763032386008 -0.06664829109838963
-0.08223826412784488 0.00807210823130492 -0.058087418470361
-0.0824466357656319 0.003067021417415777 -0.05807746385999456
-0.07988549085310521 0.014212496136555076 -0.0673728185507349
-0.08188707598734854 0.0038446047225732904 -0.06559847634196052
-0.08106966273073142 0.01858622747976466 -0.06624863767243316
-0.08191517725119091 0.006838955580984556 -0.06398143938483576
-0.08220276632390211 0.003559081963432181 -0.062042244965495874
-0.08179524636651354 0.011088101883070559 -0.06525075771635819
-0.0816450483918849 0.014995910478648516 -0.06572233561577537
-0.08187091676724823 0.006998414673830588 -0.0643519917750881
-0.08212025410699142 0.009440552556279055 -0.06216029926532741
-0.08218367577945657 0.008540112560396633 -0.061661967107359605
-0.08219006141012458 0.008510656042175237 -0.06096736898525012
-0.07969336503934092 0.01036575997494319 -0.06756841586145737
-0.08212613505179367 0.007894850705176891 -0.059552724464560246
-0.08199588175163858 0.0104044511941671 -0.0625604230296889
-0.08214586270689211 0.009888303109892325 -0.061446517578665844
-0.08148751293701326 0.016041648944880305 -0.06601793065792863
-0.08181216578864123 0.012163017954949246 -0.06509134776355086
-0.08226315715545807 0.008692744819006549 -0.057492551686323064
-0.08230241961390927 0.005961588468264543 -0.05770338140840461
-0.0822909397021769 -0.0008962683329320115 -0.06215107743306396
-0.0821702994324809 0.011564087391899241 -0.058027069065076604
-0.08183773801431718 0.010597294501589707 -0.06467220957176009
-0.08230327701528989 0.0017050084837026626 -0.06158793560989754
-0.08057852621633266 0.017008423451310144 -0.06689469239585978
-0.08206893032013039 -0.00027950170335760624 -0.06459098578911868
-0.0817775824242922 0.012695199357222147 -0.06519385996688011
-0.0819962184884455 0.00032860625882060704 -0.0657283586979983
-0.08211756747958707 0.0066385375049688765 -0.06254182708203858
-0.0823355666392138 0.0038026058856373045 -0.05816884774019728
-0.08223695991693222 -0.0012560637539062085 -0.06318327686272748
-0.08177386377789823 -0.0020884768691788514 -0.06625713659583529
-0.08221604714964882 -0.0010353681225991128 -0.06333235959722355
-0.08228719797718768 0.009826735535194418 -0.05619861838207787
-0.082401469312197 0.0017886307816682855 -0.05988627050033729
-0.08227701971992304 0.00418840911345047 -0.0605239334994809
-0.082129796953083 0.00432874195407429 -0.06254897250090308
-0.0822910798482688 0.008593882486039277 -0.05655848996755837
-0.08220109457840678 0.011797999061258757 -0.058655934491070726
-0.07968034283689651 0.00943779553919481 -0.06718143523787452
-0.08218928958474708 0.0060533031939477636 -0.060701896739108
-0.08218025243150244 0.00580386886831462 -0.06146033273239826
-0.0819445441230408 0.006142361083857357 -0.06467289952691302
-0.08202711703872234 0.007333170893364919 -0.06331585920663967
-0.08224138276155624 0.008496945934111677 -0.057940677739809106
-0.08216708865636717 0.010552234522244255 -0.05743102178441933
-0.08184567967748652 0.014408094406363547 -0.06367222768083049
-0.08183816818103712 0.009673021107372504 -0.06490647978281237
-0.0819836548842642 0.012420767040205172 -0.06233795841167664
-0.08206336925643506 0.00040071751082096255 -0.06489237543436402
-0.08218947576523167 0.011672061929894279 -0.057446542912066856
-0.07224057269102047 0.004516640120555162 -0.06887069514964721
-0.07988070584901519 0.011227590274455398 -0.06745730572870806
-0.07547739936512644 0.007635543961508781 -0.06889210488038759
-0.07524528607647554 0.004982247603618621 -0.06889171183725695
-0.07353546822969036 0.0034020021098703263 -0.06891933536606384
-0.08087142636453731 -0.003619472706660699 -0.06733219367739288
-0.08208596541228455 0.004196920603250532 -0.06344434793518436
-0.08016155143060105 0.0158998383519211 -0.06711996328485864
-0.08219174764742332 0.006158912377611391 -0.06010403398051517
-0.08167533642448035 0.016808165408175653 -0.06526695747367157
-0.07970071611543741 0.013187940380654661 -0.06709659325785046
-0.08209175805094125 0.0017154868645415807 -0.06465233424684455
-0.08161554733029044 0.010288707298262837 -0.06577468485341918
-0.08228666156148343 0.004638322900555324 -0.05796456658875203
-0.07958593808183456 0.011393801495610782 -0.06798463263098814
-0.08200913114137286 0.004389114734047881 -0.06472989358683692
-0.0813492014818464 0.01777517871222701 -0.06600488498922989
-0.08218222776476443 0.002233198681265416 -0.06256647524165435
-0.08062559451195936 0.001370646533277228 -0.06825715845160621
-0.0818270016900219 0.013189710312539456 -0.06388406953430444
-0.08087268021121796 0.01837075744712132 -0.06661916310933261
-0.07410891532042983 0.00821498373119929 -0.06891296980270394
-0.08224097208982022 0.004997083135121987 -0.06063916599011358
-0.08231133185229861 0.006245181153443602 -0.05873266133689532
-0.08233270011066066 -0.0008666779980084031 -0.060032167949989314
-0.07781459517663326 0.003796071859419628 -0.06870468568094304
-0.08231495337766341 0.004339081221264616 -0.05797848259455851
-0.08193578934313168 0.014642200429833238 -0.062347951731094566
-0.0823122755232733 0.008589863489221403 -0.05574114300419842
-0.078212707550822 0.005202975885155445 -0.06873163474129895
-0.08209040668118989 0.009554567584640558 -0.06306260343026021
-0.08193941926756115 0.013542105263487435 -0.062089312943291355
-0.07551146622520963 0.0035369379715937824 -0.06885520366027614
-0.07381765376145351 0.006620885042655709 -0.06891038419336773
-0.07813096258632032 0.008237485423553237 -0.06808017574065167
-0.08233139448073554 -0.000322822423569208 -0.06066939998644265
-0.07580010200603234 0.006536406705288619 -0.06877738033241682
-0.08094531874412308 9.940494465229672e-05 -0.06663061176112749
-0.08231457142094672 0.006842712026431389 -0.05613525439052319
-0.08221818735417648 0.009414810588200142 -0.06009086371942874
-0.0822051010431186 0.009852538395800713 -0.06031846264930971
-0.08220006537527164 0.009889464839422064 -0.060689169314038616
-0.055299090736207895 0.007164994670328573 -0.0694942490886824
-0.05383526836638251 0.011907793475833574 -0.06884103579646245
-0.057040503589340256 0.010728061654491139 -0.06874629508070529
-0.056370145299535955 0.008308070416766565 -0.06905583376224389
-0.05933552178452586 0.008635151236450022 -0.06892219698571905
-0.0596840178054095 0.008650113099335527 -0.06893507433708247
-0.05917556756051935 0.015088930407163246 -0.06876796880683071
-0.05578080237560601 0.01380144295678907 -0.06867224801306614
-0.05322448768098707 0.009427486185668427 -0.06877586409016756
-0.05632688161455673 0.006479169223948227 -0.06936020460297888
-0.05809636024824155 0.009943630062836665 -0.0686096964940511
-0.049484213599299345 0.005262339814769699 -0.06946684557995723
-0.05560762951897581 0.012318031561428232 -0.06882049650739128
-0.05087512326141845 0.005022834531629437 -0.06951316074953971
-0.05367037080209218 0.010286896113153598 -0.06871462693148417
-0.05584948225915179 0.011381439917648898 -0.068687174970885
-0.0589700062731074 0.005496497310979658 -0.06935317565005952
-0.0556680414382683 0.0043760563852218775 -0.06934659986703694
-0.05458104317016117 0.0044411712182190945 -0.06936870182379912
-0.05545699856324869 0.006695737824475321 -0.06942765448124372
-0.05493047962471806 0.012791221984431578 -0.06885748209608757
-0.05547543583217582 0.008940889303455829 -0.06869953825339431
-0.05324661351573772 0.011754731858154706 -0.06879479773509714
-0.052236217592462345 0.008496134160921653 -0.06925429953693978
-0.059154232437118696 0.0077065571088444605 -0.06949395090233242
-0.05055763263382832 0.004621022546907996 -0.06947270623109845
-0.05837319678390742 0.007105678556896856 -0.06951630052269929
-0.054511233802253554 0.010218171105666774 -0.068659970171104
-0.061790339772198555 0.009640164330768126 -0.06871162471370965
-0.05841504535369492 0.009499515452253741 -0.06872820637304476
-0.05900681247809193 0.006451396559198403 -0.06932933717318164
-0.0560332655326165 0.01393465990763175 -0.06866737696754512
-0.05513718842833073 0.00673716540723469 -0.06947981842546924
-0.05700677577730669 0.013543556192172842 -0.0686712429922324
-0.054502948217339114 0.014884103960140819 -0.06871293132980594
-0.05237228064022705 0.003985782914089299 -0.06934010526525458
-0.05913430898600359 0.008106425614856262 -0.06926959793680494
-0.05338420743656359 0.003888626096941016 -0.06928449382446068
-0.05723237696599748 0.007713574801183527 -0.06941729226272333
-0.05484331955277349 0.008394328267073859 -0.06910152882834401
-0.06107048015966876 0.008434909079584144 -0.06903741626346782
-0.05752503783649382 0.011183420126414285 -0.06874884401441399
-0.062094621324637375 0.012021917316877979 -0.06873296354722155
-0.053009644646368176 0.013590319777147728 -0.06864935534225834
-0.059352229953274896 0.01080272050325614 -0.06861383407899244
-0.051833672139552034 0.0038227588180126575 -0.06931778004234826
-0.05424067461852925 0.008899924890146446 -0.06880510601765726
-0.054913735036256586 0.014056436791847612 -0.0686533841254954
-0.053048353138245734 0.015254729817896696 -0.06867221168584074
-0.05896295583568115 0.013844820901235394 -0.06866579042382187
-0.056246096532669154 0.003864460560940604 -0.0692695588820815
-0.06018241861134166 0.014994493991907176 -0.06883779456666242
-0.058928191756004285 0.0071980608654815745 -0.06953416807780745
-0.0589426604001522 0.010774053794762314 -0.0686555697734793
-0.06203924027955469 0.011638182544156776 -0.06871293425511872
-0.05361721934868549 0.014014059646908092 -0.06865575266475553
-0.05267045419782546 0.006084188882449838 -0.06938263196509054
-0.05840379466256427 0.013877938927199164 -0.06870986525455007
-0.06021525080800519 0.004312092094354263 -0.06926517077686534
-0.05915304419509055 0.012188919740296657 -0.06871218091695358
-0.05337578662499162 0.00713634319433021 -0.06961111687734542
-0.051819652199450714 0.005471918874043115 -0.06943972276490536
-0.05468442140822341 0.014252237377867061 -0.06867488484915478
-0.05364987394805347 0.006332496552590202 -0.06929054460000426
-0.052910143156827336 0.007240238927645989 -0.06956227526593667
-0.06090568757560147 0.005588260946571274 -0.0693386767914159
-0.061214667341148374 0.00741779221036431 -0.06943498839344338
-0.05752436500744837 0.008223323977991092 -0.06935929677459368
-0.06204770160523159 0.0120461559413654 -0.06873138503939419
0.00628583095686223 -0.019335540658143517 0.06911857876561367
0.02290730240957884 -0.013175231794235964 0.06907148758416022
0.0044952464214356195 -0.018907468327608527 0.06898104937616693
0.009612718249240648 -0.015376799683178465 0.06910229795924155
0.013763965829106566 -0.018887035592155026 0.06900107229891175
0.003993500774520753 -0.01658517008620477 0.06906044113548925
0.02859092455927677 -0.014271189289315006 0.06916804107162268
0.03017843991032207 -0.012850127788859581 0.0690785319074109
0.023413212436319036 -0.0386383154091807 0.06842797222646532
0.027119839919181453 -0.01286387540471046 0.06911794039382155
0.04429800527252374 -0.02852689994851056 0.06899035801895638
0.00538304514235724 -0.018684211248107364 0.06897228355231137
0.025314924568118406 -0.013589557890602691 0.06910065810385708
0.03175395477793372 -0.03885481449361728 0.06820766161930356
-0.014090916968773272 -0.033846218375781965 0.06926185003628879
0.03486991194216633 -0.03486358694083739 0.06892017284497332
-0.015025319252180609 -0.03667004297449911 0.06855083040292308
0.03136274195481477 -0.03732140178974773 0.06896371829071349
0.026656550181039632 -0.03816247172429961 0.06863574362357733
0.02220322655122907 -0.012389064443904332 0.06911419742660534
-0.015333076575484054 -0.03557430877859075 0.06887385907351092
-0.014525825559921934 -0.03575264238939625 0.06896083418403565
-0.015210898026424762 -0.03430493822872392 0.06922609483857455
0.031118140827213727 -0.03022254554287755 0.06905708493024319
0.03180424044637852 -0.03224015785423591 0.06892225310264166
0.03019523845440489 -0.03137689239405406 0.06892598151276177
0.03358952569830655 -0.03120682622148993 0.06893520916811455
0.03341246330756096 -0.032207111848131964 0.0689195112761829
-0.011086663898159634 -0.03495326787837703 0.06917082284743926
0.034569813670590796 -0.030737701670150712 0.06894246862293951
0.02890345531824326 -0.034783292833235335 0.06901092674167406
0.02770989044590318 -0.03416443305655903 0.06897703111558456
0.03245085436602936 -0.029407769998844577 0.06903821490831416
0.03126640834840284 -0.033757133319114306 0.06899379889175333
0.030457146387042992 -0.03381445413674334 0.06899500832956684
0.02827671583585951 -0.038523425498091526 0.06842767761860842
0.022068756203217563 -0.01532334629879881 0.06904988033715967
0.03925567918577836 -0.037723482996743614 0.06869448444185806
0.029894841206429268 -0.03447503739030934 0.0689868415326031
0.01666907050531496 -0.01538878863123441 0.06903869274755303
0.029144943201796464 -0.035685116729651044 0.06917534143909047
0.031212659385812278 -0.03479769935836845 0.06904548220733493
0.060400089086583106 -0.03397984773102522 0.06908034226230292
0.021772107222535753 -0.01305111359713731 0.06903742593030174
0.006022878389311141 -0.0179917817001744 0.06907065606629396
0.032807997804089876 -0.03521998244861205 0.06882537852734488
0.03043916106081061 -0.03304700051118498 0.0689545042171238
0.0049308366850284524 -0.037874232304404176 0.06867134750161359
0.037545920889511766 -0.037649217755020184 0.06883739275356475
0.026955159681120736 -0.0386775871169879 0.06836066901352975
0.05874263518349238 -0.03886104952757037 0.06844860883636336
0.021287881280879065 -0.011750587638988267 0.06916507588235211
0.0600417939362465 -0.03867432607963619 0.0686384689986253
0.038950414861802486 -0.03679169643544124 0.06903306711947775
0.029785881785971018 -0.014449216461401612 0.06910093901129805
0.04079001826553302 -0.03676383206777176 0.06906215703917891
0.023033448963137023 -0.038621632288345545 0.06841430168103863
0.05816738914203841 -0.03688700995031273 0.06875238315764468
0.040090023606212756 -0.03241754226610228 0.06893115558268981
0.040002754107042786 -0.03165944793514885 0.06897331508229101
0.04315695775538613 -0.033691317100805626 0.06912661793614484
0.04298617955234322 -0.033475090087789844 0.06911461178193133
0.04322832773176424 -0.032424306766203205 0.06908862562524837
0.032862101161506146 -0.03885056262944895 0.06826345835304282
0.04110413059853755 -0.03311643341182196 0.06890693044508532
0.018252297907440502 -0.012631809397989018 0.06906031080039786
0.045247660555546576 -0.03369053670781638 0.06914045278847077
0.042677427074378105 -0.032651232434769875 0.06908474660743755
0.06079934405915545 -0.037387749788957654 0.06840951868086025
0.04064330323924134 -0.019847229280427807 0.06911999435584792
0.03972565143500254 -0.020706026960018335 0.06905097071015034
0.05610198277942409 -0.03615367039801197 0.06909995884064081
0.03123432566170474 -0.03898519265965638 0.06812873387380847
0.043783617480061564 -0.03684947086123959 0.06886459246964671
0.037209609624470195 -0.019770948550756385 0.06900455765057482
0.03961699730937637 -0.01909680385074961 0.06912642979546313
0.04095215409593765 -0.023681682250123244 0.06912558512392003
0.004441689700455316 -0.037826711753752996 0.06868809099098712
0.03909006680971513 -0.018270268149663527 0.0690882756390357
0.037306370710936496 -0.019108919950715987 0.0690498545456321
0.04008397390832573 -0.016281356707828445 0.06909695315865075
0.039705488451003246 -0.01732175339658794 0.06906106521230321
0.0136675459777218 -0.013998776032229293 0.06921258505552522
0.025712171402255235 -0.037977421270145535 0.06872583145839044
0.008814844979253814 -0.017766406972710005 0.06912800886590184
0.0032144343676319435 -0.015531020269835771 0.06918956003771934
0.003140143846377964 -0.014587728779338074 0.06922522405394209
0.039199461780382985 -0.016471565778142117 0.06905800801713739
0.019066315719865404 -0.011754998743634787 0.06918004047435634
0.018170667552055972 -0.011305134557330733 0.06916831673119653
-0.01365013593114814 -0.03653570335940439 0.06871766553107785
0.034247619188436815 -0.038538651055682493 0.06853280997940096
0.038877678292733225 -0.03769947871119167 0.06874257643975368
0.008578785506172842 -0.019142575698119155 0.06912543008591174
0.035093904968561976 -0.0157248436262216 0.06910790178090943
-0.007291540958740201 -0.035767700261150906 0.06904253406715852
0.015514266035277346 -0.03722354501442099 0.06889662650615154
-0.007928270946072673 -0.038191496069710534 0.06835477587486129
-0.001621245821864011 -0.03269880343719825 0.06940859041420794
0.038652365061610156 -0.019303569331874045 0.0690810739371618
0.032388899911955246 -0.03842235999134718 0.06848460352553264
0.03180528566423604 -0.012289807299059305 0.06909790289206401
0.03944214045828704 -0.03819783367115376 0.06846238477115128
0.03865071110477538 -0.021435945345691515 0.06906419461402136
0.036817002989955404 -0.014606979603132179 0.06914252676167358
0.03204623594510853 -0.012614739236662117 0.06906100699581803
0.036070962117571895 -0.01511634149314113 0.06908440751705308
0.03333629535168089 -0.014364828572271145 0.069122139222034
0.0336311266769102 -0.013656504640968476 0.0691048610678281
0.03494010408431594 -0.012730972430262891 0.0690744484689235
0.03400615237452095 -0.01233150182246848 0.06913250000950044
0.03704242695678997 -0.01341475628483438 0.069115903449679
0.03517692318624682 -0.012471589040167 0.06908001430672507
0.03773264966888425 -0.017029987513645164 0.06910646706525789
0.034393471952196185 -0.010832221145207183 0.06919605917090746
0.036219552604358204 -0.016207857498510055 0.06908107983221479
0.01471444741232879 -0.0386533825610866 0.0683703947729076
0.03569068923857571 -0.011994936928885841 0.06915030496455375
0.03381360704691567 -0.010307564713022412 0.0691555313984534
0.03665676804951454 -0.0092192399500761 0.06911418384331414
0.036135081767170014 -0.008525386550786744 0.0691532427875172
0.03263177133043233 -0.01158969746366351 0.06917457693659747
0.03975978397492827 -0.017724313601902193 0.06906542648897736
0.03550525211731877 -0.009870298252682022 0.06921142527298278
0.037881588834018515 -0.03788213340182416 0.06855651924547192
0.02632841252175011 -0.021498301361562104 0.06908122243907813
0.031923738087732544 -0.013830185497456047 0.06907579758563823
0.02458076992532383 -0.020379322649205743 0.06903094203457782
0.024608209692979353 -0.016574855608051938 0.0691136631891817
0.025842271415744644 -0.018340043472327525 0.06909340473608887
0.026687679201007546 -0.017491223387301493 0.06911667667540808
0.03688958476353955 -0.01570322416694986 0.069103416270021
0.02504509354496468 -0.01762138531915082 0.06917126403246351
0.025085189316176384 -0.01924439110831941 0.06905772093061086
0.03818622167675882 -0.0212002013311196 0.06907959612203857
0.041082720955391436 -0.019675419868877983 0.06905151956225958
0.041539856225756025 -0.022231526316212707 0.06909245352245116
0.04001380388228397 -0.022931173954993857 0.06907143813049701
0.024033476936062184 -0.015678290561469202 0.06900744641655548
0.01581129968636272 -0.01817299599496175 0.06910697838859278
0.022465390215120465 -0.019115655730055435 0.06910704231502683
0.02225392329842053 -0.015932610339939555 0.06908709755118363
0.015809030690962438 -0.019306823356126334 0.069004384687565
0.016873022035960607 -0.016700099790178828 0.06900759700351985
0.015970132844234878 -0.02027363983603174 0.06906609182505895
0.018945755880453413 -0.021079802491795925 0.06917911442546446
0.0166241954719192 -0.022632446119885487 0.0690911723985983
0.018101626841184777 -0.016484357198368067 0.06898310122412474
0.041676658136030414 -0.0369765047988393 0.06892774983574552
0.020028431726104697 -0.01786574357061059 0.06914496656279658
0.01585841248888668 -0.01743913391361061 0.06915590316866022
-0.007731597150202595 -0.03323812049035629 0.06926200805606128
-0.009636592818107548 -0.037050285494346524 0.06869534933930417
-0.00843038578206485 -0.03513801169105804 0.06910141066434218
-0.007712507953709533 -0.03460315231823037 0.06918250926261782
-0.009684674806645711 -0.03611404584987821 0.06887344661971441
-0.013278089058529742 -0.03563092212730043 0.06904970403077566
-0.012511104319638453 -0.03509947972196371 0.06918703765081285
-0.007044606533834818 -0.0366722417870054 0.0688737663044572
-0.007105802404853404 -0.036190721780632554 0.06896537984619255
0.02178871440841828 -0.01895139573986094 0.0690941043294814
0.017190201871189546 -0.02324964035529315 0.0690876619405006
-0.01125336943828432 -0.036483779039367566 0.06869531632856957
0.020727440663687938 -0.0168506823490738 0.0691068899311111
0.0005650156973259588 -0.037125515898056 0.06888945021315367
-0.0009614144034152262 -0.036436691399989396 0.06906512594706246
-0.002407335459173933 -0.03612841864559521 0.06912055399879473
-0.004502012518615187 -0.03766497780025297 0.068580218758567
0.019255422480595783 -0.021828842958840057 0.06911930589466798
-0.0031996387057238343 -0.034561870009906494 0.06943477545196614
-0.0036315975488643306 -0.03666751153727294 0.06898393092967159
0.020897949009383274 -0.020613777075392824 0.06914297157432872
0.021160292628843422 -0.01759744151495069 0.06914171935830682
-0.00402738756244633 -0.03482807016460044 0.06936240981929521
-0.005530741354757138 -0.0349061540788606 0.0692708306137952
-0.008625757950790494 -0.032573870780918494 0.06924564209707537
-0.008053634292467868 -0.03221572781300844 0.06924247972376725
0.003324670816551182 -0.014066663310069274 0.06924708138917417
-0.0030051774162255427 -0.03223741010118072 0.0694211345214286
-0.0031912321541018563 -0.033699343446208015 0.06945255971318272
0.013836546263394034 -0.019540553541298907 0.06905580956371137
-0.0015185350153535757 -0.0346384028389894 0.06943260568602905
-0.0041402472924655775 -0.031624325687345405 0.06923516948332013
0.018142810727651552 -0.019980346769830005 0.06915324492262531
-0.005604229651132856 -0.03375734996957646 0.06938700299477094
-0.01328753329428579 -0.03468834703400028 0.06919626710430335
0.023154778658908456 -0.018924210583741184 0.06905422784327149
0.020921131876932786 -0.01854811300780425 0.06901246738673703
0.01679301967653347 -0.018080675646484794 0.06912131379096552
-0.005765944484580472 -0.03178878979520478 0.06905089990896277
-0.005425954432502691 -0.03378031990431364 0.06941190250325809
0.0004533498099050108 -0.034584336648799445 0.06966913125558122
0.01567386556222674 -0.020264042452490406 0.0690469286888532
0.020135275579839317 -0.02206108925065046 0.06909195982011496
0.01950812614053216 -0.018548138650620348 0.06915495715149488
0.03190276565476928 -0.03716776181226385 0.06906214788185665
-0.003216198775760475 -0.03729369544261002 0.0686441259342595
0.02106347300576235 -0.021210714478532733 0.06915098120860927
-0.001093522412186319 -0.03428268423007105 0.06943699416783222
-0.004325749793069004 -0.033207905614526134 0.06938041565936447
0.0007742130203639851 -0.03567105320797946 0.0694921468145309
0.0006513888578002023 -0.036804835403868405 0.06906161641424134
-0.010010756019601441 -0.034296075138935095 0.06920826750733185
-0.00984780624117491 -0.03406928447588783 0.06922497116368756
-0.001954795941795301 -0.03868503719470988 0.06816890021171637
0.019062058593609103 -0.02030302655075142 0.06919641615545062
-0.000360391295466706 -0.037520546157414465 0.06861410225947616
0.023901467874393227 -0.02015828321495485 0.06903314384810583
-0.002081003988363913 -0.03856497985656865 0.06822114457034345
-0.014847242859856438 -0.0383328572922868 0.06826392970701947
0.022529137639022128 -0.021736602576882605 0.06903003395535176
-0.011361865997682427 -0.03873753295492711 0.06808709792050253
0.016996529762759425 -0.021388563169801266 0.06909058803251177
0.01579257712064099 -0.016571810625320992 0.0691936278684632
-0.012828572129967138 -0.0383243708750821 0.06832106168825192
-0.013170222324751454 -0.03783188916114536 0.0684528829650691
-0.012461883659465336 -0.037391742665965025 0.06849558496821262
0.04499918039608123 -0.026017654380566847 0.06908258111149915
0.0055842744834769045 -0.01716951652364064 0.06903263837686557
0.029734093863824137 -0.028873610631879754 0.06905909798029117
0.016931022283029618 -0.013003012980494059 0.06902663084251776
0.019116220823623457 -0.03887012081020176 0.06813650154047002
0.04313107517693131 -0.035641311470122464 0.06911183557741482
0.042271148582737464 -0.03498292321593844 0.0689647986713869
0.035630002658256416 -0.021965758661647343 0.06905206443431514
0.0359368859237082 -0.023889262714192123 0.06907839787768262
0.03988109005495623 -0.033298109642904306 0.06894981580404014
0.03677875835365015 -0.023806296341765263 0.06908437620192484
0.03716006380890976 -0.021194565395206026 0.0690697207201568
0.03730336457652418 -0.03152355708668965 0.06897564423282512
0.0381943639456899 -0.03271294689214598 0.06899485869157702
0.038338155265029976 -0.02938356197153992 0.06906902328563791
0.060941826443342444 -0.03815795034329691 0.06831837829500764
0.03858949887501091 -0.030458263052613538 0.0690210617650601
0.038024889757303074 -0.030841057519909457 0.06899729643247005
0.038742701564445266 -0.031809252325451724 0.06899643971945935
0.03938174146505209 -0.030154081847446276 0.06906993325355064
0.03829945270919782 -0.027467074561428433 0.06908159688989815
0.03851958047169659 -0.026255691440991696 0.06905747287355965
0.03965760001530959 -0.027365037490301277 0.06912821395087879
0.039167906589325716 -0.026074837621321983 0.06911943007427696
0.04083314002855333 -0.02749414379844186 0.06903437444898529
0.03972088902383062 -0.024660780656649995 0.06908590105599044
0.046881228860317085 -0.03720016803834041 0.0689644599509979
0.04032117608257385 -0.026107601747720678 0.06917749031881218
0.04136418699299106 -0.02763443770878789 0.0690154416954204
0.04006353318384422 -0.025282470870678267 0.06908741559948264
0.043833871153767315 -0.031827504593015164 0.06906840640273355
-0.0152625510968523 -0.03746642529338867 0.06832470888894744
0.023480165547052345 -0.029450690317261687 0.06916216703272231
0.025652407232469275 -0.030483389006802458 0.06903078782401538
0.024215698986041916 -0.0324914029380164 0.0690479776941092
0.024699660818194927 -0.03167172363340949 0.06909090049890157
0.025331040890465298 -0.0345671279056171 0.06916814411691592
0.028390142094837305 -0.031759011294565535 0.06908603217902298
0.026346257197861135 -0.03178512868834353 0.06910311050922556
