-0.06681665130971458 0.03978415934369472 0.013654057741616932
-0.06595250990677806 0.0398954190293606 0.02283570623434665
-0.07494257206896304 0.03927644715856186 0.006363537915761285
-0.07058756890311006 0.03974041056805277 0.02655991495949771
-0.045527661997319745 0.040704157785805266 0.01112209019131292
-0.0643815356373859 0.03994510487410712 0.024037607648967216
-0.04513762414650803 0.040750407531974564 0.014301788374805766
-0.04565958489394831 0.040753909596587076 0.014239035156139918
-0.08272961892119712 -0.0017150450798339054 0.030483551204422712
-0.08139697377534631 0.028536515735691933 0.03220737017380298
-0.08276844770528682 0.0037967912718902107 0.03496958641348026
-0.07784060509216778 0.0390216139081012 0.018290763870891368
-0.081731809431967 0.023325492701610995 0.017416363857900387
-0.08282822401587131 -0.009945302470322246 0.037666504487238794
-0.0826959818170104 0.0054628857555036586 0.02362446026863318
-0.08130134399297055 0.030923866608841766 0.03448777725887575
-0.08293791729634233 -0.0059897349171345645 0.04265942463018203
-0.0827004558388768 0.0035736619610916673 0.02224295305122714
-0.08233917769040207 0.014195886698604773 0.030224656787282554
-0.08261953480706144 0.005272814943676008 0.026144503210986512
-0.08215888697862278 0.015304045537928336 0.03092554674567167
0.08231659227523283 0.005187794235242735 -0.028728736060616197
0.08267707196066607 0.011896978973339196 -0.00042840309166342923
0.0823893682509344 -0.001359869836905382 -0.0077963164799256714
0.08281184936491322 0.020887186112998196 0.00014527423439421823
0.08297766455078787 0.03393803027286297 0.010472775255845973
0.08211161320004959 -0.0039962935090619486 -0.025760854420230166
0.0826875212274364 0.018081511316189125 -0.009123259836118494
0.08289536081773309 0.02771177711842851 -0.004897034721961539
0.08261821520577566 0.018637092293347788 -0.020452539201852738
0.08227261472393302 -0.006123689767832954 -0.015188616131303375
0.08247776153585618 0.01680097418095334 -0.026377112492098308
0.08276655161382607 0.022560324987926074 -0.005760714136198662
0.08237690900937136 0.010046162010442495 -0.03009111669455314
0.08249271912648394 0.01180512483074719 -0.018750809344959922
0.0823123292248906 -0.0035662185596813077 -0.011381848850445232
0.08297269874882526 0.029210778644746697 0.007879657829193847
0.0824329402126754 0.0038485776342634705 -0.01840952380853815
0.0822016173117496 -0.0030287920756952107 -0.025562320793872544
0.08191438452087019 -0.0018255248351849843 -0.036385849466431315
0.08234100194505428 -0.002232172970159403 -0.013798860248646605
0.08250829191295275 0.00944894822672469 -0.016628203402785795
0.08273739425804302 0.026938502823890147 -0.012004737719641263
0.08276025926106605 0.013131815918121695 -0.0017943025284688034
0.08217780447632175 -0.003584825504871043 -0.03491519489643542
0.08238855621711075 0.011685260874607466 -0.030137887906989506
0.08232263490690371 -0.0028498657195428494 -0.01664191479492335
0.08235923954611088 -0.001985417314603783 -0.009112317544063369
0.082483237779104 0.0052240818841850995 -0.016892344828493878
0.08281109974151343 0.033773226823755734 -0.01098618820385696
0.0825025157840143 0.008531848817372598 -0.017307307667244615
0.0822838813201756 -0.0021197042027563673 -0.019204276704211792
0.08238341772016441 0.008386490619594275 -0.02725358429846146
0.08226923756766842 -0.0019145050908185466 -0.02047543142817053
0.0822517734900661 -0.004282299911231616 -0.01916514067925139
0.0823603355509654 -0.00024399568835263062 -0.01853678774425188
0.07971635242033631 0.037491734983909134 0.011891430193671783
0.08212931388687768 -0.005419578281424819 -0.027228865767201287
0.08224966516399601 -0.0025146797172312858 -0.02248525297426217
0.08224291586937997 -0.0036684829004696457 -0.023206849067087636
0.08287862108190538 0.03312639841819909 0.004841815811642209
0.08292421642726829 0.03213289839842606 0.008097770772632643
0.08239733638907704 -0.000715596065133268 -0.00940735533506128
0.08254492976662223 0.021340701668357866 -0.023606108831470782
0.08229935023819437 -0.004541712395920028 -0.018109669166144964
0.08281486531852522 0.02181220735353456 0.0021751073338372234
0.08254796168040685 0.019855919781881833 -0.02397039098356945
0.08216133834201148 -0.002936988061162988 -0.029050569006214978
0.08266757605656816 0.009919281555724158 -0.0007730340186959078
0.08266717009927352 0.01006941666156918 -0.0012095471193060885
0.0821542530578048 -0.0019970285543956493 -0.0298502195783419
0.08210334856694203 -0.0038263233352987033 -0.03082407834690305
0.08267195163244863 0.015761092172003343 -0.0091975914156813
0.08204843918654456 -0.005231132464061842 -0.032680526822089856
0.08263901388578732 0.01795325177168943 -0.014199877761157838
0.08276411238917727 0.01873671583165762 0.0012502993063985895
0.08280644982753307 0.023190473520065844 0.0014923825673920413
0.08281190487561985 0.024035012625848264 0.002213960650738157
0.08260849532111073 0.021404438900426613 -0.017092959740007484
0.08271480147167146 0.029803467821500118 -0.01592241350613556
0.08227190885679982 -0.0027923754216043362 -0.034512482597152776
0.0822685617748808 -0.004104831889473425 -0.01810784308208901
0.0821311440948665 -0.004772797740939091 -0.03446448973928423
0.08279701331638037 0.031881129597176476 -0.013115573157145347
0.081899659757578 -0.003693689402129062 -0.036279460611730985
0.0827318533781559 0.03202650269108869 -0.015754166750287117
0.08255379376559831 0.006172506894739687 -0.010047719724399792
0.08253841992588276 0.007826474103008099 -0.010154482258278131
0.08283720457152897 0.021971643621884602 0.004750712150651395
0.08279585861970729 0.036577219408514085 0.014509327586468081
0.08223024311131062 -0.006751826254328298 -0.016932985583315255
0.08264340191007412 0.01148939880780672 -0.004478532999806687
0.08234125350889071 0.0022362192352662884 -0.020092087784297955
0.08219572220411274 -0.003013468575270041 -0.02685883194523385
0.08284243312356518 0.026126922947638232 -0.0013403997572510188
0.08284757133108103 0.026108668499368805 -0.001215144511204353
0.08222557663351143 -0.00708923375213927 -0.01791928178958485
0.08289750342611876 0.03577465102408645 -0.00037136049226253075
0.08260924333295942 0.01703833657912039 -0.015533310405129029
0.08203162100998991 -0.0025962905950121184 -0.03910835287781447
0.08257899928332266 0.016553018885895176 -0.01666486245417238
0.0826300470271562 0.022408332932926194 -0.018557190225594492
0.08201374890754967 0.036996851378622735 0.0027132433312691395
0.08242644366177163 0.008919375217521872 -0.02604044543275665
0.0825167257808878 0.007506478287136374 -0.014098761991530956
0.08280931987095941 0.02754780674159919 -0.0005092503093819637
0.08275720290233403 0.018583741718433668 -0.00010098338984401782
0.08259797608790939 0.017767789014435154 -0.020552205729463834
0.08206700089891729 -0.002125081123644926 -0.039183532846415
0.08229964027331653 -0.003814218106502998 -0.012890357832884728
0.08260493747512151 0.026618954738501795 -0.01731171133032794
0.08198176573247887 -0.002461060493587882 -0.03689461421644891
0.08292392595043971 0.028685144642998196 0.005842154020598252
0.08270443676772446 0.014194801917032158 0.0012855482633351242
0.08259668896246611 0.01829448370018952 -0.01667986451114103
0.08210962880552625 -0.0013358873573978078 -0.032704246947831486
0.08271544731436167 0.03645656664603282 0.012027305621478593
0.08215907480676402 -0.0019838946497773118 -0.03576942446132924
0.08225235722739581 0.00393563886677301 -0.03142071143066023
0.08276142321920386 0.020143603461718965 -0.005407876662894531
0.0828169557047519 0.021633087473625065 0.0016918908542628238
0.0823297978822389 0.012085610352205475 -0.03424247621564525
0.08260301599620837 0.02562898413765393 -0.023115671061179715
0.08236350543564532 -0.00267489676965755 -0.00803162615148811
0.08227856994589008 -0.0011645427110904287 -0.019344416840097422
0.0826778849666524 0.015801459892959502 -0.005962955150630377
0.08275549740937804 0.016874775655683974 0.002007142164070037
0.08212445520274969 0.002694434314078233 -0.037120296174681114
0.08284171826089379 0.034959010025448586 -0.011732541908632276
0.08265373840428766 0.0334726575911442 -0.02111678592702313
0.08266578328432103 0.011498533703501297 -0.005355162772591662
0.08294270218377167 0.027343286464975396 0.011980538005671231
0.08235475017991474 0.007829205723914 -0.03416196392080482
0.08270989485928659 0.012524683719098128 0.0002723924036860941
0.08270235095806344 0.012179731739906696 0.0010853758770502876
0.08292731189192507 0.028323689951370332 0.006180922325339292
0.08294532089015053 0.031700533594526084 0.01070681683335701
0.08274653732513365 0.01862470719882512 -0.0037713378669654487
0.08251752560530858 0.01806172519044953 -0.017499824739857416
0.08065142723041405 0.03732777825303402 0.014706978751518083
0.08267742657636781 0.015186266171553824 -0.0071833310317567746
0.08291956179735928 0.03331821965781829 0.006452650838001081
0.082619337595574 0.019706235232678018 -0.01830639515979051
0.08292128449458662 0.03175810657526787 0.003028366753002268
0.08298608046072659 0.033954630116405024 0.01060923983113491
0.08292564594000718 0.029994958857586844 0.002966369104953874
0.08283510243384834 0.034397944438047424 -0.007426857972662879
0.08280747593979029 0.017537921351600424 0.00252079487897482
0.08282308176506656 0.03406029225273796 -0.006785172823691166
0.08240747443799563 0.015186621968859712 -0.02739861264439723
0.08286457260896052 0.03585465521518083 0.007764264826993097
0.08287389672821428 0.03615923783861033 0.007156290412134324
0.08293438276126455 0.024715843887979098 0.012156273705591485
0.08266424537333927 0.03428067202332373 -0.019346702325549577
0.08267697386063536 0.03385579676481531 -0.019260802043420438
0.08226444258906207 -0.0028323388103315096 -0.02068702107125573
0.08257244759160827 0.015041308154602338 -0.018706818446603043
0.08278766296246215 0.018351733191119643 0.003188802874320785
0.0827833715984283 0.03362234276120159 -0.014243119458414878
0.08270649648241964 0.016464782311916767 -0.00992770764607542
0.08260603932339895 0.031177077731654942 -0.019574559932884702
0.08273863638757889 0.025002288553064536 -0.012420689388036277
0.08212172480960153 -0.0012616209768687092 -0.037784210697721615
0.08291658078390002 0.03470538744096871 0.007929707811560445
0.0827722416171624 0.018186232929013595 -0.0005117019203407692
0.0821937819499754 -0.004096520971832449 -0.022606871668287336
0.08230119887616284 0.03677227022808759 -0.0012867349044236604
0.08238845186276411 0.03692227929471555 0.006504712234608996
0.08256184050865845 0.01241343218312967 -0.017291170745582302
0.0829009827376547 0.035292647114905464 -0.001068868636575432
0.08265874027812983 0.0149445006743516 -0.0030008357542613325
0.08219550843892347 -0.0013445403055250356 -0.029123918053036588
0.08264243108592342 0.012330529128129132 -0.007225287580231461
0.0822151705812963 -0.005114033937639576 -0.02117260619399347
0.08292655682503922 0.02898130608302288 0.011951357566688884
0.0829407078485096 0.031092937771018486 0.005155854192935095
0.08285680939431966 0.02383713593388085 0.004749928258335648
0.08285306773498397 0.025314457288351716 0.0029867244043313753
0.08217655551812827 -0.0003350270438493012 -0.032082164224932125
0.08214829820182687 -0.0032397367797782316 -0.02905068288320401
0.08214238323975113 -0.003606704005972151 -0.02812768620085725
0.08296714842051814 0.030878773426020398 0.011551618630800856
0.0827889756256474 0.019613056101593807 0.0069206594795302835
0.08295103688200452 0.0332804753094006 0.009149753908231079
0.08270212285473819 0.014062494511759907 0.002029453501830333
0.08274162497135039 0.01926339367732104 -0.003743206433535022
0.08232139512641937 0.009631686985287597 -0.03415647323679616
0.08274960819390356 0.02858929387960122 -0.013062340360387482
0.08291946127175281 0.032966919338280005 0.0060832726680884255
0.0825449997121151 0.01550602967474034 -0.018027245276134748
0.08257988721795671 0.029948758657058712 -0.022219636379303964
0.08288989403377026 0.032315858152278706 0.0044904720864519165
0.08288475745312263 0.027398155071495556 0.005303487892399066
0.08296041585638975 0.034881101672571045 0.010380363854547678
0.08284397251466721 0.03155006848190877 -0.004342412919881701
0.08203706635878125 0.037193994199800934 0.0071434434255582945
0.08213930880282222 -0.0002222657392404614 -0.036458115115597135
0.08288887247208325 0.03528120333005586 0.001621013511113171
0.08286271515073915 0.022527966728033474 0.01063330882822003
0.08278110378647954 0.02014495420753042 -0.00020871904656494142
0.08260138262941258 0.03653975470891572 -0.004459234915265477
0.08262971306182251 0.015043953221186073 -0.013166275644496187
0.08284005214635252 0.024404545304220315 0.003746644993246143
0.08286406661064306 0.021006336849119144 0.006447465544386156
0.0828785572569154 0.026290021983864025 0.0036933152988355717
0.08288319688433529 0.02206606974842292 0.009001244589811743
0.0828058557570462 0.024723239757875028 0.0001688655008179258
0.08249478416348568 0.01822301934970866 -0.026770131990620893
0.08276295843419884 0.03495917971625273 -0.01566363007227519
0.0823349223126046 0.004040402449116256 -0.026462442229819257
0.08218595034363642 0.0011493376710967112 -0.03244239601932784
0.08294401474926141 0.0336554471561826 0.009838354828408129
0.08287657837568231 0.03540799904635621 -0.007824804025415542
0.08253019459377813 0.01815222692572612 -0.02483778340121537
0.0829234580461275 0.03038666392184391 0.0032581516177600353
0.082898197157657 0.02952881033756645 0.007206535066197949
0.08263066486787386 0.02005460155908218 -0.016337261880254507
0.08263471641562242 0.010485611157797678 -0.004282322623641768
0.08259420310520144 0.02076854948514679 -0.02640190038416984
0.08212577973414939 0.03690851378196806 -0.0005983871386493573
0.08267947142452735 0.01038986466304408 -0.0002445549070877409
0.08268435239258867 0.010652703062280017 -0.00020987412606009599
0.08290487895317401 0.02933101232610855 0.011166643566272925
0.08282573551253165 0.019625099440005928 0.004540453706313912
0.08244582253263719 0.020508802892394068 -0.025257247515603477
0.08283637441824518 0.020617193053405716 0.0016542830545351426
0.08260796516798674 0.024289884802060284 -0.02208294902140006
0.08247717289702929 0.007770760098920447 -0.015295307553344049
0.08268398773749769 0.025942780661660322 -0.019086145299819186
0.08265448851947434 0.03628167006212491 -0.007517599586493626
0.08284354426460229 0.03395577683629106 -0.00908491614587946
0.08285090591341653 0.02988054117434112 -0.0011368686795606773
0.08271957479987044 0.016007222335348004 0.00021270610998644335
0.08215270379339344 0.0016671672696531583 -0.03714901061076816
0.08233165203206141 0.006398885727439737 -0.02701652801779578
0.08239571168738612 0.009228849010345621 -0.022115182615574467
0.0829091961403698 0.03153916896464965 0.004540548679633196
0.08263012540074395 0.027915867212594633 -0.019854753463436018
0.08214684697700894 0.03689160389760035 0.0018192586544826784
0.08286050953230245 0.028320085223111337 0.00103388566531502
0.08251116400733513 0.011686718137714217 -0.021313066851983708
0.08221906468186709 0.00618471705690328 -0.03251419433256514
0.08108026709051666 0.037299459042928515 0.016655346135382554
0.08255090856676911 0.007753338218608273 -0.01340764261740681
0.08242004600553995 0.009073401095174426 -0.02359565029220064
0.08300176013954588 0.0335117461594695 0.011829817329432571
0.08288190300977714 0.033864782860080864 -0.0015233490465190065
0.08239233706356942 0.007255982011163665 -0.026665609139316752
0.08231468134343564 -0.0007006476190919469 -0.01467409967722339
0.08231940014968755 -0.0008637501789200131 -0.014288710936918024
0.0823244022501709 -0.0013509942548282996 -0.01587335326737421
0.08291842133257497 0.03596436457458735 0.009032219770708116
0.08261849204474246 0.018369216223275107 -0.015414908676161476
0.08268595259410988 0.012814592151661917 -0.0007067689136579459
0.08288221118759825 0.03561223056125411 0.001663142158550677
0.08092693755970849 0.0373249947538984 0.009219698314351394
0.08279420976457207 0.03485257178719105 -0.01331462730462978
0.08252614107840096 0.006863263741833062 -0.01208836206183279
0.0829010914511999 0.02612875500773075 0.005449435016763444
0.08288083904291443 0.023481652748237825 0.005730592464901488
0.08258092362042772 0.02539469942136823 -0.025893837484477076
0.08274871402609105 0.021241580766674945 -0.010424379774249582
0.08297472556171981 0.032382828772485224 0.011817923907147754
0.08267149866431209 0.016801756830954917 -0.006374599913220534
0.08290719760224716 0.027015654285056867 0.009281317122434456
0.0829134721181466 0.03371959571673677 0.005966965518570252
0.08274247956282914 0.020472649902145146 -0.009738742278580095
0.08290677414510507 0.026334420672461126 0.009534242681773901
0.08231305373902639 0.011297237078324944 -0.034587443789018235
0.08281581769005854 0.024914798780482625 -0.00400900506020329
0.08190716324162992 0.037119344194509234 0.01672460003312117
0.08282850219899984 0.019622518576236155 0.0036720666327863397
0.08290789113552272 0.028549205639424154 0.009497568911331173
0.08268313719143677 0.019584172128141477 -0.008792079657706803
0.08269315410434526 0.023376521620420525 -0.015357742908252207
0.08252847499480812 0.018922629503420347 -0.024073953519379077
0.08255765579480094 0.016876628208633226 -0.019040070336609094
0.0828549164951867 0.02173641167586602 0.0037127433260874297
0.08291755421221662 0.02746740825243373 0.009972359417385088
0.0828490687854335 0.021968353253017363 0.005354361311535481
0.08248328945268152 0.012393996638280346 -0.019439790094184603
0.08291701357491539 0.02836623269380959 0.01021127565735063
0.08263309976801125 0.030718106684305708 -0.01864633752852768
0.08257190037076824 0.012263909766834771 -0.01343346099863025
0.08255998679836352 0.012617186255596984 -0.01369542388076201
0.08267462866810045 0.021432759165515434 -0.01591964907293424
0.08223291550698106 0.0040534262772035775 -0.030227218138670138
0.08169609050757655 0.03721103360133579 0.015260184657141122
0.08253351389228661 0.00641199417840761 -0.006017040268334233
0.08258064812491693 0.008860930105649397 -0.00836821196701529
0.08240555384233801 0.012653930841769124 -0.028716018784324088
0.08290100587701657 0.03384704240807375 0.00010836688727202545
0.08021528035908453 0.03746696927319416 0.013598426996833082
0.08272268130564056 0.031083752689170702 -0.016237923764235142
0.08219189313442758 0.003645482332354976 -0.037527440068379145
0.08257989507784967 0.025922809718741602 -0.026795998065084994
0.08265389264424162 0.012625853090121998 -0.004231967972268746
0.08277106650167128 0.01812707575936577 0.002473382773946657
0.08270812619903407 0.026128074340885946 -0.016121712609305956
0.08267469815573056 0.017306990378436478 -0.0033732959896481066
0.08289349913370052 0.034861578822426686 0.0004972932282777864
0.08288406418319583 0.026692022648265652 0.003613547017223991
0.08257093274395358 0.008857425206164136 -0.012877463822924434
0.08259656476364174 0.009582530163876637 -0.0132631241431026
0.08292950666746102 0.03266017443353113 0.002380689156689736
0.08255838097540014 0.004611890976038406 -0.012769767110964602
0.08240959479119406 0.004627014843364396 -0.023591173656281536
0.08276559608058695 0.018949246144343294 0.0013665576013846016
0.08289250647503851 0.03486375466232192 -0.0011110272155483807
0.08279354243463802 0.018512317183213993 -0.0024400202292713348
0.0825605010012437 0.014473299177837289 -0.01757429958593243
0.08226124480894495 0.006180009850909754 -0.03585463079040885
0.08273122621655202 0.016440390049285568 -0.0016625542599357428
0.08277959542109649 0.017485125094881034 -0.001277883529588291
0.08252749317226092 0.009509864364792122 -0.011107956656081379
0.08259412897764973 0.016328353768855143 -0.01759683369604698
0.08263401626395582 0.010916985047216726 -0.0028553607598385965
0.0823076946868194 0.005289138305654893 -0.02693168084240998
0.08255618220490168 0.010652602683151036 -0.010677140284293032
0.08224254548913179 0.0022204778316077456 -0.03114030072799897
0.08282933272426529 0.020148483824129128 0.0027257605819465762
0.08258638367094613 0.006226956208581021 -0.0036759715937628185
0.0824123884236963 0.002403681211238269 -0.013220361215239809
0.08245057950267924 0.002384844188296982 -0.00877073444357535
0.08274083523007628 0.015588603093495263 -0.00017045956832421134
0.08207983114006741 -0.005116098961775848 -0.030821303228888205
0.08208526060865297 -0.005636685587012865 -0.030737043644756965
0.08266510376884412 0.013411609240317583 -0.0031214572243920937
0.08270434741177848 0.016533181445160014 0.0005088449431780031
0.08291352420244877 0.02505925072717411 0.008837778005979121
0.08268197521101234 0.014401935572600678 -0.004344231527754107
0.08270355907482133 0.015495040444662128 -0.004345940422333912
0.08282618808516945 0.025898741982829796 -0.0029090253252683665
0.08234206888967202 0.014109192694693129 -0.03336592659192443
0.0827523490174407 0.031434644489842664 -0.009823065759478528
0.08267441552166005 0.016320855365153066 -0.01244358893916816
0.08287058145767973 0.023150936578042316 0.007377007130948948
0.08288368561375203 0.028350660668461664 0.0023413551646109553
0.08272741733153867 0.014894186810211974 -0.00023237397706925473
0.0821969934595909 0.0028620108924303275 -0.033342581416203956
0.0821541194288317 5.2780906808307486e-05 -0.02927212262342479
0.08224450928820923 0.006827241171283322 -0.03340774882471445
0.08249206116151986 0.014771011524429972 -0.023185053244790275
0.08234305379005408 0.011046632285373868 -0.028098155978604863
0.08271560753226019 0.01634607681270623 0.00104208968356233
0.08072212287762229 0.037302413804984696 0.006673632516360743
0.08247667689867767 0.01092202022084406 -0.0238593519921058
0.08256451898423717 0.026819344430301435 -0.020425626295205616
0.0826147472509216 0.021775840549857248 -0.017389536351094765
0.08263707230843148 0.011812697451846007 -0.00878865746915436
0.08263765041897247 0.011931381633882935 -0.008665572889214709
0.08257306423912522 0.01431798671982868 -0.016644087235516716
0.08287635531480322 0.02829463615598786 0.0029164066481651104
0.0806089071880629 0.037400415373417095 0.012023813117273496
0.07850568481266279 0.03768776068407299 0.012065706390065089
0.07966798044023421 0.03746361820405095 0.010604112026159011
0.08203599752255206 -0.006209531054682565 -0.03276176743662425
0.08295032142689418 0.0352621170119974 0.008307971539998382
0.08283050918542147 0.03351283513592446 -0.006531472150321352
0.08238475878399112 0.010900016802314425 -0.02513752146017385
0.08278989338477359 0.03628113466856524 0.010248329141186587
0.08289090837303166 0.03182560108011277 0.001024956954184267
0.08264714112060544 0.02292764421622999 -0.01584206952861195
0.08286816611876306 0.03305781303460564 -0.002706839529373688
0.08243641457020383 0.015460868865286293 -0.024816795304405784
0.08271118748788601 0.03412941192068597 -0.01684026365328411
0.0825217855765372 0.01775400696722273 -0.02630517140446747
0.0826842862485265 0.03294917082898427 -0.016883033596013362
0.08266134845214808 0.011705175771109279 -0.005952873394715178
0.08283747067632488 0.03347810528349247 -0.007619499993335514
0.08267225469154987 0.019573099494334 -0.013013638302732562
0.0826227853906802 0.020076513228747907 -0.014233955991533006
0.08284881433208158 0.02297238586163225 0.008994160233715062
0.08243467580248633 0.011045337326340703 -0.02646810350988734
0.0828536167194356 0.031866427324485636 -0.0049452159451217476
0.08284520154212884 0.030739128642203867 -0.0029911447172912987
0.08286235630412958 0.029756888123143865 0.0003221180736648219
0.08286144286639292 0.030051407514262694 -0.00017503004570568707
0.08290205811593693 0.028416896157036603 0.008474501962094599
0.08248585221110728 0.015807225198468056 -0.02612337364506761
0.0825881225117074 0.03163749495817521 -0.023984652146491647
0.08220172597336561 0.002785737701155388 -0.03822536959503577
0.08258981412451462 0.021703371772042172 -0.02673168771234754
0.08275300890314288 0.03207511197479704 -0.015062947475421097
0.08274284884343003 0.02164977624770848 -0.0036284837984941537
0.08282062589662555 0.030079629084509372 0.0076682979186925865
0.08279362863895087 0.032263417605575904 -0.01055277007915327
0.08279541399392212 0.03012768285063204 -0.008064402802799738
0.08255931426578209 0.015724546088606073 -0.021184550324960687
0.08242425635085672 0.016068274660082815 -0.02504359435195595
0.08287403212616254 0.021875269197135734 0.007547250366961264
0.08251756807931274 0.02313191707118653 -0.022633078094911812
0.08256194365456536 0.015549821407515495 -0.014320798807510539
0.08288889506765645 0.03480469588475969 0.0035781023868078814
0.0825231058975962 0.027383260614172053 -0.021048835344889792
0.08246136309625773 0.010023522625222036 -0.025880090050007402
0.08282400700176043 0.03042634995405293 -0.004758022913936969
0.08292074228084234 0.02777990680531365 0.011004248538186797
0.08247883273193227 0.01652565191602525 -0.024907552344110143
0.08278463543444983 0.033778609115504385 -0.013093128826097571
0.08273576789306698 0.030818883528811836 -0.010250187934139147
0.08285588663109161 0.028795992513295388 -0.004205862347110447
0.08285752298531944 0.029653299260014032 -0.004902593474473587
0.08282501241139568 0.029088561566842273 -0.0018786874944129145
0.08273474196948309 0.03049756152476213 -0.011934944055564813
0.08266426155456702 0.009298736980430348 -0.002001588251295692
0.08256179860920458 0.013108813148598663 -0.015445621779134186
0.0828095782818468 0.030739251427831356 -0.00024406330830653957
0.0827400776428623 0.016952726632826376 -0.004852570943195377
0.08254354636769408 0.019829549734816272 -0.022755815414417357
0.0826369658066727 0.00826372083839799 -0.0012049775616460472
0.08243857933453123 0.016405565715055435 -0.02516883687449779
0.08228125536417889 0.0006691869540047671 -0.024696999402211352
0.08270737221052896 0.030167757041496556 -0.013304237501588486
0.08242107061331802 0.01261252467477704 -0.02707266803116016
0.08277119746942951 0.02927321355241051 -0.00774739880123631
0.08281832711740135 0.029460286778483016 -0.00641520101197632
0.08265743934491834 0.02255168437874305 -0.016657974896495644
0.08258159782146729 0.021521578000731716 -0.02154140815363727
0.08244550548056237 0.0017366478031180972 -0.011967958648221694
0.0828437960269415 0.03270118293612458 -0.007717407415238924
0.08244027737612392 0.00954335447906627 -0.02293394124900982
0.08272226692752936 0.02815507816883219 -0.015569890665407073
0.08260604070094006 0.022452278110809673 -0.021462923623745096
0.08276113038630013 0.02939847362150522 -0.014659202527806487
0.08284370063225273 0.02872727752387636 -0.005075617589843135
0.08268162300894251 0.01743636156045477 -0.012587571354743286
0.08268176041505422 0.018927503512605255 -0.012437298289653235
0.08267853419866265 0.018869839313029393 -0.01191229674315586
0.08272906942572356 0.029680609395544885 -0.012082111159385919
0.08282147970029433 0.019638114630313494 -0.0014281835021851663
0.08072434556447282 0.037396642848785806 0.012353416250384842
0.08261583391723751 0.023648353062906316 -0.018828650998136954
0.08258056461082526 0.02278416187886492 -0.0199358075094788
0.08279833777554801 0.028330808064522425 -0.010465122706155187
0.08280511051209881 0.025312352981750504 -0.010120606963620476
0.0826779158306844 0.03153692912998614 -0.021202957613492137
0.08282252977657267 0.02929259470657119 -0.007060598184396548
0.08265801477939855 0.025003286076741536 -0.019209626523465438
0.08242892886142245 0.00820946783207866 -0.022215461621842895
0.08273227323441032 0.027682902683598597 -0.015378761408998172
0.08277404797030215 0.023789234043326096 -0.003508738988983102
0.0825504558673652 0.02219136452878515 -0.02183353580686995
0.08291838603344044 0.027286175859182124 0.007373864877373956
0.08249581610854928 0.01439440150095802 -0.02507121535712832
0.08267521047804464 0.01862486950645624 -0.006477356132564156
0.08260510114671518 0.01864503305929659 -0.018359959756269847
0.08244269848103764 0.008694661410618913 -0.01989587308163225
0.08275349310364577 0.02705002394305111 -0.012725346509741182
0.08254259867152182 0.010292076836010466 -0.01822676862402462
0.0828666705480484 0.029421032819693924 0.0009081339144782615
0.08190466486019414 0.03716495172882145 0.005100159944445954
0.08281550619977317 0.028214800129219078 -0.007554210412854546
0.08272345257195454 0.02712740292324431 -0.010778409928025905
0.08250981037157784 0.01455807768428767 -0.020926249845368703
0.08292109284960511 0.03044189604206121 0.011000706105716119
0.08260734999122069 0.02934925742432107 -0.02125447800116787
0.08293941073653625 0.03472729847160522 0.005168461738571623
0.08258590404186977 0.017568957756086336 -0.020926464332658837
0.08263002728280798 0.021806982732542685 -0.01913092140546816
0.08277166336231029 0.020950584928854963 -0.004851280161745159
0.08277276396823982 0.026400255525819087 -0.006579392015714838
0.08284289814866076 0.02337605945263217 -0.0021040346977846203
0.08283298063126909 0.023700941232436858 -0.0018071863035654398
0.08259665338098626 0.02097306615968912 -0.026603841648488856
0.08264429040536259 0.025040668310603507 -0.015192565835478438
0.08279878399925933 0.02750528944525238 -0.009796292046718693
0.08134264896184312 0.03725802240001193 0.006353220733387011
0.08257935949810706 0.026757357753937817 -0.0216678479604231
0.08267279405691137 0.036476061529602526 0.0036302990286056673
0.08268840105755988 0.02247899315867261 -0.012904673443605547
0.08240988585650641 0.004798552610362904 -0.020683106451269157
0.08244384171260354 0.015362260249986591 -0.03230711007731127
0.08261061263154897 0.011184173421903865 -0.008202702678587555
0.08289700550110371 0.023018035623788905 0.011485414781548034
0.08276373703092894 0.026168235788479436 -0.008928114335159134
0.08255078716626577 0.012726497928409347 -0.01610612965071848
0.08276677315720796 0.023624210870630734 -0.005380063590872421
0.08274172740947366 0.022000800089772433 -0.003406653848629997
0.08233567537664949 -0.0021649766915974576 -0.010358302781118676
0.08275837936971688 0.030239534803715717 -0.014771687202508696
0.08288011237554951 0.0206723345847133 0.009731674820967866
0.08257815441840217 0.016932018487166807 -0.020637751665660387
0.08254176423541058 0.017682633015590025 -0.022795955430727675
0.08270934213874345 0.014152157764545951 0.00037495451213173496
0.08263251947568223 0.016528371601872344 -0.008263414956966504
0.08277590308129996 0.023259168527103424 -0.00023950059373690992
0.0827717829653691 0.02180120228425647 -0.0006867407071307783
0.08277121613747222 0.03310929114591729 -0.011839755035185905
0.0825800372600529 0.016480310249198077 -0.022098890960182423
0.081165533656917 0.03729619078084348 0.00885155208050902
0.08289320125784767 0.021218417791824574 0.008242488304606813
0.08273280123436616 0.023534286056629668 -0.008297938876529971
0.08275898373828462 0.027920836567452225 -0.0018502514561855084
0.08254560629185564 0.020476023089647154 -0.02199042004787907
0.08279688681650385 0.025061410650448986 -0.009706009109802509
0.0827671439447817 0.028680604825380523 -0.01169300001424882
0.0828009667705096 0.017774453299812674 0.0039214674464911545
0.08212854790209287 -0.003558443074103067 -0.03379016264476261
0.0827555675726056 0.023891201854099733 -0.006780476261171168
0.08276842048504277 0.02311789819959439 -0.010334222887896224
0.0828314846342366 0.026613178675266972 -0.005023319704581517
0.08279759356925803 0.032882300598310564 -0.011108651799904062
0.08281458908056541 0.02407156133744097 -0.011318743624300843
0.08270914228028833 0.02449522072934782 -0.012602574784062657
0.08280715129243928 0.018407825758483768 0.004346720339544517
0.082781242645255 0.02769698979556219 -0.008176982622197666
0.0827250935845326 0.023935305336875053 -0.006097668981102002
0.0827780894433488 0.02444852227332421 -0.014031772471416785
0.08245948957114742 0.013870290511682468 -0.023454496094611314
0.08263405872738334 0.012309995275141605 -0.0076115633504989216
0.08266799822248554 0.013643266498474537 -0.009095000501301983
0.08288364325614656 0.03386242195838967 -0.003961458705044335
0.0826398325397797 0.009015084210049481 -0.0035680432939290212
0.08225565489769193 -0.003630132727447999 -0.017880800408047577
0.08227142052951299 -0.0035527396017958316 -0.017301974132478727
0.08276786580247197 0.02800562766717779 -0.00974275715592584
0.08214107259429969 -0.0031636628129573852 -0.03201312004557785
0.0829638926912043 0.03519910018205986 0.010043875245056866
0.08270545288735448 0.02248018931521371 -0.011394644143397395
0.08116683334000661 0.03730109476693917 0.00858279968798638
0.08274180600311021 0.0244894311076721 -0.008562794197537353
0.08251611337175603 0.00999024954788737 -0.019119826655347474
0.08269894985280721 0.022973167032291776 -0.012701451088886154
0.0827416840117002 0.019738320658759047 -0.004382251695757286
0.08271535609144212 0.02176243971520795 -0.008631451418905433
0.0828352174144373 0.026994811598810172 0.0010870779427993474
0.0826272190161642 0.025195043794914482 -0.02156666427874914
0.08281614387442277 0.019042979208148608 0.005590989819592693
0.08252078893785411 0.010044463490681827 -0.020464898812152698
0.0823778778971445 0.0011093248571238381 -0.020181651904669032
0.08249215112811031 0.01200070451593123 -0.018968215507361212
0.0824971457243413 0.011690967149257946 -0.018399341808727415
0.08244958754839274 0.013929062609902884 -0.022049518394923508
0.08279380877106093 0.03082168450355272 -0.006459092906724743
0.0826022998325318 0.014630992255262563 -0.011365016370810757
0.08260872129442623 0.011701057133563281 -0.010037317849748992
0.08215651670591123 -0.0017347184149211188 -0.02802874703650054
0.08262873785566185 0.013692780174861634 -0.010529740135464804
0.08274424114223992 0.0218820439400211 -0.007630410069770381
0.0826591604570597 0.02089761504619138 -0.01619397884044342
0.08279338182885149 0.024004912643818554 -0.009673795453377921
0.0826365102196947 0.021621909237030883 -0.01409198713116373
0.08268926425420017 0.02219163252647671 -0.012213687681662833
0.08224354297818612 0.037088750789906005 0.014367124873512174
0.08217513584214092 -0.0019068592694467573 -0.02621596683573732
0.08252385138678155 0.011371338992555298 -0.017025550778636753
0.08255016234273438 0.01201255924511744 -0.014057166093765363
0.08267252231586156 0.016117091251976176 -0.0034435332978977546
0.08273766673666562 0.021445544319989397 -0.006645727739196293
0.0822120859798729 -0.004130635242508435 -0.02114453508634245
0.08266274174903591 0.012155917510732731 -0.006392484565935493
0.08266955478942924 0.011873581227394934 -0.005980395998874378
0.08268834447615787 0.02211261435196076 -0.011678623215054655
0.08222125933002189 -0.005789358676934982 -0.017739236448061677
0.08260092685283539 0.010701424699104994 -0.006146495541920632
0.08257968093838712 0.01498472059223567 -0.016416470639061473
0.08249843480949998 0.014341240698523095 -0.024800362331520474
0.08258213533810675 0.026290668072930533 -0.017715617365093566
0.08280908365745752 0.031032445785921226 -0.004636384468243203
0.08277166438451969 0.02145661469500504 -0.0009186761887223543
0.08276388009720684 0.02522932195036002 -0.005770678827572713
0.08251882924011701 0.009996508068577655 -0.016553648535358564
0.08252796917441008 0.01011330512805403 -0.01870963234734749
0.08247281866308284 0.01151981093275439 -0.022353352089130318
0.08260054479690465 0.013653957367546371 -0.013223784298314022
0.08264441866469593 0.01568504256493673 -0.010507497492037486
0.08264087692833795 0.03155310237734827 -0.018014067903583654
0.08267066526810668 0.033318416981818824 -0.018560256024154502
0.08268241007013698 0.014692330813348635 -0.006947724944411769
0.0826958548447341 0.017666766581107156 -0.01363667818407215
0.08224737644276507 -4.195995904385821e-05 -0.022071614285744078
0.08228194158706711 0.03703096736489145 0.012404847190638562
0.08264595384238818 0.020881066739305836 -0.01846600746109307
0.08257996338854118 0.011256856169202238 -0.012175471433696537
0.08255799467426458 0.011365500303696477 -0.011529390260069352
0.08263210810812663 0.015567539930351577 -0.01158126637184987
0.08271408262722707 0.016983326760663144 -0.007124919323169853
0.08248244146754541 0.015456431207490814 -0.026451045009238505
0.08287422967503191 0.03389464983579304 -0.002501303295576423
0.08288902311991884 0.034640662438133324 -0.0013612501680299424
0.0825290323103425 0.009252116066271488 -0.011314385748119653
0.08252196438199634 0.008546578515330378 -0.011352742478198202
0.08103464188838395 0.037308327316348776 0.007791837346563455
0.08290228482728002 0.03255072086227535 -0.0009830780450792965
0.08286805887347341 0.03565450306472214 -0.009230049435264905
0.0825390251077667 0.015403907403165707 -0.021822232010022456
0.08257201128904945 0.013817472619118695 -0.014646347565682543
0.08265970154860297 0.027111337527148727 -0.01959096496525906
0.082125054566487 -0.005515239973418939 -0.029719905547944063
0.08277400932688352 0.02979059759636711 -0.008339786733208395
0.08233277097335753 -0.001716095146131137 -0.015545391999963677
0.0825973760468214 0.0309204658984256 -0.01967645842990051
0.08279203993101397 0.024103438921576282 -0.004414362103366397
0.08269118206992901 0.018535146381858596 -0.013791076604345049
0.08262641313734126 0.007565082251987378 -0.0035147224021639754
0.08271274338993617 0.01774998944247557 -0.010030201008245813
0.08268502264284278 0.016138518081458268 -0.0075453160202428645
0.08265336387936109 0.01617429551168302 -0.013562540514338972
0.08262327415391746 0.015826153297183114 -0.008193026274808045
0.08216833649278937 -0.004828324955597555 -0.024493774527400737
0.0821644842620276 -0.005160689266557872 -0.024378340714708263
0.08230676706999497 -0.004656537469305983 -0.017806821148354544
0.08278717419539669 0.035074461120610544 -0.014696925645668844
0.08177669820458465 0.037185266186771926 0.01415145302776826
0.0828581660455305 0.026257827487685733 -0.00036567439259256476
0.08232019673078589 -0.0032887679395406243 -0.01108352527164727
0.08231863145245259 -0.003402767371139325 -0.011012807584177378
0.08271190854369041 0.024354591916436612 -0.014358310355620095
0.0825407685665365 0.015898773029472228 -0.023146980738415406
0.08281857916716812 0.032594010298453824 -0.013809212305607745
0.08257796698864324 0.011919016387209859 -0.010874455049920443
0.08255358715806961 0.011350936611983707 -0.011104832888119892
0.08243402681372115 0.013043481540079865 -0.01739914319864263
0.08281155858400198 0.03625319354081798 0.011618734643321811
0.08229598046625584 0.004203647005716257 -0.027520879355970744
0.08255694183090212 0.0212614075723373 -0.01969630267831069
0.08267249989144618 0.028573286497876688 -0.019637537099722414
0.08290682824459891 0.03209623515221747 -0.0010059545506024212
0.08289849008925156 0.031244042480973337 7.312576619635588e-05
0.08244972571941955 0.009934922751905743 -0.014705662343319745
0.08236148798176811 -0.0028738101028127675 -0.007429424772764657
0.08278259603711127 0.017434849165481055 -0.0018602381650620844
0.08291535683931352 0.025988979294657266 0.008579213911854853
0.08283533497640568 0.025679960093923634 -0.0026637144466258337
0.08278726115777632 0.02638639030617221 -0.009506682027297167
0.08277333414808175 0.021151657690748983 -0.0010753113881542741
0.08283514217206958 0.01951332194712116 -0.0017206897635561368
0.0822989981121996 -0.0034264566557155466 -0.01556952985353499
0.08263784923189119 0.009695458282136655 -0.0034579897706486446
0.08277108450337904 0.021401921721363612 -0.0015821484784441435
0.08283292197130573 0.032328986585735 -0.013507217409755521
0.08261546945767141 0.029678200105720542 -0.019661962553912483
0.0827451753336292 0.02627087174791633 -0.011722099336049967
0.08081456158237402 0.03734958218584372 0.010762666750403568
0.08297822200340796 0.03058350725138599 0.008883620534373127
0.08203731434046437 -0.0011184882072188805 -0.03501845170240119
0.08284532930595485 0.02066089872302533 0.0007928424344632468
0.08244532471808928 0.007294285575178159 -0.020582116414372114
0.08245232769209157 0.014747306716243214 -0.029189846678298582
0.08259379047584922 0.006359956122569309 -0.0026154821592267235
0.08260165237807118 0.007095044067766395 -0.0019457327286348438
0.0828485866023633 0.03439975316492651 -0.0066007731891658235
0.08008450356553766 0.03741673063198362 0.010573020037740032
0.08267803266530778 0.028262352749331587 -0.018045256247401012
0.08218699333389709 0.006057193105444804 -0.0348611455314918
0.08220826305626451 0.008270988969531278 -0.03639298391041394
0.0823893370926796 0.0009896586156342912 -0.0164098965454623
0.08226671875872889 0.006682894697525666 -0.03615438650849466
0.08282455414285421 0.023536213452284627 0.003099371287178564
0.08283481346195892 0.023481104295623133 0.003694243885100829
0.08231824701380425 0.011599441135626082 -0.0342894879459173
0.08235058613823236 0.0003398086426470991 -0.020175428037717064
0.08210103518607252 0.0008237295916967858 -0.041213701816824835
0.08250424553959532 0.02309347919482223 -0.024949256719028482
0.08233960330570697 0.007484339504874138 -0.02849241700829149
0.08212385379111567 0.0004367492024143698 -0.0381611134565113
0.0826440681823728 0.011345394877065582 -0.003017270798663196
0.08223342412628391 0.004402116303479596 -0.03052833322140705
0.08260304357135226 0.011031248462264815 -0.006889049181146344
0.08220899183297709 0.0013432190010654178 -0.030348321980896882
0.08242389163000316 0.01583813989179627 -0.03149189160830227
0.08235109063144914 0.008973557352486472 -0.032237560254747694
0.0820538548509924 -0.0008741228999600496 -0.04115811211100412
0.08229084143871251 -0.001374511770840866 -0.020718055805219487
0.07979132429668451 0.03741574447102662 0.007919592546682714
0.08001565987478056 0.03736737626618275 0.007170283074564917
0.08212337658328117 -0.0034793366999808575 -0.0331687191526528
0.08263291453989215 0.030545878694678424 -0.02042396874677697
0.08226105615780414 -0.0009356134479025803 -0.02403382705565723
0.08201331302642098 -0.0006102737961117005 -0.03956686663607269
0.08257713286864765 0.02398096430874354 -0.026283266952761432
0.08213229425956062 0.0007183974476300375 -0.03614515598633011
0.08237968996618086 0.0098194434107641 -0.03104787675838816
0.08252769907806716 0.023667197154063815 -0.02543451678367618
0.08206958408777826 -0.0009442874568180585 -0.0368450933026189
0.08212688556281282 0.0019742227039322947 -0.03860185250242546
0.08207747335985956 0.002433809816232195 -0.03686963609028354
0.08254020064364831 0.004402492025850979 -0.00497108643939884
0.0823203773447587 0.001802013154560694 -0.02314343729346774
0.08226942335745221 0.002010422494868179 -0.0344637280134307
0.08215928057148131 -0.001345470251719579 -0.03191155194214246
0.08229212863009182 0.0022676344542232746 -0.01728279154805984
0.08210542602474943 0.0006567295432912506 -0.037386911850536955
0.08229775751507576 0.004956542361119526 -0.029333047873912242
0.08252099546626787 0.005012931116513654 -0.008777751429260674
0.08226217536192265 0.009572963285129635 -0.03503508633108968
0.08215574847946208 0.0053997107132143 -0.03478442648719574
0.08226035414836849 0.005022361450196029 -0.030336037746783125
0.0824510055805921 0.011963920160364874 -0.02370506957801595
0.08258164182000305 0.02600409984600536 -0.025098209619016317
0.08232780968252892 0.007102969497649429 -0.03448345324720808
0.08221342398882313 -0.0005477228133388455 -0.02792415647029377
0.08244682082417652 0.0006641123997978049 -0.007635098434015912
0.08246389793914885 -0.00016602554897881763 -0.0070786765662887025
0.0822442882347075 0.001753563972997295 -0.03161108094333521
0.08257437280184868 0.025791470995958674 -0.020814419136310297
0.08219716200020402 0.003803544694986895 -0.03594824223381283
0.08223866429350038 0.0003722214804427855 -0.02752983731127633
0.08218576610381673 -0.00028691696197203845 -0.03021536763608597
0.08242490873168415 0.004312776739403529 -0.019047851412149645
0.08223861161249323 0.004464314700400974 -0.033797211424017475
0.08212869268670914 -0.000889012509750806 -0.03331287351796686
0.08207239648062921 -5.217396364987364e-05 -0.03878247906074902
0.08223323296795307 -0.00018231818878613305 -0.024912498655467134
0.08227107838086226 0.00030093886780383167 -0.02534675496799195
0.08220448036607389 0.009635243999632448 -0.03530291597533797
0.0822369168505374 0.0017866523141553386 -0.027463793927860587
0.08224695920370141 0.004314927656755524 -0.03352731461373185
0.08233307911321033 0.011502574212860533 -0.03229958187258443
0.08231247574893333 0.007520240930432321 -0.031450858726921375
0.08243878603056808 0.01654597142704706 -0.027890913342931336
0.08244319984152423 0.020501999568914006 -0.02761706829564603
0.08233191606171561 0.0032207732780017697 -0.02280461944321755
0.08229619196790508 0.003495471983847344 -0.026655160758376255
0.08227102460917629 -0.0008180847939475135 -0.022434949677185487
0.08255289921233297 0.022424938978529978 -0.026867967686334752
0.08210145324565714 0.004048615417568833 -0.034888491190144186
0.08238238880438611 0.012578129100325618 -0.034789826411471436
0.08228340026530039 0.002741470137355531 -0.025866206884145322
0.08229298910972527 0.003336871089020821 -0.025987594831718846
0.08238396622763507 0.0054219378004885625 -0.020645811794088538
0.08230076002404312 0.003386128266546332 -0.02486991184879151
0.08252964516751037 0.0048365989576715715 -0.010322580028397059
0.08278551899489837 0.03630305430361422 -0.0006723354144558099
0.08247277857463631 0.005009731137749685 -0.013457052445032359
0.08231391882629017 0.003787308490081019 -0.024200615087302754
0.08225193333976671 -0.00030265202337232435 -0.023234647687023706
0.08235860665112343 0.009938070773653747 -0.02809746443455494
0.08231370720472707 0.0008655458163888734 -0.021853512350141765
0.08223193351523957 0.004532996451437875 -0.03334390936218289
0.08237849015952328 0.012608987289887328 -0.03154048124121355
0.08235746072661498 0.01194184465023816 -0.030824680261187915
0.08269425309865355 0.019393912721613144 -0.011499629772792883
0.08223968103685023 0.002707329066437422 -0.03394428793936421
0.0824312953955684 0.007438605648645958 -0.024252803021418225
0.08240852852933596 0.008191203170010389 -0.02511361931468538
0.08226545365558002 0.0008172111097964911 -0.026827878999250324
0.08244107028395356 0.00735691526443704 -0.025120594355448896
0.08244073775250481 0.0017212328490870787 -0.012811181275382747
0.08234362726069923 0.00334147642333666 -0.020561147601394134
0.0822991565924475 0.013443570444300834 -0.0332143324044225
0.08240697221600239 0.0037416578885936117 -0.015069310992080538
0.08225419198941206 -0.006363728181162811 -0.015597510790809151
0.08241796199165817 0.016761859773128544 -0.030277991255386275
0.08244371718851186 0.0026665139474133957 -0.008310460321934644
0.08227473402795532 0.0018864919459104842 -0.02647737759858949
0.08238262980486388 0.013433408269849179 -0.031076555953510242
0.08253006563374915 0.004019825489624167 -0.006366450844640839
0.08256844023047585 0.01021233321907853 -0.008544465951004153
0.08230950244987063 -0.0003159303521618807 -0.01578108381707026
0.0826259915222739 0.024542493604598314 -0.019356357835040347
0.0824276356858984 -0.0010574139886036173 -0.01206064957620226
0.08255629362074295 0.00526664962457953 -0.004343215536232924
0.08248918315532368 0.017472041899044208 -0.027114871095691648
0.0824572273307129 0.0032143400392077607 -0.011009712111883167
0.08243079009596624 0.0061584397377955225 -0.016346098498508415
0.08257827527221287 0.02302509768811549 -0.026175619673850972
0.0824655078739545 0.012315734295617175 -0.022905755313502998
0.0827461042397932 0.02776884510233832 -0.0015626482547951757
0.08239494400780914 -0.0005887937916066301 -0.013126748003074753
0.08240227450907145 0.014676551996672896 -0.03358401525386058
0.08243301596430196 0.015936063681632733 -0.02853359847375742
0.08240366649202556 0.014260565348271342 -0.03006872700400272
0.08251431333740199 0.0031398997444896126 -0.006292865949391428
0.08235046816398467 0.008531541065734387 -0.02824515193322607
0.08243130117266506 0.006487208334758659 -0.01890363670804715
0.08242717619126817 0.003576351954914852 -0.016105361792353015
