0.08132065947360098 -0.038478932983361726 0.03750860001838746
0.015945901669422512 -0.04052129727951301 0.042701705059160724
0.08072778084121263 -0.038864716612027686 0.03492676255693761
0.027192599958135236 -0.039830780124266905 0.061696962278607846
0.055852984024637536 -0.03967081909398951 0.0315222034042347
0.05398225725304416 -0.039713600610766626 0.03252576692393712
0.022871258962888084 -0.04027780022178604 0.05299729041831159
0.05243520366779855 -0.03975178794604942 0.03370220568707149
0.035904674396946015 -0.04018115599050001 0.04283593011520946
0.04949711651488863 -0.03997616569692419 0.039840669002408145
0.08226897200816542 -0.016619002638119627 0.03548904985603639
0.03929246886164116 -0.03995312023981465 0.03495806933678612
0.08267107147502448 -0.002641671075930916 0.03457839156451069
0.036812807635824674 -0.04005323453013334 0.05637451493385905
0.05937637103694013 -0.03960608694074404 0.03237045211177969
0.061968895565466746 -0.03949802047692699 0.030386214803535677
0.08126784585401327 -0.0380214316078602 0.022399916983658327
0.0825176880892282 -0.008302792826592336 0.052514121688179774
0.019970460345773666 -0.04025868562266352 0.054842552001967755
0.07542563443601986 -0.03946915453317152 0.055372727436768764
0.05005485921914006 -0.03982257689940457 0.06095707669448932
0.06623967905915312 -0.03966837642143234 0.056605949065386664
0.038264423332601646 -0.04004352655221434 0.034884340093701824
0.04572477901114604 -0.040038287996519435 0.0427990035405956
0.04940151426227741 -0.03976580149996821 0.03405366305037131
0.04660555874631763 -0.04006458086839573 0.047904105385091454
0.04019032455195118 -0.03994396706824407 0.03511634859769597
0.0829547662207846 0.008062410453253337 0.03100491953832768
0.06544628771627584 -0.03963121300749 0.0404952435324625
0.07592509090198757 -0.03940583106818858 0.04776670952171437
0.08114733881353303 -0.038703186578116056 0.06201760095131821
0.05139521518312974 -0.03968566132658857 0.06682448950499204
0.08193933841042422 -0.0251591184654295 0.04771328977365403
0.06716460201814684 -0.03951582791897999 0.034855408714937766
0.04762118096696493 -0.03974326735783767 0.06271229408028714
0.06533429457172212 -0.039555351343138076 0.031962186137313664
0.04673473340396031 -0.039879848103541726 0.03569179981797732
0.04727241270032517 -0.039888484238228564 0.03558563037354609
0.04421013853992706 -0.04008118102890311 0.04570614953836398
0.08195878056504992 -0.02554574735369682 0.049999942660713295
0.014295671608390823 -0.04051733848285871 0.025202927026817416
0.05401941360063478 -0.039733085945281924 0.03227225918186548
0.057132926573495876 -0.039925573607219024 0.0461090788067616
0.05538301271525981 -0.03988422974743354 0.045918952478147215
0.03146274272021525 -0.040265846430135754 0.04219702558141665
0.031175119279282563 -0.04028089023576106 0.04100044390875298
0.01380271817804076 -0.04058778615394936 0.04678396858236724
0.013676303373363822 -0.040583152763226646 0.0468291044645838
0.07853359261555545 -0.03938300150894759 0.04593708529710429
0.028666692478974555 -0.04023917668249893 0.02963545618204972
0.019552958839340318 -0.0404256427792986 0.021842613922026466
0.020774189610896596 -0.04031555211787651 0.02013902260271177
0.04212702857610092 -0.0399328472714527 0.034378084015155186
0.0783013230486452 -0.03927044533581045 0.04048541103607016
0.03895253714624904 -0.03993230522405385 0.03628121902865327
0.03635673342089962 -0.0400347378098098 0.03873581236669493
0.06575707370565273 -0.03955939288387701 0.03403953703199024
0.046029499716179235 -0.04006557390907155 0.04459883599401275
0.062191792378019764 -0.03962680597889505 0.03767603469715977
0.023639416035540692 -0.04044225877752985 0.045785219235786066
0.07045766316914022 -0.03955753207186769 0.0398990509277536
0.047701030686279094 -0.03947584259759834 0.06655155720027069
0.08132644755232182 -0.02751277793710355 0.0666786652423853
0.050207694029959754 -0.03985669780702706 0.03424764046410851
0.08283506397393388 0.0059955769529749 0.021590151814853024
0.009163190120034866 -0.04067949300855794 0.030435233016549587
0.045177913571367245 -0.03992988280378121 0.034084942406712476
0.0376474762908361 -0.039591890794559444 0.0667069614893135
0.03986580528182275 -0.03998206404211721 0.036328381658911356
0.07666055888501476 -0.03952200770383394 0.05390842813373628
0.04642530790921599 -0.04008611676029622 0.0504686289410579
0.04268638998499876 -0.04000745768958349 0.03793266540230404
0.06301399017609825 -0.03978356885634225 0.04227366077687074
0.05106962086071955 -0.03991235909712817 0.04019342351805194
0.06806814651360757 -0.0395094355099741 0.03958632618011597
0.06470734359290901 -0.03973747764348793 0.04617456243953598
0.04004398953563802 -0.040091538937890546 0.050628740133894005
0.06572513275332686 -0.03962415965045918 0.043702931067582156
0.03727212493229389 -0.03990188066743164 0.032843954416602664
0.030994450694407337 -0.040267039310446444 0.04938237740578458
0.07579065859934528 -0.039456358696302304 0.04652760752331436
0.05570137414239657 -0.03983342914842479 0.03731347762238256
0.06635558570286046 -0.0396702810923578 0.04347422110892018
0.030266866580464118 -0.04020427414369039 0.03249162332848675
0.0690245691261176 -0.03977265927875137 0.06625181144269718
0.029235794030016596 -0.04031027280821482 0.03822908160304739
0.03711038774546492 -0.04007749964670386 0.041048336559319346
0.03912838986251328 -0.040031656238308094 0.0378400721198198
0.08030321166214993 -0.02683089250827785 0.06777679630174473
0.07463222451364698 -0.03947035398199659 0.03883948546533465
0.06196191831636527 -0.03976059703572318 0.04133581930496602
0.03691987520417873 -0.04004945296682151 0.05655805233713844
0.06307294307918096 -0.039606183370868644 0.03518215873670243
0.07906703932618618 -0.039313422516468605 0.03808041036786286
0.039346401544922235 -0.03984929608125503 0.032450692300623675
0.08056089048535875 -0.02724896924325997 0.06757275056788677
0.05116522618351713 -0.03915411993815187 0.06807145171751905
0.044582882541337285 -0.03979435328887363 0.03030228084089829
0.07616230821622479 -0.03945325264246672 0.04333637200285241
0.0681034918275944 -0.03962536453876253 0.05388415232425073
0.04967503414349986 -0.039991341977884315 0.05297992988592644
0.034566265592117576 -0.04015545594070297 0.04005803718840622
0.035160860794750705 -0.040106713004354935 0.037321362045623516
0.07694159614820092 -0.03943182824654452 0.04576249650375823
0.05520812511957037 -0.0399096618596063 0.04479211850124232
0.0750321884222387 -0.03990346071873696 -0.017811165985852237
0.07563971372873073 -0.039857643473904324 -0.017162652364814925
0.06515359167471974 -0.03968962715391361 0.04409198273357261
0.02990853863643015 -0.04033625381553742 0.03935671937139951
0.06455737689875463 -0.039587979461040826 0.037293047717003584
0.0818502760324197 -0.02021201817929926 0.0624923387240845
0.0626455630951471 -0.039795429350921875 0.05023533312656264
0.049890394422864894 -0.040051154937007255 0.04913404914701202
0.06504201960942864 -0.03965885770466346 0.048687760293621214
0.07177208892342538 -0.039534289149086854 0.041368256594898595
0.07235238776472622 -0.03943448267801455 0.03600821734023041
0.07057859141344218 -0.03950693466528079 0.036548349101644124
0.036976762765569396 -0.040051653808567206 0.03672865727718232
0.042001760219619995 -0.0400831213031401 0.045834592293375005
0.039218186945280446 -0.03992615427861651 0.03140150174528997
0.08017441435941126 -0.03888873760786013 0.03919455367660396
0.0803618452928174 -0.026496016432348203 0.06752291072137787
0.08004901643723449 -0.03929943072898064 -0.02346836367821268
0.08038544450674034 -0.026082420125855255 0.06742244484125721
0.056198834734118304 -0.03968078028040539 0.033631698947264366
0.06277128580972981 -0.03973685728548633 0.04736654901511364
0.06433933818119708 -0.039729362792464695 0.047975160999238826
0.057742651225148475 -0.039803305248676216 0.05684653925779243
0.06416334296150855 -0.03959131678998978 0.035690248858191886
0.06363538789241384 -0.039579870698834334 0.035227340693085134
0.031339154832563054 -0.04024512773853427 0.04864239550189126
0.04330912641071745 -0.04011034419029568 0.05276923939194463
0.04060354204624975 -0.03956734869896627 0.06493146371011692
0.06313096896232083 -0.03978128707813616 0.04282567472674368
0.06729818076116952 -0.039718743675255685 0.04835023886833765
0.03223341420760863 -0.04003698232010557 0.032194778573615794
0.0810045521426718 -0.022773111881857815 0.0671495019469182
0.04936584464407838 -0.03991350379065361 0.03634640718733465
0.04963819184986586 -0.03991842642222315 0.0370778142270552
0.0517505049871871 -0.03985595138886287 0.05757065913991258
0.08213967148969778 -0.02044628591585785 0.04298920813433415
0.05140969673064461 -0.039948988318297254 0.055697339856009956
0.04000100151749226 -0.04008813646590865 0.03982639470305279
0.053152496673039326 -0.039718676979292315 0.03176237251782289
0.014035856228271292 -0.04038278872031128 0.05467928826901643
0.057205310941952574 -0.03976490613689061 0.03497607928937469
0.07276355231747418 -0.039451884735811724 0.045720791765520234
0.053323009078421274 -0.03981413682256074 0.037437376488174856
0.009427119691692343 -0.040919052340276554 -0.0041278332738075565
0.058140921258463936 -0.03988681740253657 0.049262803192872386
0.051835275762616664 -0.03957866716805865 0.0671216455921213
0.06841165852488008 -0.03952101900030595 0.03753013895111343
0.06931943314220226 -0.03968048213394435 0.04399863323214409
0.026932001001996386 -0.040349455706536 0.03145632160028142
0.06740377948906418 -0.03968642435086131 0.05492037842131163
0.049431176892401285 -0.04003434790618679 0.050242304923826885
0.04918703534163724 -0.0400209320004373 0.04929068565709366
0.033906513061316514 -0.04017445105782926 0.0485793823052765
0.04068577798835492 -0.04009763843182648 0.047469739443426924
0.03973481685643257 -0.04008724079835939 0.04616501866360874
0.07489020509171683 -0.03946447117914963 0.031582416804305014
0.036830108097653864 -0.040091137396426786 0.041497468505709914
0.04187669790195672 -0.039997149833595175 0.038021437947312865
0.06370967566024754 -0.03987310516687809 0.05110551720778094
0.036773254506434094 -0.03956048743522904 0.06567906776926344
0.0485897286538418 -0.03970943270896994 0.030145553494541788
0.04845535371304126 -0.039709509813415665 0.03008351408060999
0.08178242524200866 -0.018104454052061392 0.06474462651501799
0.08170364203824547 -0.017539612081042173 0.06490682938350488
0.049573477181273196 -0.040006197007817934 0.04815643203740218
0.03463050313219323 -0.04012536546323657 0.05317750817230551
0.048435211226099485 -0.04003569512615563 0.04884698565559406
0.03652969307483224 -0.04018591284064413 0.047091724963637435
0.02822471372091743 -0.0402816190976669 0.033044327886951635
0.07752964419600397 -0.03943496939174504 0.05155925520552043
0.0469846707563949 -0.039984825865400454 0.05426783985707362
0.016217341157153824 -0.04056923350849007 0.030001005984910366
0.08233849017623004 -0.014939018618046012 0.04242455003792109
0.0727559718959964 -0.039499474099386755 0.037949226857221
0.05210922173821959 -0.03980002903459804 0.03418307560259327
0.08118629828745341 -0.033113371091756855 -0.02544657839956268
0.043543850154703405 -0.04009381660949666 0.043556815595270276
0.0505463663996238 -0.040020881017745376 0.050822432074060446
0.04690030123382629 -0.040034293468437544 0.045267158488807774
0.03494556139114441 -0.03955115006414206 0.06519531887314896
0.07226862822352792 -0.03951858503155908 0.042135175954392395
0.05056838867280383 -0.03976577602460431 0.03248596402400426
0.04146135195160593 -0.04008214251261137 0.040749597198371706
0.054282737302448744 -0.040038136142266256 0.0416124649273693
0.04703555200702898 -0.03993732175810337 0.03702445099337584
0.06574894193479061 -0.03957821501516405 0.038933783951520966
0.08178159805542834 -0.016720980395443355 -0.03069989826053315
0.07181298832703528 -0.03946196000892854 0.039217428251740086
0.08183812851220007 -0.016400255941598288 0.06482651601002502
0.07356646281133422 -0.03943405636973385 0.03739662408960658
0.07419713048663598 -0.03944420894860765 0.03759708559577877
0.03750620081779418 -0.03972864290224746 0.06420581163354103
0.053170350110182465 -0.04001023357151396 0.04185281772048288
0.05155801399817407 -0.039928535802275816 0.03869967531512736
0.04932286168666123 -0.03972928259983868 0.03170900392190172
0.0818886752194109 -0.016081607624388414 0.06428787150613072
0.081873692788671 -0.01695186067651456 0.06404412723756561
0.07792101807518087 -0.039785700724084626 -0.016097783097785198
0.08243765569965637 -0.006118671508752812 0.055860274315731914
0.06557708015779692 -0.039676203619948426 0.049271567549315776
0.03421487806774752 -0.04002163507521911 0.031766531852259534
0.07371325572792234 -0.03950971828449386 0.03877226914335071
0.0674329103087138 -0.03969189108034669 0.048804833285445895
0.0663540297121512 -0.03970163487508254 0.046677523044869294
0.04959474231377384 -0.03957990859708913 0.06567792195493105
0.05204366401719521 -0.039964715638526174 0.04231717884712972
0.06440523350392824 -0.039278299059049296 0.06800822462737134
0.06097348317660893 -0.03966548324455035 0.03839230269834501
0.06283199801496463 -0.039726463327558775 0.048663616452010394
0.030848583386472648 -0.040112602502191216 0.03509663196262355
0.03138895190691406 -0.04012224734977712 0.0325431739171749
0.07699472668666708 -0.03983808446419968 -0.018440126201276108
0.043658360113166296 -0.040036917705188156 0.05463170389497231
0.052474451621133 -0.03997333001298709 0.040221518274564085
0.01835737307154198 -0.0406857278738286 0.0024219073633251938
0.018486465418853765 -0.04068788809548351 0.0019881824239814418
0.046561649911135435 -0.03995937302863529 0.038316692854837096
0.05715706371936437 -0.039766368340167356 0.037683339696153687
0.034634224340019705 -0.040068010415989605 0.034593044902340074
0.06271187918296442 -0.03960656646603902 0.03835238889191249
0.0811864463067513 -0.036514066751379276 0.06506507632485165
0.08104471993500878 -0.036369308512485626 0.06664815886395214
0.03328807727817524 -0.04015175291382452 0.05458733089410671
0.06796851674045949 -0.03947245162699506 0.0390990116845107
0.08264300459986901 -0.004404909635291207 0.035261552291507264
0.028394164385007855 -0.04031204582021552 0.030192623218555103
0.08294921582510985 0.02252749432655309 0.016757327746311876
0.061400189921237566 -0.03980828148032953 0.052743374003576864
0.033553890750880166 -0.03974807656629062 0.06271698432115551
0.008845609266173095 -0.03943357735127218 0.06559341446464736
0.03943136221414219 -0.04009646326716275 0.04584863075883224
0.08307184215714644 0.024364514851778485 0.02193941331327629
0.08157817306566092 -0.028300845062434722 0.06342270768001515
0.060911000673725096 -0.039778165856154124 0.04220537423041301
0.03524463915808425 -0.040138120868608504 0.04895608990539148
0.04809871129419897 -0.040015545775974666 0.0456141869044399
0.03666113083015825 -0.04010190479901247 0.05015388597287509
0.08107218553380538 -0.0388010369498005 0.05057273354190196
0.08146575348019541 -0.03781660792186355 0.05320367222445622
0.03342740746594256 -0.04009874633916558 0.03662347058903881
0.04759522006884148 -0.04004249882214526 0.04301898748199416
0.039896425148141804 -0.040067444359462884 0.04515460592962954
0.047952094832999836 -0.03997443782485623 0.05317786175807572
0.04802113022341107 -0.03998301727192627 0.05239044642533433
0.04353773239796262 -0.04005879962093484 0.04039881171869371
0.06635065835664358 -0.039514323031165116 0.03947611945687153
0.041905935632694985 -0.040154293702134934 0.05305391783854203
0.05089381579063061 -0.03995926255227871 0.04434358476217361
0.04950364063032215 -0.03998696098753924 0.04482951500605014
0.08180880595400598 -0.026666162564103715 0.05724943519888641
0.0818959677188233 -0.014428251793716835 -0.03368444263084367
0.06279089612343158 -0.0398011724130445 0.044285655825440653
0.051263227326395044 -0.03999185457723842 0.05148104153906992
0.044096024616942425 -0.0397364204407584 0.030644907272359592
0.08159581067989166 -0.03358166619514561 0.04669671455896671
0.033443005208828154 -0.040234547919045134 0.04548428229703026
0.04715556726185606 -0.03994501330237528 0.03998703967797361
0.08172881106143634 -0.03124735487601492 0.04688895169329918
0.05418476487712562 -0.03985525850366786 0.039375363436607524
0.0820227613951747 -0.01660241687697526 0.06105579703952221
0.03914712069373522 -0.04012945239677623 0.0442515606785297
0.02964992765800763 -0.04027299942679894 0.03345309334820383
0.08141610636760888 -0.036720915189347836 0.031196975470999824
0.05909307409929667 -0.03980331548040004 0.047356558928324057
0.08130001327746597 -0.03669604373556034 0.06280356722950829
0.035010806581068685 -0.040148545528509647 0.04441901299139854
0.06284334169379359 -0.039512573477907334 0.030478838245254138
0.08216537729477022 -0.01788796425293047 0.05742855753655789
0.08165215812975496 -0.03405743803642193 0.023690488634643382
0.04457120040749846 -0.040078441552026056 0.0496816135287552
0.04919817476963359 -0.04000921026931585 0.04828362684521349
0.07797548483339481 -0.03943231220040893 0.05396181612159792
0.018473261116329263 -0.040608184459280355 0.03989310431050901
0.039405615537180055 -0.040003789530634444 0.05634000144347502
0.039114738159643586 -0.04008259407788388 0.053302220884991536
0.08142618940646598 -0.03861822491631778 0.045384503576031465
0.06454711281825656 -0.039611833707348866 0.03965583817064974
0.032856153301832974 -0.040077729483947146 0.029041863712229696
0.06253764208646787 -0.039713890385134065 0.04033123862021907
0.03252883787026212 -0.04020316691106855 0.04253169253078251
0.029715023166802506 -0.040301619190284466 0.04176710473147247
0.03057966420923945 -0.0402826831336328 0.042234034348310204
0.03082561517495563 -0.04024133094789879 0.03362233106812775
0.036500293240636125 -0.04008506572033086 0.0365998291687608
0.06666172686631934 -0.03980128953226484 0.05496489189602936
0.08231292931279059 -0.019049698245810837 0.03897456582257633
0.03699855299654526 -0.040127256321779325 0.04828591967782733
0.08292254327970652 0.01354120833948816 0.025671369858101756
0.07418715872620699 -0.039456579258762295 0.046379125139240834
0.04472846478276232 -0.04009866496039308 0.040775084294391056
0.08133529223968848 -0.037723247444069324 0.01028491299962031
0.06998376605741041 -0.03959661425296708 0.045598481001946134
0.08298420996541078 0.013567556640414907 0.0335361506017292
0.07759872472855547 -0.039345816704077344 0.03201894773497384
0.07392975824486493 -0.03950326247971076 0.041389593755036744
0.07339917027685956 -0.039519462834184046 0.041211951680698404
0.07934680160363765 -0.039226010465824586 0.04453968858299168
0.07785139366434554 -0.039241011354645694 0.043296871939895905
0.08192525920377133 -0.025506525981432986 0.05513058566769597
0.06738058256684941 -0.03971908426622858 0.043935974767863366
0.044627612032747385 -0.039353655304542726 0.06745256400731207
0.052643055663495746 -0.03991284007828885 0.04337603360174511
0.04995567759204159 -0.040001847678751395 0.0424135803295357
0.0678658527970944 -0.039585652251790546 0.04571701713987564
0.06821177185337104 -0.0396146767570958 0.05447829725055572
0.046036957287507174 -0.04001124052973293 0.053799399183051634
0.04465592539692893 -0.040048213497559305 0.05358170876490331
0.03490369110313446 -0.03940760918101423 0.06686380734897135
0.034983435330777156 -0.040108853383506275 0.053831892047635256
0.08133788722264071 -0.038366948096038134 0.015119541812664809
0.044200748080716334 -0.03954938756930573 0.06625434959687969
0.08256844833739965 -0.00798309682770507 0.03208272996774011
0.033616670832754714 -0.04017433163866136 0.04926612129537101
0.03640265980527269 -0.04009455736396474 0.0527375334819226
0.034534486098278264 -0.0395000421616193 0.06647102189738022
0.03262867047975441 -0.04016391317099293 0.05380894590288508
0.0599256126051825 -0.03971889714923317 0.06447229002964316
0.08195560932211338 -0.023867002547213023 0.017979101351707327
0.08293440585939643 0.0332495260121422 0.015589057162733188
0.014449971505728958 -0.04054864543116875 0.04498991804707951
0.0732158740487965 -0.03945546322990104 0.042853622668811125
0.08131167754064907 -0.03807449286545954 0.04490791167257265
0.033537099786670896 -0.03992006791573508 0.05935257288562716
0.08140874141695355 -0.03843722435657489 0.05556582063872545
0.08127713573783861 -0.03724674063734921 0.013851839514782277
0.047163069621620576 -0.04007551446182356 0.04256475845126928
0.03769549668244808 -0.039626403752893516 0.06556962736840243
0.08134558675701263 -0.03787544092954637 0.014348205344495015
0.07598746301846303 -0.03949193177797583 0.05794320641688558
0.033453812001320665 -0.040110301322627925 0.03274016241419252
0.07862925649050177 -0.0393001981389848 0.04503363785928228
0.036657260003247004 -0.04009586867232331 0.0433968994305098
0.0357192864721144 -0.03898008667418952 0.06814006346828506
0.05160735570331637 -0.03987104322417984 0.03666270413584756
0.08241709969014809 -0.011477886500691805 0.018874651791287396
0.03725274004443127 -0.03915677189521151 0.06801927543087988
0.035989519129475296 -0.039359758034095985 0.06697007799653823
0.05178091260088334 -0.03977313226457069 0.033401855236304547
0.03635131506133481 -0.04007062129648948 0.053602049719573414
0.07888877461541532 -0.039285537858280935 0.04523324959360535
0.03516905755131838 -0.040076571224077456 0.056780543678993184
0.053975157928754944 -0.03984283936671594 0.03895484434071306
0.060823623960664645 -0.03978909058334085 0.05415168722402033
0.08241698810302489 -0.00973771088460868 0.020686910466181187
0.050535764797887316 -0.03999033682004706 0.04266566793713963
0.050712505184031184 -0.039980647496635636 0.043016930872385256
0.055548518127502625 -0.03984903340852405 0.037774135678187486
0.07375649314404223 -0.039471635199594526 0.05434296418700159
0.08212140681370539 -0.02267045275956707 0.05707510062551713
0.04586467513299565 -0.03990051765310461 0.05766967700839265
0.07038885966369053 -0.03959607915175633 0.054855835866474315
0.0627581809840726 -0.03979378706123993 0.059781878627972435
0.08241353637393262 -0.011883379422727167 0.019079628679124747
0.036947658839933985 -0.03956327229566825 0.0665164070086726
0.08240501640050209 -0.010385879113822279 0.05346060938109885
0.06657021004464014 -0.03972112951747103 0.0440080475147724
0.08270691199983404 -0.0013253759863150675 0.04939936800324582
0.06224935189061068 -0.03926980271232967 0.06773296622905603
0.039436936275262395 -0.04003931439399014 0.055657841029963434
0.03411374974732056 -0.04018693404849348 0.04025980679425205
0.034351106728637996 -0.0402825558395106 0.0415940540950996
0.08307863575660421 0.035107830336668935 0.018368488181425096
0.01942172530633316 -0.040588479680213466 0.03692247281782093
0.08212751367107596 -0.02075470630343572 0.021143487796387878
0.020482155364724485 -0.04035809562783828 0.051358169059880616
0.06839445454688964 -0.039584061183096715 0.04465214554211277
0.058286353865985865 -0.039911295853888945 0.052261518177369244
0.017301354457234804 -0.03969490273421036 0.06358834718924056
0.08043538526701634 -0.038806889002179296 0.04897234203067943
0.07434915663869578 -0.03956936745144107 0.045287337479202196
0.0805628822971714 -0.0388406801721322 0.051038766772323704
0.03976667959365558 -0.04003226309851564 0.053902268665044925
0.03747502514670159 -0.039955366740340614 0.05904594183985773
0.08218393415578996 -0.018901727369317757 0.020708019038006828
0.0829871341180177 0.018132752460425915 0.025240642979742812
0.08210242046257149 -0.020362385162623432 0.0212156861580492
0.04292842689922684 -0.03986004976964239 0.03232481027856512
0.08202461722643706 -0.02159936911753902 0.020805532095621766
0.010249987242931528 -0.04025705173317404 0.05523810424415661
0.015681817812271348 -0.04093586050009629 -0.007767379566650113
0.01572285976081466 -0.0409474944524356 -0.007956806569221306
0.055916830787816195 -0.039919976854190235 0.05590725941951427
0.04407965874944211 -0.0400898155008088 0.04628297887350121
0.08218617563603296 -0.021870609698070354 0.04229704413534187
0.07174410862286777 -0.039475675560460124 0.05156152221689659
0.044913680153410414 -0.040045171752294245 0.04878977613584923
0.08195240357996374 -0.02595114950038147 0.04656727516006962
0.07506125983577266 -0.03942133471883788 0.03607233516826138
0.03598806820450027 -0.039995394813059026 0.05760609600568142
0.07726289510361024 -0.0393722495741249 0.031189422366365176
0.04201182097058515 -0.04002986780487704 0.0546713957543539
0.08301472472662771 0.03327254879231528 0.01730186420402148
0.05047578602495817 -0.03994309343160786 0.04116951785160622
0.05168143712374901 -0.03997323862135889 0.042000203238610555
0.08290415863731726 0.017423612000362073 0.017678717016389286
0.08289068544885203 0.017481832091164873 0.016684961379299944
0.039185299889546846 -0.03993236477222527 0.058118258580043027
0.038632552963654324 -0.03992957365911412 0.0578208133240388
0.05273286394383295 -0.03992240184955336 0.0470661975410843
0.07066853912349758 -0.03957590145346583 0.04955008601562236
0.08220156654459171 -0.017459455942390928 0.02014221817078015
0.07095703274263757 -0.03951801390237704 0.04817745495616003
0.08210647471308509 -0.01995836177901312 0.021392431667448957
0.08298296820927407 0.02791896111450895 0.018326269828088063
0.08112990540233012 -0.03502486249276148 -0.02908652216685026
0.0770202644698369 -0.03940333123665268 0.04787161099822674
0.05475790859562396 -0.0399160911217817 0.04736158470876623
0.059224171541800034 -0.039798721257675716 0.04302296026567888
0.05690716449140204 -0.039727824636076124 0.039492521158879274
0.08249520453294908 -0.012020613979918129 0.03316346285572966
0.07955924920135563 -0.03902065471934603 0.049371055135368797
0.017597924404536846 -0.04012697719559546 0.05771114297834796
0.07940356689951968 -0.039308786703979234 0.057738620220424905
0.04441824466674099 -0.04009043869769641 0.0520526316578437
0.07026506880575116 -0.03955186795227252 0.03703444649810278
0.035829154667694915 -0.04021927188187739 0.046559276886652255
0.08182073504759119 -0.02865820203109639 0.03939275839663475
0.04296015944788561 -0.039986809451667785 0.037548831345282266
0.06544299327299122 -0.03970190128588104 0.05518334443549562
0.060488537432279846 -0.03981600359097421 0.04729831916101625
0.08152447362387812 -0.03495188834908328 0.04957433885349316
0.07449175787159285 -0.03938821325848074 0.05046414287865457
0.047487007277769014 -0.04006038441986822 0.04177032200859773
0.04165233038477269 -0.0397285549948229 0.021648967595392712
0.052416198148896226 -0.03993193641214439 0.05022706281441877
0.07857898302727578 -0.03942983285129536 0.05081971828502101
0.05843355345494948 -0.03985697007285938 0.045925532745348885
0.08009230125884298 -0.03887449661713624 0.0510370026496651
0.07561920437540989 -0.03943344360873653 0.03926667256271511
0.018343123691428268 -0.040252562673323736 0.054508005506985785
0.01837581902091487 -0.040254386322271116 0.05456440682723393
0.04050177783255339 -0.0397574594718906 0.021528884324772582
0.06981258058758902 -0.03968946244255526 0.06533775398781244
0.011111282663979 -0.04054623213069114 0.04665442734285532
0.010936036749575662 -0.040560238100501175 0.046224085604898456
0.06910999859414202 -0.03968467631710234 0.04230246351046393
0.03859463206135446 -0.039942846460544884 0.023334556860853388
0.08289581145928522 0.01964826777220827 0.01693975526364679
0.047273651930647975 -0.04006385195301906 0.0463724668243299
0.07856820730354544 -0.039357571739885286 0.05334550583366303
0.03960163950174798 -0.039794110734065656 0.024620857168483126
0.04271591328148881 -0.03995474108027112 0.057062616090480536
0.03901689351903237 -0.03980821116148508 0.02556869277857047
0.06553135704159321 -0.03964574238457324 0.05762260176135201
0.08300397708917176 0.020528945769705254 0.01976539159929041
0.021670545133358365 -0.040107109839405845 0.05782383909680266
0.08303029849875519 0.02925125300654298 0.019930246166158874
0.048109215476661776 -0.03947592033343714 0.06658796747116287
0.013312216213823011 -0.04066152525848287 0.009281887674336934
0.0136180657261503 -0.04066725888601008 0.012193506295218344
0.013199816183542264 -0.040671441730721916 0.01083723266062078
0.01167922506259917 -0.039957992869345024 0.05968149703425191
0.08195871686305255 -0.026715838549844294 0.04413335074371735
0.08149617388705307 -0.03636603497314444 0.038758307200384784
0.011157384286378287 -0.04020459236107332 0.05510626057781431
0.06227892026311665 -0.03984325840862277 0.04563819074395528
0.07049114509540177 -0.03945557479060152 0.030808108791193254
0.07933340309457566 -0.039208298821394455 0.05023228164800345
0.040112073878285005 -0.039916410608354394 0.05948103194291562
0.08129831235902167 -0.038369740119342924 0.03054523620525045
0.08138176454908268 -0.03596985611437038 0.05814325756696528
0.0631484240451403 -0.03960077890093813 0.03395695921996555
0.04476329643729201 -0.04011741220325107 0.05009877966978701
0.07171039336735455 -0.03957359588279687 0.057063695367364664
0.0637497170706976 -0.03972140553638183 0.04586537067611571
0.07078582451343386 -0.039564169510288384 0.0379784972860767
0.04956380196681172 -0.03959489982094483 0.020573921684472526
0.07561050000908702 -0.03950933757477317 0.05248817473647664
0.0830898331938766 0.024389294419303566 0.026536185571016172
0.08251429199875926 -0.011063172849239465 0.036960334501515694
0.07818528126246407 -0.039385941249799106 0.04872195156160314
0.054309726478109645 -0.039930012137039686 0.059360595158321545
0.03724825427522044 -0.03991507534877014 0.058093176337889435
0.04526477246338652 -0.0401085896946421 0.04685191241993978
0.07567824203424751 -0.03947556733354838 0.03694701879051873
0.04308776597195957 -0.039813513777221074 0.06144874327692532
0.04417111875124223 -0.0398697084292635 0.05975219736442731
0.08299531918450366 0.02637664785177307 0.01960785426186105
0.06333285163812424 -0.03972404625314916 0.04352302270912999
0.052444813596692064 -0.039888394792468126 0.05751733174174485
0.041743261735270334 -0.039919846633621935 0.05974567234928691
0.035475832742763135 -0.04008730627723814 0.04986418965556523
0.05847411473297366 -0.03983315356890603 0.04824706208376798
0.04301002861291542 -0.04005749321113021 0.051356887676660384
0.06580270942662947 -0.03969717413173074 0.047243172880796915
0.016328352908973977 -0.03878330916617658 0.0681886636591326
0.026306293129468847 -0.0399615679845672 0.0601349895357776
0.039049316020085476 -0.039633337025984094 0.06377458973487678
0.08226561946358284 -0.01066694520023261 0.05738849664507772
0.032624488885083555 -0.03933505053116308 0.06738231276955607
0.05715609873863478 -0.03978540715968045 0.057635229926197636
0.01675023216573398 -0.03880413101529454 0.06818882383750546
0.0828833387125394 0.005766579698597974 0.038544803356936344
0.05777497877591358 -0.03974615725077978 0.03437391320637241
0.05189403529467087 -0.03992078910608149 0.048916995348456595
0.04633052959194291 -0.04002192295475193 0.05299310509760263
0.046882882310895886 -0.04001764483670388 0.05191542258081905
0.05696612044069816 -0.03990311130138792 0.05448832612476694
0.03914384583963689 -0.040178842005876146 0.04688065289177299
0.08224059126064362 -0.018388401131346998 0.044167743694869366
0.04472155739685901 -0.040076637311203166 0.05255708311151755
0.006607114739852638 -0.040826114439771875 0.01080781769413787
0.008650817243491881 -0.04073345645143583 0.010109990545049978
0.007673751201545438 -0.04078436904401892 0.010097968378791938
0.06091500523528021 -0.03980477256744562 0.05074246263354407
0.05990977875258803 -0.039815858744420896 0.04742316038044257
0.06415267153289635 -0.03973731874118817 0.047386776214502824
0.07576751376434751 -0.03939502491095736 0.05018758222421542
0.06191126044487466 -0.03975442780601633 0.05183303558743142
0.050536182429728564 -0.03990282881337544 0.039549966996058374
0.08159402673811071 -0.034150596461053895 0.04102673560808721
0.07481193269861736 -0.039378886409998495 0.0499134735737086
0.08313417546474075 0.015980426706342192 0.02957100021204072
0.042785849313397524 -0.04000094282005237 0.05614382612279675
0.04302582199569038 -0.039973993402471895 0.05905086604136379
0.08155108102381727 -0.035441171093312636 0.03554607050906342
0.04623159954961011 -0.03976939042909822 0.03057117664049222
0.06400618947312658 -0.03956211222572535 0.03342474755306693
0.06926373349164472 -0.039527270380415896 0.047849180115483926
0.06399974590357047 -0.0397207544593318 0.05375819255520967
0.04171233121477759 -0.03953426698752299 0.06616007335013607
0.04241289084322681 -0.03947403205371223 0.06750507849389106
0.063748293907476 -0.03959598525313635 0.03407555401951077
0.06991049671925179 -0.0396614047263289 0.060915878848484324
0.04321209692958531 -0.03997860944037006 0.05840118228123994
0.08300252945344178 0.023846811451482666 0.019087298890752117
0.05660959668886255 -0.03986929956613489 0.049558815970208864
0.07887510275655134 -0.03928442264718561 0.05497384953566033
0.038051495219012396 -0.04012467073852742 0.05076967739635604
0.08305875756972309 0.027131049165646064 0.02234896617628615
0.08306004114137126 0.022273343056504764 0.024820430184960763
0.046647128842580904 -0.03994214678554065 0.036628485392580894
0.081884387188387 -0.02959183249896327 0.02258466933662671
0.030934248023925984 -0.0400863672008393 0.0318004892053279
0.04251978441395174 -0.03958614495513371 0.06511728684204722
0.02789346478816513 -0.04039789479776321 0.04205265488320778
0.0436942212531657 -0.039164850814248746 0.06767942912915548
0.042788934745269076 -0.03987186558872352 0.06012129170232093
0.04416561733400684 -0.04000518192515519 0.05559019732510771
0.08181633332125962 -0.02379117812207094 0.05893220066784543
0.05567369653813406 -0.03993918532089476 0.04984418273272975
0.07120712619077268 -0.03960102835334608 0.046885948077619095
0.0634480198965095 -0.039843213487358295 0.054077807691578494
0.08298511013951852 0.01570748561602317 0.021369077642102864
0.08298101520391155 0.015050182300136525 0.027265581462558766
0.08196749414024258 -0.02638028023549263 0.04875186048777154
0.08263840755860974 -0.0022719284170339446 0.048877021082377806
0.07884351561279708 -0.03931329110088443 0.053992608701176
0.03325804817904963 -0.04009730506766627 0.03163938502915068
0.046040481695120775 -0.04010689248363236 0.0506051910788765
0.06029307106418324 -0.03993250710126855 0.05726631679113458
0.020739131835256296 -0.04003609572562408 0.05951934752608803
0.020324137712173555 -0.04006462276858054 0.059214995840776004
0.06063546357276196 -0.03986720639892855 0.046463580498652256
0.05701948490655329 -0.03975897800722472 0.06061951879156192
0.05489018070194904 -0.03975801276502705 0.06104204634392939
0.033285908165683956 -0.0390595507747365 0.06809908397382126
0.07657103457425965 -0.03944131387381205 0.04583609864517524
0.036894252873833695 -0.03990697035743879 0.03214496546573063
0.0618514154415247 -0.03978368098869989 0.05999402948729212
0.0809478990653411 -0.03878225376781694 0.05897790927234244
0.08303727233397817 0.027810349042772305 0.02183215236315274
0.05724692806697425 -0.039883540858298434 0.050974486722442806
0.08216176734820388 -0.020939356076019957 0.01916550092626481
0.08307727752610977 0.029588883457278937 0.021173766932341898
0.07476345149476452 -0.03961035428452209 0.06186159420619616
0.04794114497696372 -0.039910597861377795 0.037406691332841135
0.047768787732408224 -0.03989933933485451 0.03647740574332995
0.08300415296237348 0.033482406060941106 0.02014723307236854
0.0813304417200158 -0.0369707153742598 0.05615695408979368
0.07487647189018048 -0.039425595983459814 0.056284545159459944
0.07237194273258202 -0.03948997294699247 0.05554663908967018
0.08139940868260137 -0.038790373513579085 0.04344055423012295
0.04093843844398605 -0.04016517022073337 0.05128819663929863
0.060413893265290196 -0.0397391192374014 0.05905742893624869
0.0667911491612397 -0.03951977685757238 0.035937882571507124
0.06576780946416082 -0.03972961359646032 0.05022302047724456
0.08202264845517296 -0.021667032006798106 0.05340256640213084
0.012488802205433502 -0.040522527725826894 0.02479346229847304
0.033816648252660945 -0.04021752930337898 0.04584790583566136
0.05121248755965886 -0.0399291318819561 0.056647313773158695
0.03529867515534013 -0.03988855149857554 0.021077029734896384
0.053168664814771095 -0.03993396682987234 0.056802741689092544
0.051381157043911746 -0.03995759645989044 0.05359193919997786
0.08043305239731874 -0.03893684927349325 0.058661318254800435
0.0806153996424927 -0.03892856190607732 0.060868715754684374
0.034425417539961034 -0.039902595598590565 0.02136921989546041
0.052036640217866935 -0.03994322841438514 0.05337251202532113
0.08202717617129202 -0.009001258787159589 -0.023397696804047803
0.0820254463857167 -0.00972240090967564 -0.0235649043326242
0.07811810131946859 -0.03948377285005307 0.051165257325644184
0.07751598265503784 -0.039498534670559436 0.055240932717170954
0.01345796650278593 -0.040030848568199974 0.058847225012560636
0.08310735602994507 0.022676248998143998 0.025868308177799608
0.07066596678247487 -0.03953523640206381 0.040334467028327874
0.0653760001361566 -0.03968349528672182 0.05625548940698065
0.012050519070196046 -0.04075951011740515 0.006546135294716426
0.01182660618892601 -0.04076667990360011 0.006894839452759826
0.06652856783958389 -0.039446675162129366 0.03233058010450833
0.08301434185861914 0.027720839264943793 0.02101948908598124
0.08301238075904482 0.014212587850334659 0.034081907202470764
0.053413604226017014 -0.039995933129186256 0.05188948967241412
0.08057518468963919 -0.03892312940218592 0.060282647774382365
0.08302998080409857 0.015768553634386676 0.033716581806818746
0.01759826611511295 -0.04045360318033927 0.028674972861463685
0.08306054075153507 0.03508638070551826 0.016253004654264033
0.046438366681593984 -0.03986069170654026 0.06052015985536148
0.0365093910035908 -0.03990421007134015 0.05855541239982711
0.0716300893048891 -0.03954002079312657 0.04090105614057492
0.04620906551369408 -0.039871152798320826 0.059334182085722054
0.02652488031729258 -0.03951712894127727 0.06588612998300498
0.08136548952437507 -0.03653108004071377 0.01912086414625621
0.035400865893634725 -0.04023031284501135 0.04111834436719649
0.07208862067089845 -0.039536624608436474 0.044911383892347036
0.0814229464207852 -0.038373261235040784 0.03511487219842707
0.03845875736463174 -0.04017374528352048 0.049075770540201506
0.034322799886502955 -0.04001969319361695 0.05776954507247514
0.03372264934671024 -0.04008304765168498 0.055920982977387484
0.08306332866990888 0.020846674838751987 0.028286613315883714
0.08302438272900395 0.022515760211778018 0.021406861567093108
0.04544792052219022 -0.03955983381706349 0.06615633752753215
0.053802047334757144 -0.03996982233919468 0.0526587977961802
0.08294708376965405 0.014517089527119074 0.026045349098753896
0.030308154359315387 -0.04017770986730031 0.03218051925703378
0.05616793148492974 -0.03983683915229208 0.058065870503357944
0.059432835201081724 -0.03980325041974147 0.0575133042877023
0.08304385147343253 0.016319107967981354 0.02842385683069634
0.07049219477229356 -0.03959216144544673 0.05202561957378039
0.08172925088489164 -0.026028808677924904 0.05888962668910473
0.058267612310765333 -0.039790469012498796 0.060243177293085294
0.06560163659742267 -0.03969894724341168 0.06214279403190248
0.07789891944959793 -0.03963907264992239 0.05989045180399173
0.08304088006588109 0.01564022812822214 0.03241657299465446
0.059180099984646746 -0.039685154767243845 0.03513118018220919
0.08214859097445543 -0.01711722334589313 0.012839705035237096
0.08295480793141667 0.024316013110052798 0.016934094862848192
0.08293966251996 0.007245224076699754 0.03939707902039658
0.08223664646629972 -0.015760845870499002 0.012625840950580136
0.05796688569565908 -0.03982323034534385 0.058941081024195825
0.04431072127745844 -0.039976812304048356 0.05833645735279547
0.044903529482733476 -0.03994021078576271 0.058358399789929835
0.06139527287973682 -0.039686959394775886 0.03385886846599338
0.013823579112201216 -0.040576070269727205 0.029425987280350778
0.0747831754755209 -0.03940632632630028 0.05406951454271838
0.07408368920071451 -0.0393869684757539 0.046980378412810955
0.08313317207546767 0.018968888840198785 0.029840191258424124
0.04373128437325983 -0.039809189819583604 0.060584035893598315
0.060811036985801425 -0.03983019332807048 0.04969536572655835
0.04671434052355913 -0.039496058642558396 0.06676513560545941
0.04868765565511079 -0.04001183765204093 0.057191543763846116
0.05830656343169936 -0.03986949086941744 0.05329666738555255
0.06564710863681487 -0.0397296597572364 0.051510230902896394
0.07829589123895753 -0.03958438143889827 0.058582300281065064
0.055950935567741306 -0.03978577243309791 0.06036140652294106
0.06489610607795371 -0.039682707025369274 0.051577653453111744
0.0487430105218103 -0.039051162341676035 0.06800885753612232
0.06496599301528963 -0.03970090871702011 0.045290795016987545
0.032510907013695876 -0.04004640082549393 0.05638153611057366
0.08306294174233589 0.019876313085815528 0.02595341407998847
0.08303070055579104 0.030971904816741284 0.01838910241148387
0.06168233568727529 -0.03965122617722144 0.03847134064772306
0.08299448019438449 0.02412909060105738 0.01836586327039927
0.08251918174237594 3.299792809384109e-05 0.0005793473129162206
0.08252302246455853 -0.004882360601307025 0.01812168496829321
0.01301363610870647 -0.04089031402904034 -0.00962617100930057
0.012721413254502326 -0.04091203674289798 -0.009104944269265487
0.08303146417078251 0.020030265118023388 0.02881692102759017
0.0494601326011724 -0.03996878774885854 0.05802113220464623
0.07644546535230773 -0.0397076040690017 0.06268416347545255
0.08220839879796359 -0.023556724183963956 0.04250829475759444
0.07430586471819134 -0.03940247102691586 0.04949138345922345
0.05117478438380137 -0.039611912761663384 0.06577993740869058
0.0437379366417379 -0.03960565312331245 0.06464686171645127
0.020318794183237066 -0.040428855406372845 0.026890856477568472
0.019571013566616217 -0.040432831249719615 0.02653021458244801
0.019677467795550248 -0.04042100100686624 0.02597601720553183
0.0829840848708411 0.03312857770526325 0.01887823756033806
0.0576005457214306 -0.039889284373503156 0.05354119715320898
0.010388167454883546 -0.04066605436255079 0.015498724231422182
0.08201408425739988 -0.01862952490260244 0.060333581404269684
0.05492170577768595 -0.03974129270471394 0.06295192614517632
0.057251088671137686 -0.039685472648979855 0.031145210371914363
0.0830934440669139 0.024514900353334954 0.026111743377396277
0.046444554684722104 -0.03989153858670774 0.057383073309870435
0.06574625606400034 -0.03970801903449592 0.05075309481114426
0.055025419988077084 -0.03992575961453436 0.05314814205007266
0.08167087837551974 -0.029966550962247717 0.05009188411712939
0.06067244348452153 -0.03966524682280965 0.06235460811548581
0.0649433196349492 -0.03959834837082206 0.037691049625062374
0.08264283351385424 -0.0005246237907770351 0.025476313205679096
0.05014896852292998 -0.03986572834144135 0.058535822347061686
0.08293334421276721 0.011703106748091715 0.026950292678395823
0.050884328104719295 -0.03904614583535735 0.06846030466904798
0.05838474379935661 -0.03985467113379092 0.054465912396879174
0.07796281100040747 -0.03986711142208087 0.06174311987117554
0.07462763469138049 -0.039422688912951795 0.05573469235533485
0.06287499151356768 -0.039850338062979135 0.05387986141416386
0.08252203512041426 -0.005401284114889585 0.0511594021290688
0.05827568283933141 -0.039730123581369736 0.060992959494962765
0.011359050460464261 -0.04004357266732235 0.058228274807181374
0.016842120301808906 -0.0404183069950515 0.051474687397055754
0.07158221557712596 -0.03954501461895418 0.054622379847421146
0.0788106628769135 -0.03922159344814687 0.049302478053829604
0.07581124347680615 -0.039531514854209554 0.054626737660267176
0.05318474162780558 -0.03995230404153302 0.045931850930420945
0.0535463502124544 -0.03986963416943267 0.05809677039875464
0.059616877143668215 -0.03978107959770124 0.06535051403071454
0.023862929482921402 -0.04023373690884986 0.053466177471294514
0.07454445778817356 -0.03946989065548299 0.05870702912723681
0.08255878513453566 -0.0087759081214216 0.04055749775238067
0.061392177367646086 -0.03977303392049201 0.05977744859030702
0.08306477955690758 0.030032331367581332 0.016612912125550557
0.08299254103243772 0.027572289799438682 0.017635883099931794
0.05178779636664314 -0.03977598516492047 0.06176117271779391
0.0709809203708197 -0.03953433874450709 0.03476398168951688
0.05155877854592385 -0.03911566868071042 0.06828641572097581
0.052870251422195876 -0.03987971805997173 0.06013403742699224
0.053653732526173586 -0.03983182415140267 0.0629135344802547
0.08310866430956448 0.017056532230252882 0.03023359155153841
0.05856584920203922 -0.03979206898772872 0.056838800019476124
0.0481306416052678 -0.039795134467098904 0.060998565120665746
0.05525544323992174 -0.0397376605305947 0.06455164168493221
0.08302466439240926 0.03228985494573206 0.017056360669685744
0.05214170208398962 -0.03973639610592755 0.06310580296133458
0.08186765975546746 -0.027194989123164176 0.0555216301921895
0.04410729900261637 -0.040067146981323846 0.04809345676250308
0.07152724157818956 -0.03954964670823304 0.06259290509318227
0.05722899952157543 -0.03955797858230304 0.06611251503126918
0.050768554175456504 -0.03985378978030146 0.05874293624148841
0.03351911732639971 -0.0399192344497435 0.05989189647663054
0.06553157053515146 -0.039675093564553184 0.05987897810116672
0.0637487116276766 -0.03971731991240997 0.05766219145900359
0.06211791959408188 -0.039785559943727865 0.0552097445419755
0.08306062923010751 0.015862672835824137 0.030796935527422444
0.08295043001351961 0.01592319733749504 0.024283933373632622
0.0813037159697891 -0.03868630040683958 0.036410576690738564
0.08299317660570954 0.018734178116041188 0.021391594988733414
0.08279676055601813 0.0023213092862877692 0.03307098358271513
0.017365922493794757 -0.0401264774307483 0.057814954619994766
0.0554989420162394 -0.03987226045550116 0.05826661387876135
0.06870572906286454 -0.03955227949487922 0.057985196610860254
0.06122895097632991 -0.03975992125951558 0.05692632136235079
0.08299662807014589 0.014025074650952572 0.03314989872993052
0.015680438313619746 -0.040600702731729034 0.012543788578109855
0.06409299670327177 -0.03969299504297589 0.03847766536262662
0.0655691993159262 -0.039686085532680083 0.0478061949741721
0.08295656068879721 0.032935803308630204 0.01520345180716581
0.0720575320122211 -0.03955701784214521 0.06306177630949683
0.04098762575162364 -0.039743365155152297 0.06283621057748881
0.08296283788317985 0.01811893828311001 0.023580934134064258
0.06016618986187881 -0.03973874956443462 0.06568378112866066
0.08009681521659427 -0.03906867427692454 0.056104391858408924
0.04645455493033292 -0.039634841503104146 0.06465706656214192
0.08138302726802218 -0.03847929662656184 0.05603481034563315
0.05176433164520032 -0.03964029487317022 0.06481445093642817
0.017086134622202185 -0.04051898964218718 0.03066450429566256
0.06894910275132773 -0.03962862702546108 0.06235806400666914
0.0829980983262847 0.01845003307999895 0.025732123122799024
0.055220987391669835 -0.03986925225711907 0.05948146579155192
0.06993979413267733 -0.03941148033925532 0.03204053285622909
0.07545284022382678 -0.03978970352996484 0.0649087908253813
0.08285102166545015 0.003782665798179638 0.03784585962719143
0.06270795664974077 -0.03972489415416006 0.05748630375181485
0.03384735754845326 -0.039553616843371095 0.06589110765194742
0.08200657768866465 -0.02758601292646132 0.03986238946537188
0.0703085862847375 -0.039585538306141047 0.06340056307609121
0.07070433019082017 -0.039502982195029415 0.04293088141514142
0.04593664004403302 -0.03972401775239554 0.06356646034253262
0.05420404710997172 -0.03979121293847197 0.061826967624900496
0.08295409458183933 0.02284513443412896 0.017314994838003774
0.08296690489426134 0.017454940456694726 0.02367043840986889
0.07114566464968482 -0.03953872192638025 0.037259624310042185
0.08225540261151018 -0.016244986831719075 0.02223684666955034
