0.006304823236705264 -0.05561243400396405 0.001040876006633148
0.006417108803676491 -0.05570340479980054 0.0013221260134094756
0.006614209639786135 -0.014067895361966306 0.005349065502589818
0.008783358803621681 -0.02442494768045738 -0.002398326219295736
0.00879317982824279 -0.024195186546816815 -0.0024473765992985837
0.006517749167092731 -0.013649853521817927 0.005337333590497063
0.00689155773330006 -0.056263228794455944 0.0020508831088996804
0.008854246135781748 -0.024032268533482948 -0.002452493287604608
0.008923964330473298 -0.024220084746580665 -0.0021722967574281395
0.00662704188527773 -0.05584917601303936 0.0017956760279300551
0.00663256597525206 -0.05598719339405034 0.0016379259252445291
0.007062827702512762 -0.01328285308713938 0.004964557868016103
0.0071379485572353445 -0.013008940482570553 0.004882136782829417
0.008862412552147711 -0.023822000359401848 -0.002499211975343517
0.006767293529897678 -0.01304599247255932 0.005202770468161982
0.008983041018270644 -0.023611540721241442 -0.002298817563883456
0.006843855476702752 -0.05592552678808382 0.0023401531599080787
0.006606939870930971 -0.05549792675960167 0.0020824138779423776
0.007212374716480348 -0.012766465072214742 0.0047928559170533225
0.007298885750456614 -0.012692757929713624 0.004694580893502117
0.006911210088119582 -0.012486163148385014 0.005068049989168711
0.009082995073658137 -0.023898449481967794 -0.0020352405111518095
0.006948688992366609 -0.01226867738190058 0.005003257468974811
0.007002137768867236 -0.012503577050482821 0.004989162866962985
0.007950331884680077 -0.015225975769825584 0.004050442313849208
0.009117027901297389 -0.02340423651737269 -0.0017859255035554541
0.008069203050473917 -0.014931943236933955 0.003773161543958438
0.00872638063994782 -0.022525872925058782 -0.0031676379449010823
0.00790457931421623 -0.015197586195555253 0.004131518350984214
0.00783263698566244 -0.014660943799761137 0.004143888599770396
0.007715674554027916 -0.057394127183767865 0.0013868739508554884
0.008688394931476499 -0.023303988449717518 -0.002966073259082271
0.007395085609856551 -0.05712664068708922 0.0009037270090127466
0.007520471677777627 -0.057217272958544466 0.0010171514231407247
0.007995503502473637 -0.01432721522545719 0.003714534964244817
0.007176353014291741 -0.056880375956663995 0.0013566338724111011
0.00879565820535135 -0.0231854299516603 -0.002551090195351916
0.008759366299698573 -0.02300218929825873 -0.0027216168094337813
0.00881796357660027 -0.022888560412270928 -0.0025813740867405436
0.008698554477075293 -0.022835757644907584 -0.0031660532193815657
0.007626376362643029 -0.0148207731377652 0.004503047297626144
0.007716005214130612 -0.014751601319771499 0.004363295235138829
0.007656394287660701 -0.0573801898903418 0.0016988592636839883
0.007484995259583192 -0.014877466929655917 0.004677905142811254
0.008825399302067017 -0.02225081896425599 -0.0027773771274964914
0.007631458215923505 -0.057526069430057815 0.002200047981244094
0.007077629573735069 -0.05676119349525048 0.0014225220005063455
0.008877952646862228 -0.022795306980012937 -0.002374740192647036
0.007110736917700944 -0.05673584706496884 0.001811115003309253
0.008961235908199972 -0.023386961945114575 -0.0022500791526663343
0.00794399164449122 -0.01389481339036604 0.0036933961264551344
0.007960589375033134 -0.013666239525243987 0.0036510458661516256
0.008262294462566815 -0.05782933719314488 0.0014260034736015778
0.008302924289106737 -0.057863695018306925 0.0015165416068058464
0.008030191291483114 -0.057707702336071656 0.0016132605260089855
0.008080846538582266 -0.013326619445913467 0.0033989998095807477
0.008913402452605476 -0.022487313001472102 -0.00238292047109239
0.008721265992217866 -0.05795644050098156 0.0017870196126854988
0.007930634151875596 -0.01347094515716024 0.003716270426063708
0.008047669223533642 -0.013065137961853265 0.003556539746826323
0.008942894417819727 -0.022478998837577237 -0.002204389110603526
0.007904787120987083 -0.013147486231849257 0.003821181651661584
0.007923300172627039 -0.013022280141773274 0.0038138179687956697
0.008957115518692481 -0.057915519609069675 0.0019533156854085075
0.007746245742341148 -0.01288034312888172 0.004107219427067694
0.007206827367715876 -0.014723133063972573 0.004958448547805153
0.007228830002588689 -0.014427122652765335 0.004911005625316452
0.007029691430458236 -0.014355496653670419 0.005104107447200924
0.009067334280466969 -0.02332412768915374 -0.0013811404879667337
0.006785711417998732 -0.014447001930089833 0.005351526480105154
0.006841369282393563 -0.014035174732624464 0.005195947675940254
0.007200278504465402 -0.0569722303246135 0.0024799393318578914
0.007447562533591876 -0.057427098626946685 0.0024382691151832825
0.007204274382677157 -0.05708826029323095 0.002591399837478921
0.009047601546030385 -0.022817462741107186 -0.001768128986564485
0.009052848603950805 -0.023112910470271412 -0.0014569366776443836
0.007168291661063991 -0.056793553664465604 0.0020006405997734724
0.006998607155712248 -0.05641611923888002 0.002348266614031487
0.007093142057721197 -0.056652830814799465 0.002268797821060733
0.006938121433982713 -0.0562736258633746 0.002272006143296974
0.008306972829236217 -0.01099857701436665 0.0028832276008535695
0.00899864575594663 -0.022402042532316126 -0.0019276308117304997
0.00708657356625343 -0.05683354215302731 0.0026509932243286905
0.008192933688413135 -0.01130616007044355 0.003243015273637871
0.006968597830932004 -0.05704800300218666 0.0030570318272871355
0.006938141960718122 -0.05676680406193623 0.0029818818496535216
0.007163423461839007 -0.057103763463297416 0.0027025473634726366
0.0070270416337866225 -0.05712336562030704 0.00298458179293849
0.009042230920484692 -0.02260480711578805 -0.0013175709177937396
0.006993825667699371 -0.05640818579403249 0.0024820372036018453
0.008038848335897972 -0.010830944139167418 0.0033981348826608105
0.00693757475365829 -0.05614595544626554 0.0025008200479620987
0.0069529822531996365 -0.05629744788791681 0.0027434394888715555
0.009027007692636629 -0.02215750384679342 -0.0014015476528925932
0.006908151455523303 -0.056004342943404305 0.0027626070734130207
0.009073759417218389 -0.02242070831912789 -0.0010965125602971659
0.007040231423847491 -0.011270741015818226 0.004699076779427337
0.007125287608455516 -0.01106844478207143 0.004607204621503713
0.008927113146693127 -0.027115535455107066 -0.002731910701899881
0.007451217379724498 -0.0102356075002186 0.004378630519092467
0.008170299319225496 -0.012740346105915666 0.003284323048221847
0.009026115051702545 -0.02701484955806667 -0.0024692428790577523
0.009071191033165726 -0.02681029526189556 -0.0023952333241467317
0.008931390848321372 -0.02654754296525192 -0.0028342355756035107
0.00893217849150328 -0.026335146838102758 -0.002680451892297023
0.00828441278597772 -0.012176355326738704 0.003171673475850496
0.009146466361334229 -0.026840638663360422 -0.0021760577287880177
0.00829680330508131 -0.012110692510362522 0.0032008870008230555
0.00917825010600371 -0.026849576636189133 -0.0020653652579691976
0.009200574074418507 -0.026920068133506964 -0.001972960572393078
0.009192828563537321 -0.026779478209273767 -0.0020184517629811527
0.007816871729083673 -0.012614767391226835 0.004028778089393508
0.007915850145055648 -0.012448805975574575 0.003888970810179834
0.008931579169159693 -0.026016757551999725 -0.0023960085028433206
0.008183098977981026 -0.012040969183973552 0.003453044410866593
0.009088496859269801 -0.026454230273450917 -0.002131444834249029
0.00895390207687187 -0.026127634932632902 -0.0021158568762210755
0.007900883845764652 -0.011834267376783345 0.003816327312494608
0.003991047965563249 -0.05676243746939607 0.003579611154261159
0.008492566926296184 -0.011958136205989199 0.0029280570989561176
0.008491256930422967 -0.011545463481100589 0.002842485523338393
0.004553078702860531 -0.056382018614820714 0.003069022498120195
0.004724030280866766 -0.056465959387160744 0.0031485296500226175
0.005167233851981326 -0.05644681084361857 0.003432112224114931
0.008945912789890561 -0.025553914913560946 -0.0022749914023948168
0.008074990515469055 -0.011710358223978333 0.0035664447319804626
0.005665284340336146 -0.057409342657075896 0.004102810610255586
0.005862651922522292 -0.057247503865911695 0.003984683144674685
0.00924194478149577 -0.02651605495881266 -0.0017394773680207236
0.009290783147407045 -0.026836995655651032 -0.0011667112694212422
0.009259300876858235 -0.026464836616145952 -0.001433256839263549
0.009130047963409053 -0.026276145947502237 -0.0017748464545798263
0.005527765312904271 -0.056705684389221384 0.003711840946967887
0.008992629112123243 -0.026068979218867718 -0.001853581583953289
0.005763311993221572 -0.056873631154378525 0.003871452408583477
0.005862680785528858 -0.05697883122495571 0.00391946555759635
0.008980528593501047 -0.02575795616176434 -0.0015475136503099146
0.007973436924825406 -0.011396226298285666 -0.004735248877369426
0.005874314376886042 -0.05672499727020337 0.003917232276649987
0.008246694413978059 -0.011727338360383756 -0.004394448833098452
0.008212155838286021 -0.01146532222582779 -0.00439426590054761
0.009240899027943356 -0.026609596722536245 -0.0007589916298655487
0.009202272017579689 -0.02635305976219217 -0.0007439366719094155
0.007467055784436287 -0.010229129848555696 -0.005424415929483058
0.009131388091764264 -0.026212392789591303 -0.0011923107954509443
0.009158989967582458 -0.0261781999911119 -0.0008428872737420315
0.007934755697644163 -0.011065301517363206 -0.004772143258320638
0.007680226401351405 -0.010835536753342355 -0.005128234710932676
0.00789660988174639 -0.010773725268755703 -0.00481718243759095
0.0052694861920936946 -0.057596955624803686 0.00481318531429183
0.008034192116769976 -0.011185163407840034 -0.004648087706959906
0.008941330445913699 -0.02555837553258256 -0.002004881163263906
0.005066933018493589 -0.05780561548036491 0.005438273362902621
0.008079517609423199 -0.010769635695474171 -0.004513366243309833
0.008945654747834268 -0.025465857827861767 -0.0018986072124047
0.008954551868096473 -0.025387443945238265 -0.00172615467492689
0.007794521514533531 -0.010499739718929594 -0.004956768868415926
0.007687601904466869 -0.010356640622374617 -0.00510342351658331
0.005109122989422896 -0.05757128049933827 0.005051359577851557
0.005281983179326246 -0.0576721005971617 0.004988440439554324
0.005163053712238452 -0.057554570438975924 0.004911264416561992
0.007895548660701157 -0.010202147115790726 -0.004776485967699926
0.008995106710235328 -0.025260118765843893 -0.0015107102311600427
0.005114384618505914 -0.0577100214007608 0.00525678078014298
0.009097497393368209 -0.025616157029722766 -0.0012122932116760935
0.003911240062116026 -0.05664643953726639 0.003649852955082581
0.009002866865723423 -0.025112837283348375 -0.001283226596506361
0.004133194761940684 -0.05686336467697506 0.003707055727313466
0.008989903349991682 -0.02480191010629123 -0.0016025992089551374
0.00394348905347645 -0.05661643718345075 0.0038815356779985546
0.004170774045680032 -0.05673236700533553 0.0041672418335741285
0.008021987300110254 -0.010227135672540077 -0.004540556096870835
0.009032533099522498 -0.024561563030224685 -0.0014262133438740182
0.008168827840403183 -0.010574709352453167 -0.004263441027186255
0.008054063192248754 -0.010308471753653483 -0.004484934281986761
0.009265584327011956 -0.0263753467329204 -0.0004971649358548514
0.008223472486763365 -0.010137324651965192 -0.00405622130164112
0.004118456159399833 -0.05664384836833476 0.0042799675875620355
0.009221620194059626 -0.026042839069845423 -0.0006049323064546612
0.00922405010628275 -0.025771033748683825 -0.0006099130332124223
0.0039813068360270345 -0.0563747602303029 0.004462608308121007
0.004354121222160554 -0.0568023184035888 0.004507178331735976
0.009313799081013941 -0.025564810515789838 -0.00027640430538085933
0.0044922092827527306 -0.05689465493679832 0.004744733664588739
0.004315437764394699 -0.056670055826464644 0.004746602190795205
0.00383344674641712 -0.05627120003934759 0.004222136990973183
0.009320158169492596 -0.026468818977190653 -0.0003128377927653604
0.003937457137266252 -0.05630558296362395 0.004430502248985874
0.007093718195518724 -0.008476953424126585 -0.005945425702766638
0.0038542970257081535 -0.055916496975415765 0.0044331087078930105
0.006639553212524025 -0.008001817422642811 -0.0064051982144234685
0.009422878596381547 -0.02642704893718018 9.377062878075819e-05
0.006682087849418553 -0.007631673901610134 -0.00641218288648728
0.005532668904085587 -0.05753007617497451 0.004280890452458819
0.009453414122089774 -0.02651602931744071 0.0006309687939024824
0.009450373629484535 -0.026211970122099852 0.0005066978080205375
0.009386256358969199 -0.025883900614688756 -5.1394670795005706e-05
0.004702352909270296 -0.05714225335454672 0.004607354903311148
0.0046730639795255465 -0.05709579574428708 0.0049312637703749045
0.007072725361985693 -0.007688411681849088 -0.005921311030427852
0.009389463320979593 -0.02549713424752581 9.472983513160427e-05
0.009094022042159783 -0.02505807756983848 -0.0007835485791640167
0.007491391244130855 -0.010040307147427175 -0.005409390399712144
0.006051310777810077 -0.05775907648470958 0.0044092183574544015
0.007519792242607128 -0.00972178189500163 -0.005391835977013709
0.00639469882960453 -0.05787415439800738 0.0044566707797280905
0.006734762766726799 -0.057950026387208683 0.00448834070065221
0.008961839797542469 -0.02475062571960246 -0.001098954910761824
0.008984764452420066 -0.024618993981871617 -0.0012667860624035528
0.007447650474895772 -0.009235344506436113 -0.005572583815589157
0.006958723333249726 -0.05797873960519305 0.004712992301297096
0.007303624833365616 -0.008934402166931529 -0.005757183719113806
0.00751128446091582 -0.00948865862114475 -0.0054367238536056186
0.007592638974992998 -0.009470630687650779 -0.005271833872956935
0.0069316825511377645 -0.05772792273350152 0.003752600441162569
0.006769511023862792 -0.05781710061307341 0.0040531467860608
0.009233600965719692 -0.02509302110271976 -0.0003401452910406245
0.0066855933650578625 -0.057560241605108135 0.0037376446404467083
0.009358656432212157 -0.02509516604686286 0.00015414652176885856
0.009290594338403005 -0.024923437229638593 -8.36169886267703e-05
0.006768885254601233 -0.05701018999810627 0.0033455486876849687
0.00915635031825883 -0.024499253930383262 -0.0005930545158268842
0.006577003412952939 -0.05725356541787674 0.0036237663178210083
0.009245143917017066 -0.0247932472155908 -0.00024753028179212835
0.009263808250519496 -0.024606708816388444 -0.00026386336375152633
0.007772051255291449 -0.009829106958482903 -0.004939678468173895
0.006940512174624654 -0.05743267202040697 0.0033582025040027356
0.007841936348880833 -0.009853597806034705 -0.0048367419051078215
0.008008888867272855 -0.010024890397128328 -0.004545104960135114
0.009041412608822883 -0.02444801648317517 -0.001730325433892322
0.0064069205834528156 -0.05739063061577491 0.003830069634703733
0.009117425410354905 -0.02427915961953008 -0.0015148033614688508
0.006025469141023687 -0.0574942315026277 0.004093176337568012
0.006243709032991698 -0.057726638787935144 0.00423832384639797
0.006699254835191688 -0.05780213799093245 0.004070992480150182
0.006757137583785404 -0.05790702124189182 0.004285842428865754
0.008202894132358174 -0.009982126397835188 -0.0040980729195430575
0.007970998676842422 -0.009178701232541256 -0.00458195433325986
0.008093132770505653 -0.009409751757823595 -0.004321314207729152
0.007910765281832505 -0.009081607661384647 -0.004712610396636013
0.0062966549267450015 -0.056819270284968575 0.0038448727888795043
0.006220615622541485 -0.05676190364730023 0.0038906371022308273
0.009164672244707288 -0.024264184359160418 -0.0007951960365291166
0.007277658207450516 -0.05790706555581246 0.0038366113788917407
0.007679226565627347 -0.05795571690405064 0.003934900400807634
0.007308921248885406 -0.0579461071636552 0.0040957906013165905
0.009194761973725976 -0.023829744352329624 -0.0014228180895598476
0.007220973653356553 -0.008426305828136416 -0.005793164628757385
0.007533773937381066 -0.008510576269052822 -0.005421552465542423
0.007759799636340438 -0.05796076363240027 0.003896324295775718
0.008074181349873342 -0.05795775465440427 0.003834756799280063
0.009305904843902079 -0.024036568646895646 -0.0006744576229163736
0.00790539078738386 -0.05792743358750296 0.004343821157268217
0.009327618318068049 -0.023886877759550236 -0.0007004284235556679
0.009366589195797354 -0.023996966957220863 -0.0004905046566288985
0.007690165655480868 -0.008818920953315023 -0.005174749443549312
0.00774751167712581 -0.008699070349209557 -0.00509355930296213
0.007307743182634102 -0.0579510880883159 0.004251503211199107
0.007661140074513193 -0.008476696284870345 -0.005239494547673844
0.0071561282730126935 -0.05796947427889487 0.004574398667161442
0.007208657078839128 -0.05796470107996163 0.004816574923489899
0.009100302759096488 -0.02311517605726833 -0.0009200615652563357
0.00783660805642122 -0.008308034308853542 -0.0049458882347546244
0.007654516370878778 -0.057933539407303156 0.004371607924538506
0.009347453365521674 -0.0231714863100424 -0.00047760862623351185
0.007454718209280134 -0.008093462721094867 -0.005468408203308791
0.009431591586345673 -0.02350510420233838 -0.00038126818401536884
0.007379745129620304 -0.007888359083895364 -0.005528242969566626
0.007632071517059199 -0.007710629676597294 -0.00510672304136866
0.009149785995520745 -0.022971233293929253 -0.0007999638810916559
0.007805456234383936 -0.007993669306589114 -0.00492158418447758
0.007865920034680967 -0.008096191245224467 -0.004832144905961702
0.006088116721111663 -0.05788269522497259 0.004719193570684791
0.006099420749019276 -0.057936208970269826 0.004922316309526875
0.007943282095998021 -0.008722660413144758 -0.004688349388485545
0.0063166289847982615 -0.05795151134246171 0.00485970475023822
0.006583542562134389 -0.057966485919669825 0.004724110578409613
-0.008449914319536393 -0.03503114777312491 -0.0006027356405860389
0.008107270672438905 -0.009450495496468952 -0.004288788938301508
0.008168013041596282 -0.009742273709776324 -0.004153381144700535
0.00824623906420737 -0.009624749995199739 -0.003916963196599519
0.005311360584707783 -0.057947840184517416 0.005550559164178897
0.005831155039567653 -0.05799987187799924 0.005614422873190775
0.008329746354170827 -0.009727855291396907 -0.0036746308587661974
0.005946890006479758 -0.058001155088905514 0.005646122919847663
0.008140386270721833 -0.009408606206875923 -0.004196638773036577
-0.008506791536185096 -0.03447445610000816 -0.0007469304755160569
0.005784212578140913 -0.05794035969675633 0.005193965790470307
0.008051442820422246 -0.009033534079405136 -0.004408039721787937
0.008144635871983845 -0.008800309114232439 -0.004149771006783431
0.006264565871653936 -0.05800186781823634 0.005471289799058114
-0.008370517770927855 -0.03524038057966933 4.630293466840996e-05
0.008278866688805212 -0.009236421753488204 -0.003779531595716
0.0064072609599999854 -0.057986769136651184 0.005797308009106487
-0.008434193815636771 -0.03486302882048471 0.00022829325761571754
-0.008460929052641342 -0.0345981986275071 -0.00032325103393111463
-0.00848447466851113 -0.034393635637956804 -0.0005207275638509942
-0.00846699271373616 -0.03439461529366893 -0.00035212513469679886
-0.008457448228247955 -0.03443719399692118 -0.00015119120145663364
0.008295771529074087 -0.009160751055643502 -0.0037263780558374196
0.006929413477351269 -0.05798269822861114 0.005313919712633353
0.008339336641453025 -0.008913715222411977 -0.003589379244462392
0.008409575250548796 -0.009052621027867917 -0.003367464067870794
-0.008487579735966805 -0.034117186730039266 -0.0009984227638400206
0.008448786840277188 -0.008799179945976234 -0.0032397265198572315
-0.008468552663204978 -0.03412149670466675 -0.0006500150771977975
0.00660586898166019 -0.05795671244159628 0.0058807770230040815
-0.00844111009684306 -0.033841905182719415 -0.0008191596395170486
0.007934100303649147 -0.008044449626479407 -0.004645215835327464
0.00735682105133381 -0.05785418862047072 0.005750819614786589
0.00787641904658473 -0.007763275198643143 -0.004675279891453143
-0.00841286958647718 -0.03369189725957316 -0.0005632973443783574
0.00792327541047183 -0.007710125541942234 -0.004549298530082671
-0.008422755752072627 -0.033986633512023565 -0.00010353798388255188
-0.008396606844157453 -0.033772688199994946 -0.00021068372562209014
-0.008413687094957028 -0.03355363076988033 -0.0006404483852674045
-0.00840397312273985 -0.03357045243710415 -0.0004806603685411264
-0.008435244385895631 -0.03320443889686662 -0.0003429042121621087
0.007354213492961914 -0.05794918386599307 0.004959117657817843
0.008064981281875876 -0.0083645770714978 -0.004340448545485653
-0.008413977862535709 -0.03498804134345347 0.0005659561725672293
0.008018182494657656 -0.008152215503554671 -0.0044341453464540785
0.007577436933887027 -0.057889703379810406 0.005364564899317805
-0.008379632028080588 -0.03489140208392498 0.0008369398706601083
-0.008391623756444354 -0.034743450176192556 0.0007433856116720486
0.008220569898768425 -0.008353064140676665 -0.003888682684646068
0.007464782571830958 -0.05786884945309807 0.0056322886865650575
0.008252760095660746 -0.00871904913342356 -0.0038351419729350487
0.00758079467709508 -0.05771521442756052 0.005867741684035333
0.008416749290094927 -0.008366869833760787 -0.003368783983143803
-0.008414045896442221 -0.034558064245649306 0.000544566065614288
-0.008386082879988762 -0.034199701969424796 0.0006015435306206524
-0.008344843154319735 -0.03484339302712006 0.0010192825208307852
0.00811105226912924 -0.007646750292961229 -0.0040792424768368515
-0.008319991986405692 -0.03468611125818978 0.001122298866829549
0.00827525518902657 -0.007802010438594946 -0.0036784276449604485
0.008158439417793623 -0.007680757029822337 -0.003961045919344845
0.00819202789257785 -0.007734800013534005 -0.0038821169850194
0.008321725897672359 -0.008029476437830307 -0.0035732680275606284
-0.008335355660377833 -0.03439131596099739 0.0009659302770210847
0.004855595404854949 -0.05615587516707228 0.0032227255163674792
0.005154977006793207 -0.05641153649462001 0.003418980573419178
-0.00827793934208986 -0.03428329727563888 0.0011825218135329784
-0.008304974686526967 -0.03416960388775887 0.0010160880674217223
0.005049090337286129 -0.055991160841848964 0.003361589339415216
-0.008385986257101168 -0.033793807219106166 2.459505096732505e-05
0.004493741128974228 -0.05552621556267148 0.0030895542037512186
0.004807683846089981 -0.055525858156999855 0.0032149293050447963
0.008525651074431467 -0.008409674809346358 -0.0029452034847912267
-0.008389486045531736 -0.03395330841886381 0.0003182690035282306
0.004663111351270784 -0.055305111202885324 0.0031253985413749975
-0.008364392102718228 -0.033487767522234035 0.00011051847788724754
-0.008338239483500052 -0.03379391985581767 0.0004606721099076809
0.005186436070830109 -0.055664533680847984 0.0034790186103841802
-0.008404550158833225 -0.03332563439569464 -0.00016888289921189649
-0.00843550316548493 -0.033026198413730515 -0.0003177806685247141
0.008488307367448808 -0.007767697413613432 -0.0030818867157827614
0.008515633803464736 -0.00795104506109489 -0.002997108102685589
0.005281880569554515 -0.05636145802690364 0.003521799081388257
-0.00835924797336944 -0.03310547105748653 0.00014753107274681734
0.0053806433548210415 -0.0561151343493711 0.0036160302534996858
-0.008307538127370222 -0.03378424837370724 0.0006677829825921207
0.005791962244234184 -0.056407971672628975 0.003873315578421923
0.008530592156471792 -0.0077237773167964305 -0.002928671280584879
0.008517028131615426 -0.007537653699660767 -0.0029668934467078213
0.006092546063096914 -0.056290841343641415 0.003947520858139949
-0.008245977995852903 -0.03357092112783466 0.0009073869660980389
-0.008295669806614978 -0.03313334816382766 0.0005820469654625028
0.0062460165752134325 -0.056018230488337366 0.0039026032401529164
0.006344925424014582 -0.05576445502724244 0.003843993705756074
-0.008313751161117287 -0.032956563292934386 0.0005499394324301405
0.0047236879813146075 -0.05509261887419745 0.0031119350604414536
0.0048396573069699935 -0.05475888342025059 0.0030195815811030475
0.0051436670934487385 -0.05468538934160341 0.0031683913844911117
0.004957590145102116 -0.0545888927112856 0.0029847500304239676
0.0048360291787425125 -0.054130939636753486 0.0026759767359288596
-0.008430981964141472 -0.032824291838465226 -0.0003188651829735636
-0.008365175831013344 -0.032823209106189896 0.00013772704727257388
0.006786986173764572 -0.05539069205295388 0.002872909676768329
-0.008378409173656804 -0.03253766857708306 0.00017022666243479982
-0.008388202222504332 -0.03246900562853263 0.00012315620435913066
-0.008365878852624013 -0.03250180644717993 0.00045489640573652
0.006602643440043248 -0.054913835387850864 0.0025892896785217065
0.006699864385589607 -0.05499010034041926 0.002949322430263831
0.005574031111526095 -0.006286709095911791 -0.007212109193743578
-0.008392080009557637 -0.03193016348247689 0.0002848944113427355
-0.008336642270850401 -0.031604952596656355 0.0003508419196758302
0.005225675735713691 -0.005712346959821925 -0.007356135739028531
0.006648072369063629 -0.055377358347003705 0.0034684485533841986
0.005375384648683262 -0.006124186020825835 -0.0073105678346932525
0.005660603207308755 -0.00595111655759787 -0.007121784409558722
0.005294327177226094 -0.005566181153885772 -0.007293323336359159
0.00671915439595036 -0.05515218321979092 0.0032040723221961886
-0.007871685124107203 -0.03462196434772709 0.0025005614069224698
0.005608126584046939 -0.005736211167997194 -0.007124653463092962
0.006651407630818883 -0.05491037529982308 0.0033529703672126915
0.005075735889418254 -0.0054406538610322925 -0.007432059199126529
0.006594484663962312 -0.054694002695499254 0.0034497609115230303
0.005005517948777041 -0.004864816138433761 -0.007549611405269143
0.005081397798031076 -0.005134916732900157 -0.007457253678667428
-0.008200518196386116 -0.03283035651612305 0.0011252658937836815
0.0052364510860158945 -0.05527909699365091 0.0034885522213352707
0.005782116699345033 -0.00546861222683765 -0.006999823338358699
-0.008129524299127704 -0.03320135114353187 0.0014098150279220649
-0.008172758033139011 -0.032825876879549645 0.0012113942640260599
-0.007721941467603232 -0.03454617680409953 0.0028594378540717884
-0.0077204018304788125 -0.03433684291587142 0.002908809972141696
0.005430691186678198 -0.055846379895436914 0.0036712575795738397
0.003009338031624409 -0.0033460888191244103 -0.008704293155541614
-0.007755832292653692 -0.03402542099034497 0.0028471339244147322
0.0058655789716210915 -0.05613660454934313 0.003909468617198805
-0.007697103098358677 -0.0339606348803605 0.003006509519132119
0.0053308791566399095 -0.0557267441391485 0.003596293858614784
0.0033443702704569742 -0.003971666520681327 -0.008562929595575964
0.003336805973866256 -0.00418061952007502 -0.008566945344363502
0.005433203630082082 -0.055430294042300696 0.003671478356808727
0.003958949378552 -0.004440748338228849 -0.008270600287426304
0.003641092922926326 -0.0040708218891318355 -0.008427840162865515
-0.0075931599070405646 -0.03375642184532687 0.003331328838785092
0.005890227790826834 -0.05574329373451856 0.003928231548965707
0.0033768795166695064 -0.0038814273198027934 -0.008548357370107755
0.0035023362173129597 -0.0038988417981102317 -0.008491015671440259
0.003226668771679931 -0.003520847044818451 -0.008610662077491994
0.006277740118526182 -0.05549279229847211 0.003878554096988805
0.005897734367621012 -0.05539407915750171 0.003951812588039364
-0.0074816019784008005 -0.03329517111290072 0.003457066680659781
-0.007609185217426739 -0.03244931104492771 0.0028736000681735974
0.0031501910136999887 -0.0031512222794097774 -0.008631248416235365
-0.007561248809879984 -0.03281159571737119 0.0030211174067965125
0.00524818051931543 -0.054861709946503176 0.0033827434612445488
-0.00758457294377232 -0.03251151046899821 0.0029361136219264498
0.003098099131841393 -0.0027880778727696984 -0.008626827549765109
-0.007476926229862426 -0.032895504182315516 0.003277989025571419
-0.0074657299826849455 -0.032470799928125314 0.00331840888268233
0.005422929268835222 -0.0546262999212775 0.003514681803434205
0.005492078357179659 -0.05435932990151919 0.003455994559417227
0.005612457632484194 -0.0544030513586183 0.0036630183094581124
0.005572112838828098 -0.05427924908161538 0.0034821698322846104
0.0034195511589258276 -0.0023223747238187153 -0.008481223457219076
0.0033273024205366973 -0.0031720490109630934 -0.008555658108900719
0.003765181511323159 -0.0033248023695694948 -0.008368167571304234
0.003423388216808141 -0.0028708129678707813 -0.008496709288942571
0.0037491794269677633 -0.0029126666521923925 -0.008363175307280235
0.005910466237068143 -0.055053073354970464 0.003947480398864351
-0.007389031905580486 -0.03453149561024367 0.0040705947058248156
-0.007477798101466638 -0.034375536558889176 0.0037593265459825824
0.00350998366273536 -0.0025937909322531955 -0.008449861378262834
0.0036071674846313993 -0.0021983603605636925 -0.008406195296805488
-0.007464764877787243 -0.03390942685616135 0.0038339745250348355
-0.007502345496914114 -0.033531552220532744 0.0035762741984966774
-0.008336717532368344 -0.032435528180628066 0.0007029367560717334
-0.00830653826646889 -0.03207673006565869 0.0007926284071693276
0.006084921898434534 -0.004142044466532045 -0.006760728756299955
0.005763442992408009 -0.003966963342276159 -0.007055738430455998
-0.008168959421524322 -0.0323688609356986 0.001210479214430618
0.005876606232877137 -0.0037483404775552607 -0.006962547088227791
0.006085708243636326 -0.0037981225956821 -0.006770116098250509
0.006138896795742902 -0.0038786823344161853 -0.006719091378037953
0.006119795481533083 -0.0037090254480093825 -0.006739439068576835
0.005911295421214197 -0.0033595117717499824 -0.006933083989458576
-0.008160076203779041 -0.031721751853783405 0.001176185953588029
0.006046944439272393 -0.0030474835888475507 -0.0067983410194096695
0.006099116141794716 -0.003141857941195019 -0.006755534738064487
-0.008060329922210353 -0.03185082644218534 0.0016266249862791804
-0.008075834547995292 -0.03162743532933254 0.0015916103719201143
-0.008260200664277875 -0.03134606009616452 0.00048794839456340494
-0.008229471871715055 -0.03121759930671358 0.0005482874321054674
-0.008219844951914282 -0.03102566967919837 0.0006503560376394757
-0.008153711962389867 -0.03111614236793212 0.0011667985937459163
-0.00816848350866081 -0.031020969648808835 0.0010464871251162173
0.006160190168992255 -0.006376211593448063 -0.006892005883238513
-0.008125649790432116 -0.031092136628325485 0.001449141004460869
-0.008155322830059231 -0.030942976917414725 0.0012513184572800155
0.006540297395958065 -0.0068482798425382055 -0.0066366302548510735
-0.008231052023004332 -0.030635973417119843 0.0008979205754789481
0.0065117945420084256 -0.006495844384041813 -0.006611418771967092
-0.008219113970522645 -0.030364708201898582 0.001177346425192202
0.006693593434422509 -0.007541796838009318 -0.0064134301369539876
0.0066592564761752526 -0.007217050874190997 -0.0065019342954587165
-0.007816610294042181 -0.03187985963568002 0.002489845035823307
0.006867854863824615 -0.00710493862280578 -0.006232609144442517
-0.007636989843617347 -0.031765355241219664 0.003049351357765576
-0.007526141917980443 -0.032175746500247494 0.00319624967369322
0.006990607507552014 -0.007082790062675574 -0.006032742723953566
0.006799928797927373 -0.006969516597281044 -0.006337102524436901
0.006839786641003238 -0.00669042665301798 -0.006225031054982577
0.00704216254939579 -0.007028622624906097 -0.005916749246739178
0.0073097559018658765 -0.007044988677460963 -0.0053858122622889885
-0.008191357839141867 -0.029995375095870414 0.0013324195683378378
-0.008194187370205155 -0.029747055207359402 0.0012658222111164576
-0.008114733215167749 -0.029988648175832924 0.001721665793244639
-0.008163298026356187 -0.02972757307524147 0.001416636227822111
0.007197411630131297 -0.006810968141635818 -0.0055302771823461435
0.006588398838416464 -0.006039628259001599 -0.0063783861661802195
0.006465286343519537 -0.005970085135538089 -0.0065244808324136025
0.0059060152619937155 -0.0050665263289368925 -0.006890425642646923
-0.007385220513016424 -0.03262188590047681 0.003615491869104019
-0.007446790041693393 -0.03241288578525482 0.003398215904799376
0.006303484123737071 -0.0056445745444871085 -0.00661784321493691
0.0065948017916115 -0.005507312939518737 -0.006266671288680754
0.006570780619657069 -0.00520634479480127 -0.006270228728439289
-0.007353824430673749 -0.03430588619593292 0.004126407797060144
0.006687304241924005 -0.0062349360997424235 -0.006307153740651898
-0.007279085534271999 -0.034233443663099626 0.004265185446133653
0.006882328973921541 -0.006102320749202842 -0.00595068701939451
0.0068231953319406406 -0.005936581134801117 -0.0060156167993195
-0.007219192820102696 -0.03421576944763062 0.0043555548737431535
0.007048244811229993 -0.006321506615438416 -0.00569065396589527
-0.007346859429267858 -0.03352806050095908 0.00397793982064454
-0.0072353462009613866 -0.03384126608058286 0.004257426683009821
-0.007137702593942027 -0.03393672830989672 0.004396883382733443
0.007210768473623887 -0.006665882731783693 -0.005472985688268202
-0.0068641144720206805 -0.034120891868308606 0.0047870153389001115
-0.006882894194906166 -0.03378561883530194 0.00471935585121282
-0.006896244012357574 -0.03350239439463751 0.004725680207147614
0.00710220723758989 -0.005742399574426951 -0.005676203329025667
0.007106828989039967 -0.006325075473776677 -0.005605092116277603
0.007283469697843778 -0.006185566175272024 -0.0053875786340366535
-0.0066301653341430174 -0.034150282217341676 0.005078869102011953
0.007353007468424362 -0.006089902457121906 -0.005313137961037166
0.007370622515313837 -0.005922460749199341 -0.005318720097717391
0.006962930285634307 -0.005540057799207229 -0.005858270413188827
0.006963348685316812 -0.005716905583807985 -0.005846582187095637
0.006897020843872955 -0.005325268183477335 -0.00593637219233901
-0.006594241700751643 -0.03352156685913705 0.005125044704621844
0.007217617174285398 -0.005311394305562928 -0.005583392631856212
0.007285382739309386 -0.005438899289110294 -0.005497630883226377
-0.007370362347930564 -0.03312937932161798 0.0037369601980428283
-0.007223975643364536 -0.0333271981129414 0.004162615161493533
0.007460910994889988 -0.00535923763097634 -0.005263221129977002
0.0075904459760120155 -0.0055076950275459785 -0.005062426785453537
0.007607668821308833 -0.00533167780155651 -0.005020005268407705
-0.0071462048334386 -0.033146145719048434 0.004359084386747404
0.007351493875307559 -0.007601360677616742 -0.005497426830684818
-0.007061539245214045 -0.03320739482584511 0.004505540693215088
-0.007031419781917013 -0.03298877627968199 0.004564380546509506
-0.00692515142640951 -0.03303074725676673 0.004724301746926088
0.007614729909584188 -0.007476811166254004 -0.005034902702330414
-0.00720864880726168 -0.03274954227021719 0.0042065241590888884
0.007524044603622928 -0.007174972462673112 -0.005062496448252361
-0.00714151646614969 -0.03247688883904883 0.00433050518651318
0.007763729901828651 -0.007552072002964729 -0.004807069660534943
0.007858741937536651 -0.007452834107104208 -0.004591770101547428
-0.006838038132397327 -0.03259418500073521 0.0047734631448718805
-0.006914971440485789 -0.03244196395857919 0.004696866464065395
-0.006685507245668937 -0.03336636924254389 0.0050325754637532225
0.007517162126362382 -0.00646047287166263 -0.005049642850201714
-0.006474136036804578 -0.033590840708475136 0.005245800800381065
0.0078794217207064 -0.0071637099524885575 -0.004471858340965749
0.008069233274681814 -0.007253491055717057 -0.004118090307138729
-0.006776589967166257 -0.0326474303585896 0.004846700187077044
0.00782869137971177 -0.0064441923593716935 -0.0045729849687603085
-0.006652481579165929 -0.03232369703238084 0.004977103677568745
0.007820915264368084 -0.006488513089152504 -0.004576770262071776
-0.006512683057697253 -0.03329524968024536 0.005204906978075429
0.007919944414544916 -0.00648187106117449 -0.004391764744061995
-0.006571893008269133 -0.0330004029112906 0.005127171377370976
-0.006248570726955731 -0.0331263786427236 0.005416643993974212
0.008203833485722201 -0.007326133546277927 -0.003810943350445537
-0.005894447797790707 -0.03337730445636011 0.00578386655697143
-0.006060127156668187 -0.03288987407648117 0.005546454065548606
0.007602021385496347 -0.0062495761127156066 -0.00497124761905176
0.007531294940379224 -0.0060290184812816444 -0.005117093004144797
0.007690050944672318 -0.006157460177727963 -0.004867053100378009
-0.006249405120782305 -0.03229538338122913 0.00533822919008129
0.007767023390705891 -0.005754636774612181 -0.00479131077181838
-0.006003133246756197 -0.032595959210008005 0.005562662506920048
0.007922330408515903 -0.005836395625003497 -0.004488800892425896
0.007947517813305684 -0.006100580413633667 -0.004396143320675238
0.007594903773573419 -0.005706424390913176 -0.005072487170170074
-0.0058034283908947925 -0.032311936463341 0.0057370175901609605
-0.00574368374188438 -0.032440444142852236 0.005802065019454522
0.007805990060347926 -0.005356994050604403 -0.004686060371195099
-0.007530845931372874 -0.03204302376956231 0.0032308344613211004
-0.007443641751046027 -0.03199310355083537 0.003538930277521263
-0.007335024456344404 -0.03223350996513159 0.0038231481479623595
-0.007412136068235821 -0.03190991538034745 0.0036472384393401148
-0.007677682390733791 -0.03147672703141701 0.0030856208049100404
-0.007566218064433677 -0.03163248396439581 0.0033129138208646824
-0.007796133773781683 -0.03111037257230331 0.002891911715067556
0.006416638011623173 -0.0049623174137569835 -0.006397115601519362
-0.007546213379069215 -0.03166103189825132 0.0033515746894950873
-0.0074860939982199295 -0.03159601106394009 0.0035179044663644376
-0.007305916154952158 -0.0317259515489185 0.003917743281047648
0.006582089201184699 -0.00487660168012536 -0.006239573072310746
-0.007305339084391782 -0.03137988865721935 0.0039044132067393897
0.006604630450507711 -0.004474431887186995 -0.006221506247535206
-0.007468401159706983 -0.03120653117427402 0.0036350375081354506
-0.007228124830977711 -0.031367483717687064 0.004062686054072505
-0.007185118293531778 -0.031050272663939043 0.004118959630378884
0.006376817042034815 -0.004109942359670421 -0.0064647870242813795
0.006587301732718782 -0.004398508357682201 -0.006236107026599125
0.006937268457799509 -0.004397453125605908 -0.005905367387906215
0.006986616287564033 -0.004096070544751613 -0.005826097517137857
0.006885254110483103 -0.004933406630267587 -0.005960714974772745
0.007112880646640413 -0.005111170095463092 -0.005704506419096504
0.007290818479456387 -0.005030771354521714 -0.005488981975832419
0.007277251935358372 -0.0046794188850411075 -0.00547603674676897
0.007527226296882512 -0.005070609754467913 -0.005137473689153936
0.0076442313770367165 -0.004850406489978957 -0.004892435966614655
0.007118348169516101 -0.004294706608969011 -0.005661631314789542
0.007173860863312004 -0.004100296080354301 -0.005565479711370205
0.007322460875909015 -0.003999144928583986 -0.005333267728280795
0.007458525714346967 -0.004333156914462314 -0.005143334697381172
0.006256539841119046 -0.003635096962706864 -0.006605884404349123
0.006593632831830324 -0.003729634658761706 -0.006238555036015875
0.006568528154531758 -0.003356885289464178 -0.006264066000647087
0.006460659715754419 -0.003093470882574733 -0.006377344562223098
0.0068502642493471965 -0.003657931781088317 -0.005967347625983523
0.006795521243227664 -0.003507037278841917 -0.006017530312082169
0.007052530905988558 -0.0033643039178610713 -0.005693078464700938
0.006470541801268685 -0.0027812572404368897 -0.006355337536926166
0.006775195672673557 -0.0026154625643525073 -0.006006351561972999
0.007133427126158252 -0.0030442279771906145 -0.005576506295109729
0.006939143559935788 -0.0028661176977178224 -0.005816381362224219
0.007180089936562799 -0.003604326909948847 -0.005525154813670301
0.007172525573174027 -0.0033159350978914284 -0.0055301614372385765
0.008129200319121285 -0.006536612527394272 -0.0038994939060634747
0.008277843207916328 -0.007440779250017423 -0.0036347569322363834
0.008200295296226309 -0.007078719711056479 -0.0037872322087232776
0.008346933066068908 -0.0070522386039379445 -0.0033958279813157033
0.008198719286277622 -0.006766017680844521 -0.00374984384174715
0.008344458659601886 -0.006732196893727602 -0.0033516787645020856
0.008549786103999221 -0.0072783864885647455 -0.002844258631389786
0.008447109114603337 -0.007008031825297721 -0.003110316551317628
0.008516794305762928 -0.006934769026638849 -0.002894212389721729
0.008337425118355965 -0.006589167771590562 -0.0033478811698815763
0.008459708784781573 -0.006642868132095467 -0.003003938778613954
0.00847601255461772 -0.006648190639914362 -0.0029558944686554757
0.008066886120835852 -0.006241733733088414 -0.004073357094837915
0.008181551968061994 -0.00610833826426667 -0.003725471030070652
0.008111029773744801 -0.005753103834564491 -0.0038977015149101093
0.007868556577805035 -0.005172639157512575 -0.004545676713026858
0.00807991037895838 -0.005549536400621791 -0.004026918974368317
0.008049420461265847 -0.005147181796604611 -0.004188925514040871
0.008140190853342225 -0.005520430400471557 -0.003732110877932777
0.008120590289632289 -0.005180197165193565 -0.0038914456163886687
0.008209047428520843 -0.0050890760910257266 -0.003414844300788167
0.008267578561916572 -0.005937605948615119 -0.003395029330663421
0.008303263619562363 -0.0057431139840158005 -0.003211594174787173
0.008663074478940906 -0.007064337370990452 -0.0024394993371897908
0.008726050842592118 -0.006787211058538141 -0.002137069727593879
0.008569765657144282 -0.00660065457120166 -0.002662600783463279
0.008672331445223648 -0.006582121611233189 -0.0022985716565121373
0.00860065413729669 -0.0062854096733817345 -0.0024625301684022653
0.008701911713318411 -0.0062628498940213 -0.002067846706971844
0.008298299710717957 -0.004991600047764052 -0.003110513457752464
0.008427734019096342 -0.005890065525423211 -0.0028872952610278467
0.00851480918745108 -0.0057786925970135785 -0.002575476018685685
0.008582818079664146 -0.005924863619622129 -0.0024079106483407757
0.008287782587364227 -0.005232508343561263 -0.003134550918622173
0.008428847307119324 -0.005088997742793935 -0.0026826622337855943
0.00862129123240667 -0.005791939894064008 -0.0022339252252058395
0.008601746211681676 -0.005476087903217968 -0.002208811666636311
0.008678816127847606 -0.005580342955320892 -0.0019921266369787695
0.008479241900543099 -0.0051958233636776536 -0.0025257896590905734
0.008593326370210593 -0.004980238334356721 -0.002137697730858805
0.008648107673104609 -0.005179087606917972 -0.0020017916443491627
0.007627307506868812 -0.004444126251806875 -0.0048490979324885605
0.007593791480686879 -0.003994650571123366 -0.0049004697587483855
0.007739701055864529 -0.004131415689314895 -0.004637639876277391
0.007397273490191123 -0.0035927198880030802 -0.005203852250971059
0.007463292857391372 -0.003839496802832831 -0.005107446923436238
0.007776263683055559 -0.003547231169177508 -0.004575848530088526
0.007637483855019561 -0.003231079197679553 -0.004810891856816486
0.007409747492994666 -0.003045408236248461 -0.005189070683507359
0.007471180571508455 -0.00294962160777969 -0.0050762762273384755
0.007557334762125447 -0.0027807842350142517 -0.00489268560899635
0.007862827318939244 -0.00341125429870008 -0.004377113697841423
0.007739458573850145 -0.0030580339406990893 -0.00457431805686082
0.0076235094350352185 -0.0028392507481975315 -0.004768403164249665
0.00780690732286079 -0.0025677414292371763 -0.004353688039456386
0.007861214168029181 -0.002626633414950656 -0.004252265954397029
0.00795642507467563 -0.004995274570105255 -0.004365500093668986
0.007946069873556309 -0.004807656737044364 -0.004331210869887841
0.007949833096136838 -0.004649130023658586 -0.004285953650073705
0.007840125629000853 -0.0041859195104445015 -0.004444883984204298
0.008115151847515944 -0.005016104554782564 -0.003955834608103618
0.008193486092925535 -0.0046960645668980405 -0.0036257333032381454
0.008176197787578277 -0.004473745767458953 -0.003741980470341249
0.00796232034795671 -0.003992300739734779 -0.004208874175155679
0.008123752153345624 -0.004103011390505043 -0.0038493239320383176
0.0081829501767926 -0.004218507273979433 -0.003697813201613848
0.008049667296121873 -0.003554799992615939 -0.003967892740631442
0.00795757858206526 -0.0032327592476536823 -0.004133690119972045
0.008247608334817916 -0.004338909012560394 -0.0034740130075006878
0.008341108682860063 -0.004342424630272435 -0.002991544909540381
0.008249985277032764 -0.004184032799861024 -0.0034204316554274404
0.008274755934176994 -0.004070690958714098 -0.0032652747735356677
0.008232133027812899 -0.003869675784773947 -0.0033813633490659156
0.008356082563061945 -0.004105135868289748 -0.0028995008843861344
0.008432973120969604 -0.0037955127601954058 -0.002587539439330784
0.008484396455886951 -0.004679585135006456 -0.002497334881602814
0.00842031339389294 -0.004438854205506987 -0.0027175354911970753
0.008458688562831319 -0.004207219170006569 -0.002545210516050652
0.008467509404865323 -0.003905360920487084 -0.002489682071828499
0.008083970114934834 -0.0032393643866561175 -0.003823775925717132
0.008220180199491535 -0.0032437278818642713 -0.003328553490249491
0.008219696365687559 -0.0034137015939234186 -0.003320852544495389
0.008030022295390436 -0.002686444511423341 -0.003930558004950148
0.008121663395767626 -0.002681956800361474 -0.0036983450127144614
0.008283587620569617 -0.003373242198366175 -0.0030686087407942853
0.008331944587389593 -0.0034911546316583426 -0.002897710439015145
0.008325889396947558 -0.00324718962930444 -0.0029128980344719233
0.008214350341520479 -0.002610732649827912 -0.0033964965372053277
0.008265745404294231 -0.0026950906893097987 -0.0031587076036315516
0.008805686095037953 -0.005601718493443872 -0.0014729481022519029
0.008728758945859609 -0.005451924440287808 -0.0017835767927147279
0.008748598103594438 -0.005108621256082995 -0.0016376181885466396
0.008813936019589156 -0.005065859017489651 -0.0013359508157971722
0.008764777087837088 -0.004881007095368711 -0.0015253662584554923
0.008606278207420874 -0.004197494829184642 -0.0020375185003521437
0.00863386138423845 -0.004671543699977713 -0.0019795481344581315
0.008661330650519324 -0.004287918112654013 -0.0018438315624406845
0.00854377104522111 -0.003783514855434502 -0.0022296382989209383
0.008642593139112217 -0.00384534636372141 -0.001875156275459565
0.008769348471229454 -0.004473275218166488 -0.0014346057020451723
0.008722009674801249 -0.004059155546073307 -0.0015683920787546882
0.008807713878713298 -0.0039379460701594125 -0.0011434205071175476
0.008682574228390787 -0.0036955794550530526 -0.0016876965563357364
0.008716444241494505 -0.0037410533737682 -0.0015371739772926081
0.008724704416708867 -0.003634023789034223 -0.0014784529709232633
0.008443321049776437 -0.0030406968331852325 -0.002422075324661874
0.00836459964179771 -0.002790609137623694 -0.0026799008123039978
0.008334156761160304 -0.0023689543124517914 -0.0028014292719166717
0.008390886811077821 -0.0023913467956074223 -0.0025314037204719284
0.008510918171809892 -0.00253224937395294 -0.0020460573118676207
0.008547037636263556 -0.002362535146288139 -0.0018937272393932593
0.008513158848957083 -0.003184116583324517 -0.0021954477688755133
0.008577174629105365 -0.0029574610443681287 -0.0018845905077371264
0.008671725699310713 -0.0031941524571406374 -0.0015821314456280198
0.008541025760355477 -0.0026136205716734244 -0.00194025090770585
0.00858389694908885 -0.0023185552889198424 -0.001741805857338711
0.00880168989616845 -0.0034054600416801774 -0.0009847318770871603
0.00885784598523175 -0.0037753155427757866 -0.0008114387514546999
0.008692163001871521 -0.003030905162636028 -0.0014208167285870718
0.008729781332371858 -0.002721349314967765 -0.001040991629888661
0.008769878864499191 -0.0030467821632430094 -0.0009614907324369409
0.008683084788508445 -0.0026004285132754713 -0.0013127941260344886
0.008720192011705659 -0.0026032486824081225 -0.0010435556125660604
