-0.00019534826042555715 -0.03555893959102903 0.008486616878844281
0.00737647056964324 -0.05359041760899004 0.006414366663588142
0.007759299202810473 -0.053552935972396694 0.006026827778671678
-0.0008323328515552123 -0.048060720203161086 -0.009460441582955016
-0.0068931242041989 -0.05160974764137019 0.004427493409802534
-0.0004966177638129246 -0.03518381925870162 0.008453344955403199
-0.0005677310884613218 -0.04908585499665789 -0.0095271559632855
-0.0002459109155964746 -0.04910596898075606 -0.009572182612723227
0.0076728096126515745 -0.05317205679245484 0.006111473802550842
-0.00010800694316044763 -0.03534558502926756 0.00848994030839811
-0.0002669747263444617 -0.048688894519900765 -0.009559786765510421
4.203665063937692e-07 -0.035177071541593996 0.00849585110064703
-7.78803662318665e-05 -0.03507412734037306 0.008492177135803337
-0.0070955812539352965 -0.05110851193903179 0.00405169442639476
0.0004117499830091974 -0.049103081392491546 -0.009629800514870153
-0.00017095648291891676 -0.04927067439131859 -0.009587332689184278
-0.007099256316993635 -0.05095031582739753 0.004038334897722878
5.143759841608739e-05 -0.048881508105219476 -0.009596363117781883
0.0077575223238154824 -0.052169722223930945 0.005986995292586285
0.00027302746529708365 -0.03486286274125103 0.008513082746993417
-0.006722821140917598 -0.051686139695231684 0.0047013606935911835
-0.00664048580516018 -0.05179801044592211 0.004821238901890847
0.0076038540505871215 -0.05249359932624874 0.006164562976215182
0.00015697021785347336 -0.04858365513634546 -0.009602332718430112
0.00030453984758646547 -0.04856591961363581 -0.009610752585848873
0.007167695573093242 -0.052423263279799306 0.006552235414157217
0.0073470890441771144 -0.05237230183969509 0.006403505870264149
-0.006507150142532702 -0.051566056340105394 0.004998831139426983
0.0004960287646453548 -0.048347019501515626 -0.00961459858783154
-0.0006798475879949742 -0.04882261066873371 -0.009503245869163846
0.007655897162326172 -0.05205906653073689 0.006093171500409506
0.007595489794136831 -0.05201511289907614 0.006154845570198008
-0.0067783111078880375 -0.05130146946649165 0.004574844137028045
-0.00036702102236202725 -0.04843864221522152 -0.009541726788107295
0.007297577036051238 -0.05188793774354317 0.00642489151308314
0.007531768896411212 -0.05167765962569873 0.00620549608007584
-0.006548018302780725 -0.051207456344415175 0.004929421290748741
-0.00025852849482427417 -0.04808668390910337 -0.00954821298091412
0.00789770480190096 -0.05278978654078708 0.005862626788235776
-0.00660761713109043 -0.050995561889260896 0.0048356149317459775
0.008009594221182472 -0.05258761547692885 0.0057291608393316845
0.00769191915748678 -0.052901130325802716 0.006079529592009279
0.0077951962195900466 -0.05254602243765298 0.005953984744507415
0.0010863819467719904 -0.03589704363350501 0.00851856086256177
-0.0008142160389276819 -0.04756944491232274 -0.009457632329241909
0.0010894787501100197 -0.03573530333365618 0.008515937103989776
-0.006273959398437056 -0.05188338139559216 0.005322680335337865
-0.0006690418785654999 -0.047413146256803415 -0.00948002995009993
-0.0063652110766403095 -0.051559575905664276 0.005190690452109522
0.0004278426861729124 -0.03613477052058013 0.008526807453345163
0.00028148559820187816 -0.0357862142557218 0.008517570066675697
0.008440378727990314 -0.05099505525641325 0.005162734269351222
0.008855653520571567 -0.05229892588831267 0.004634007280646935
0.008902784233081303 -0.05216208496800281 0.004531601561283163
0.008857040802596198 -0.05206243049171517 0.004627088599790705
0.008682943105419899 -0.05226627372786367 0.004911299300678145
0.0007072849346918741 -0.035522867383938575 0.008524740012120394
-3.856361067576422e-05 -0.04804416287895966 -0.009572095355104686
-0.006892497852624037 -0.050463173160960675 0.004379552066035974
0.0006061396564681069 -0.03527934584192731 0.008521581242065174
0.0002910506756729187 -0.03530060466585157 0.008517741109581877
-0.0004220976823620591 -0.04785035900594929 -0.009524533680910734
-0.0067203256152243394 -0.050448600807262295 0.0046518857120832705
0.008934339305816382 -0.05148861853504004 0.004443046855220421
-0.006686471154864951 -0.050299049304756135 0.004699000310334287
-7.677013312415121e-05 -0.04758322199245068 -0.009560126689469355
-0.006620526621769391 -0.050733282425592205 0.0048087710674698265
-0.006576025770394048 -0.05055432605932085 0.004867239588788795
-0.006637051713417283 -0.050379678270394766 0.004772466536519397
-0.006949258448495903 -0.05005194383829879 0.0042837188357971725
0.0014086647607710508 -0.03638527257759042 0.0085090501228384
0.0017542845383717912 -0.03640303672876388 0.008473171312585908
0.0015415166625596718 -0.03635542211746697 0.008495016361275465
-0.00014729314752673876 -0.04733670272987072 -0.009548222099330548
0.0016794837348901492 -0.03614547497442125 0.008482120703796102
7.698968821973691e-05 -0.04739838962894408 -0.009572261400853897
0.001338526362135739 -0.03616837896779156 0.008509864825462055
0.0014512617816481263 -0.03599161081863965 0.00849908638768653
9.409765450482751e-05 -0.04719463842658772 -0.009568642516197493
0.001917705462986654 -0.036507035816856534 0.008455763930997229
0.0004185509661096511 -0.047605923617002846 -0.009593870034736116
0.00039361443401728406 -0.04757625706820405 -0.009592332515857262
0.0005770730831949529 -0.04741883001733792 -0.00959812930619575
0.00061087741203841 -0.04746011534822593 -0.009599742936446137
0.0017565426129743048 -0.03594162232217053 0.008467834500178226
-0.008292161699714208 -0.04839798710476729 -0.000867400427591681
0.0008869879537016984 -0.04733101949493394 -0.009599455314610017
0.0006640433952564886 -0.047211156953777256 -0.00959459937071886
0.0004703966427742927 -0.04708599962696164 -0.009586844978007112
-0.00825969974453076 -0.047563368605176654 -0.001305799000439527
0.0015923188499149916 -0.03540849176862485 0.008475896021723611
0.001914100670790934 -0.03562026427433681 0.008437415621295538
0.00037659791534777755 -0.04692403734173828 -0.00958128604592146
-0.00824497311628674 -0.047219181964835905 -0.0014065213853525467
0.008527380459252637 -0.05046516413352371 0.004978926781795229
0.008786318867725434 -0.050352322004757435 0.0045484189753225625
0.0019897055951020215 -0.035727665387426805 0.008429905065864022
0.0021994202116838377 -0.035606620747186006 0.008394370908398507
0.0009023770330708865 -0.04711442003802589 -0.009594506723754139
-0.00825192844762605 -0.04688568866358857 -0.00136435540074371
0.0004318636086189791 -0.04702159898321763 -0.009584419439328914
-0.00826720709143634 -0.047073096277301246 -0.0010124717870902107
0.000721786485413553 -0.04667999284900297 -0.009587557386064843
0.0007891399449719359 -0.03498879256165169 0.008517894596359887
0.009016592255114276 -0.05091450638474415 0.00424072297491773
0.00897818979017625 -0.05093499336999352 0.004309343449575136
0.008886875951703803 -0.05113792006652954 0.0044815410716774395
-0.008273454922933183 -0.04801121900503725 -0.0011664054873543489
0.008909902745618956 -0.050977207772185666 0.004430302696731451
0.0007534997496679511 -0.046387417778239896 -0.009586021613228236
0.0008581097825534458 -0.03465237872266722 0.008512366174790467
0.0010817453977175796 -0.04647443101872959 -0.009584319898762406
0.0011265171617026763 -0.03511415375237137 0.008510521174736363
0.0008210785032740653 -0.04614768154807683 -0.009584470884543242
-0.008274119476822106 -0.04740056899394811 -0.0007317930288294036
0.0009886644183649364 -0.04628546397853951 -0.009583334076298869
0.001130204004703037 -0.04607840606517791 -0.009578770405902437
-0.00822644173159452 -0.04669459827103462 -0.0016868048664072858
0.0012424638685645732 -0.045932076106837506 -0.009573307451959421
0.008730185914958328 -0.05080697717884404 0.0047060232269738635
-0.008234805679562123 -0.04635484633787698 -0.001654119322673829
-0.008254535589517905 -0.04668144346554269 -0.0013424150753785064
0.0008589464089284395 -0.03435067904829628 0.008512231750291512
0.00814023435958071 -0.05165213012700167 0.005564177363749412
0.007993583171610835 -0.05182431048123657 0.005733359554408569
0.0011265300281885328 -0.0341060653763369 0.008494726172810683
-0.005199509480733327 -0.04806341179349646 -0.007384628746921271
-0.008204600341008898 -0.04615872659527133 -0.0018568842408244871
-0.005014321643014779 -0.04796349141677586 -0.007538162440935144
0.008231637866159458 -0.051374282878505054 0.0054311515803689816
0.00821742106696788 -0.051203230989948 0.005456557105994741
0.00834744602201885 -0.05108077655570201 0.00530388775416783
0.0012430318120332875 -0.03431422800930363 0.008492644409339863
-0.004909981415082456 -0.04759634691477193 -0.007618241456373988
-0.004944382015146519 -0.04755457960166693 -0.007590999638256016
-0.008263280890943877 -0.04656283308065637 -0.0009601904486389284
0.001473610193282132 -0.03531308088598721 0.008484470405301562
0.0016555324553499916 -0.03510455500189585 0.008466996749750242
-0.008273547942482116 -0.046650403216002945 -0.0008127910410602471
-0.008268456108766352 -0.046565624515904 -0.0007565414375851297
-0.005332908900647857 -0.04783837147654557 -0.0072641295908404775
-0.008272284905061076 -0.046309357497657154 -0.0009896639780895174
-0.00523822432354329 -0.04761483475048223 -0.007342375908995177
-0.005190806809834244 -0.04777136333789626 -0.007384432689811155
0.00257628797445519 -0.03566736414229911 0.008319329590666662
-0.00564101472343558 -0.047922599621700326 -0.006997913239491081
0.0022821586752247843 -0.035324984437434495 0.008369939879562171
0.002694623455027552 -0.03541819219107305 0.00829298170700717
-0.00826715114114228 -0.045721218763929775 -0.001323684056834182
-0.008269839289321313 -0.04601479468779493 -0.0008958847794116778
-0.008281668625509329 -0.045764947107152704 -0.0011348488856642084
-0.008276771777875532 -0.04573224631260123 -0.0009114369775037988
-0.005108710024620676 -0.047548134434936135 -0.007451823728945874
-0.005091731970329576 -0.0471695116673915 -0.007466093962884208
-0.008247945099505504 -0.04652220335619309 -0.0005408782656029016
0.007652922148614426 -0.050846857173735466 0.006049790060552942
0.00777170866381042 -0.05059035451748178 0.00589442753561995
0.0025577724190441343 -0.03496753466313937 0.008312138071515242
0.008227325716645676 -0.05180012873993403 0.005465088239453407
0.008270678015925842 -0.051618279473327 0.005429194948870759
-0.004537793983231193 -0.04697106407566119 -0.007895300575442438
0.0024047396313226204 -0.034753492951125675 0.008343480156829518
0.008366354786397792 -0.051193282658074074 0.005299318680765588
-0.004668059092839898 -0.04691072010201647 -0.007799935916644562
-0.004686381923498784 -0.04672112414831354 -0.007787091392393024
-0.008204773974116154 -0.04579271928312237 -0.0002468424898966302
-0.008237131297366015 -0.045687649383585396 -0.0005503115781254768
-0.008235344254495644 -0.04546026014237382 -0.00037693373762766346
0.008471566646855097 -0.050425592748844526 0.005052931498143896
0.0018811722052328183 -0.034520116899110526 0.008426895207716844
0.008091978026084454 -0.050542211657867986 0.005537095959988556
0.0020796187950120272 -0.03455172183766277 0.008401148595094225
0.008251742719808533 -0.050337672769413644 0.0053226615035002756
-0.004998240968375502 -0.04695169602342979 -0.0075455304430177405
-0.0049290881082866495 -0.04699650449804735 -0.007605807949980288
-0.004837199810499628 -0.046690039172108844 -0.0076750754556214815
-0.007804145499502302 -0.04915426881928489 0.002478145585191548
-0.0051781616086899185 -0.046924469703539404 -0.00739300306171056
0.008281414293978447 -0.05019093893365274 0.005283690844423178
0.008204875480620918 -0.05014026021872276 0.005355636936585982
-0.007724168875355559 -0.04915814429014578 0.0027293589157706133
-0.007700266500935794 -0.0491399129472406 0.0027968614823841967
0.001422821629152862 -0.03370195899383669 0.00846855776970484
-0.005060861715731246 -0.04583357911267153 -0.007493109628959026
-0.007847599850055134 -0.048956383303207854 0.0023388068047068035
-0.00785096987243907 -0.04878163158595878 0.0023211931731403727
0.007762820236127027 -0.050029896548439444 0.005838108593137168
0.008039132347247194 -0.05053191250530619 0.005597618232645872
0.007875534988351288 -0.0503554822924764 0.005753557253878557
0.001774625906297637 -0.033422427287872716 0.00842232045946416
-0.004954297079302269 -0.0460944557079801 -0.0075831328312210965
0.0018655534575328725 -0.03316152073119804 0.008404989008300794
-0.0075925177828810005 -0.04958104746570836 0.003062223785493729
-0.00786210080921243 -0.048370669108403444 0.0022908014451607332
-0.0062691254992234425 -0.04654196710780106 -0.006292406825204549
0.0025036805798180402 -0.03430426920494622 0.008321328836900475
-0.00783614809237981 -0.04812607236916068 0.0024023901635629097
-0.005834710062770122 -0.0476767610300893 -0.006774641496432113
0.002665502741622169 -0.03419338933823647 0.008286192582357129
-0.005743613644953299 -0.04729499445810572 -0.006878715741675097
0.0030507648546709747 -0.03409837649368606 0.008199626810970266
-0.007898850768563299 -0.047810208804796604 0.0021715049917541774
-0.005935037509854614 -0.04745540812528749 -0.0066668727224286255
-0.007879023641027055 -0.047456663961934924 0.0022379622160399798
-0.0055877563244228915 -0.04726768800676261 -0.007029066194170825
-0.005710624041302652 -0.04699691722610096 -0.006913178675949874
-0.005529235454982882 -0.047089038383861435 -0.00708618156365653
0.0057765417955175586 -0.05260883898582435 0.007561546771877689
-0.00591467705008836 -0.04716038808934802 -0.006698719013242684
0.002080134532067248 -0.03418063156283721 0.008395835599511119
-0.007737870524020265 -0.048471469091855166 0.002676576823138449
0.0020866145644052913 -0.03389099538775506 0.008389144439821538
0.006062450512918547 -0.052184749109136924 0.0073596722262294694
-0.007564391985793628 -0.04873000588449082 0.003133944813549211
-0.007548796689000912 -0.04852136059175355 0.0031582787424804548
0.006315233288085883 -0.051774777553558124 0.0071778783967886926
-0.007592270327719756 -0.04948203140882041 0.0030609900127291844
0.002255269859900201 -0.03354264706735427 0.008352848312344466
0.00629104452915989 -0.05140715729663758 0.007178762826004694
0.0022741758971750684 -0.03356534644990165 0.008351282728503731
0.006291739466125542 -0.05118769550778253 0.007172061248164329
0.0024839892463371484 -0.033446663520913744 0.00831181006522588
0.001932542574737113 -0.033647719266897136 0.00840397659055712
-0.005995156940246606 -0.046735719794512284 -0.006616949120934411
-0.005923564702779308 -0.046684672847492135 -0.006694260295606132
0.004307828965194381 -0.052277856364900725 0.008235052980657702
0.004303283542384612 -0.052102854412454075 0.008231264422188474
0.004664721395543767 -0.05198529090865983 0.008093340431331447
0.002662646479876738 -0.03337047386943909 0.008276008004381729
-0.007543876787179084 -0.04892807096948 0.0031944118977002035
-0.005468188702677742 -0.046659758494846194 -0.0071464885328063246
-0.007450671858769601 -0.048824707919244884 0.00340903808196654
-0.005328946149042705 -0.046417011599286614 -0.007263077147225384
0.005218919795568797 -0.05258154923843198 0.007849799767934647
-0.007264183542843432 -0.049129589469630905 0.0037552024914569264
0.005200955518974384 -0.05249814070633556 0.00785715391858128
0.0032809868457183127 -0.03330270812686698 0.008136656920479842
0.0032783834398929634 -0.03320805595033791 0.008133152984413704
-0.005280157630763286 -0.04623159627018082 -0.007305896750559712
-0.005343152734424067 -0.04604417956392122 -0.007250333848721284
0.003434472581543667 -0.03279578158796731 0.008083336100031343
-0.005318007813659209 -0.045919770204542396 -0.00727446166942576
0.0053292112467876514 -0.052548911868573536 0.007800285481971585
0.002612273697927121 -0.03308941982191983 0.008272375661082408
0.0027726629245617787 -0.03287501110712491 0.008238316568827241
0.00533082698305457 -0.0521865123418722 0.007785429860786652
0.002177089062551943 -0.032843326605904 0.008351712668723444
-0.005943366301521715 -0.046507929347362365 -0.006669538356637094
0.002235872130278098 -0.03256349232492015 0.008334190487774175
-0.007230541325334058 -0.048557189612209666 0.00382721452894924
0.005780539003383102 -0.05219822218456932 0.007543937501461517
-0.007173379468672638 -0.0484286842416025 0.003933191282943321
0.005713349199426416 -0.05187993458799661 0.007566459716815695
-0.007156646064920966 -0.04878897085413613 0.00393262076233847
-0.00707123819736675 -0.04886076628882259 0.004077505018469399
0.005550977343400448 -0.051890825928058625 0.007665658948692486
0.004799195209603835 -0.05258087353713754 0.008041647267836252
0.004800540764336857 -0.05242695292216706 0.008036530192409016
0.004936124167271664 -0.05229700874992852 0.007976218473142546
-0.004271364818179261 -0.04588856889189277 -0.00807153150885697
0.002633168810016592 -0.03268849475389497 0.008259546507414162
0.0027978581447619267 -0.0325513521309668 0.008223025705864589
-0.007715741541341329 -0.04793519114354733 0.0027418473507869546
-0.004276299700724224 -0.04547901597360953 -0.0080676050318872
0.004996703282021129 -0.0520368581383728 0.007946794707905491
0.005193675436700024 -0.05208445684205578 0.007854988496988128
-0.007546090816220427 -0.04811616707858522 0.003196381901493216
0.005101162033076724 -0.051718241514861214 0.007892554633004287
0.005215755141069314 -0.05190640411413525 0.007840868693675567
0.004807948946004328 -0.05201642500010987 0.008041572554032733
0.0033973473437294037 -0.032597922239476045 0.008094908845678718
-0.004876997301127325 -0.04531992741763264 -0.007642712438597637
-0.004795010204633067 -0.04579507939990455 -0.007705999433846108
-0.00453595367124052 -0.045736719271471694 -0.007893996338579545
-0.0018028994904596878 -0.03489473043470413 0.008189613197635504
-0.0015144408626686352 -0.03507061823769178 0.008269591947598588
-0.0013582489204732725 -0.03502523619287353 0.008302453252591014
-0.0017424939761907705 -0.034865932945509236 0.008204950275182513
-0.004903681530835301 -0.045243349343219004 -0.007622067337167626
-0.007636990478770029 -0.04770482655185207 0.002972641552094389
-0.004642456157601029 -0.04486352658572224 -0.00781296330537606
-0.0016749130103090692 -0.03441997034796364 0.00821310898935202
-0.004383294229427771 -0.045450513735097536 -0.007997383907465096
0.00563266520300686 -0.05127322821397993 0.007585511250137952
0.0057805580100958615 -0.05182074030196347 0.007523423125936889
-0.0013261388988345915 -0.03478378297698845 0.008308874462219852
-0.004697661471919391 -0.04519509630746237 -0.007780563365005414
-0.004543431290597402 -0.04491016395281769 -0.007884669232594184
0.005688644092832502 -0.05174560099485849 0.007575144345088433
-0.007555439676698317 -0.04746316582472754 0.003176688762687246
-0.001004810410800553 -0.03459321776735443 0.008368142336235184
-0.0037890803711079606 -0.04471798074383242 -0.008356030359028526
0.005728629975074251 -0.05118833026366034 0.007527018786760315
-0.003977290492644207 -0.04453009217882306 -0.008238406154351991
-0.0038439285912802864 -0.04442028243487624 -0.008315625975844265
0.005952030514923362 -0.05132462255500941 0.007395896199642084
0.006231111903053695 -0.051241849910963144 0.007216282087098791
0.006106656777863492 -0.05099267872681817 0.007285148133554201
-0.0014975991926397415 -0.0342610352806622 0.008250534286033805
0.005834350143210448 -0.05124528726074709 0.007465589018474548
-0.004343073965988353 -0.04488753078835432 -0.008018491034808091
-0.001567064058638343 -0.034068607517230294 0.008234367134369341
-0.0016915416650889355 -0.03368345798292536 0.008195052037076805
-0.0015027153435504888 -0.03396092761172671 0.00824679164781564
0.005412605411309187 -0.051428957222048516 0.007716679920177415
-0.0012119152647166271 -0.034346293059302584 0.008323727398884923
-0.0011115881276302392 -0.034205190866443295 0.008341494219117559
0.005430027145510993 -0.05131446136414033 0.007702126201148092
-0.00086600118687275 -0.03435279074452685 0.008388852267447518
-0.000924133132790063 -0.03414212910406084 0.008376669996849693
-0.004039107086483378 -0.04427797369138535 -0.008191274918425298
0.005262972047279142 -0.05092049546192338 0.0077650156930131
0.005490395896488436 -0.05099979807197613 0.007646154461803723
-0.0038355615618201693 -0.04417193668307784 -0.008307027912562494
-0.007832443828636553 -0.04711976245017847 0.002394697432234183
-0.0078089385205788245 -0.04717405125989713 0.0024686648392653614
-0.001253754722606372 -0.03379276675627652 0.008302372984277731
-0.007875114765281445 -0.04676127775898325 0.002224106010127995
-0.004066108654847111 -0.043926468341432615 -0.008138658970920174
-0.0013827538026500762 -0.033429021485822476 0.008264790024384804
-0.0077502322961211165 -0.04700296249887707 0.0026618504497404145
-0.005653128447792738 -0.04520896923097309 -0.006962765426300342
0.006410044029666083 -0.05329710538344074 0.007165619117443904
-0.0007423041069808105 -0.03367194026182866 0.008392264688867291
-0.0010460068018203954 -0.033515847939560174 0.008340741152845561
-0.0009663928987451416 -0.03343116088467708 0.008354574724748397
-0.0007107815073954491 -0.03362139445306323 0.008395969447148717
-0.007840300236586599 -0.046249453447082714 0.0023202719634233676
-0.007805494655608232 -0.04626686646046705 0.0024405404491158306
0.006667353901906748 -0.05318524216334424 0.006977114180149884
-0.005421161946191244 -0.04561150454528802 -0.007186237387060343
0.0067702559788654 -0.05278290621762434 0.006887626134928341
-0.005287971435730123 -0.045267370139337584 -0.007303206085349548
-0.0004334471488467547 -0.03445618704591185 0.008450261600576912
0.006524353803110167 -0.05272015504389077 0.007059915665926528
0.006685855662571138 -0.052512114161520976 0.006941017715215755
-0.0001633544710920418 -0.03434229455414562 0.008472810910768219
-0.0075121319380873465 -0.047104375747949026 0.0032692334114847077
0.006800771696252563 -0.05283121606440343 0.006865868753849242
-0.004988837549788603 -0.04487896477168499 -0.007556900167455728
-0.005189585634109568 -0.045118636016889514 -0.007392029196042618
-0.007503152020616203 -0.04678670953853824 0.0032944087021355662
0.006207467557060689 -0.053033078012574474 0.007296350416878558
-0.005210132169799911 -0.04473793385417947 -0.0073688981826078095
-0.007675523610041431 -0.046461961902867895 0.0028512685752745256
-0.0003026294278894694 -0.03398405075841781 0.008456906328933096
-0.0077782971801195165 -0.04604439520860672 0.002532257110160938
-0.005491505920953552 -0.045104335403385445 -0.007127696410964858
-0.005402696484713903 -0.044803335392867925 -0.007189685915103551
-0.007641884445566893 -0.04626191820256766 0.002990903229273065
0.006221645013556364 -0.052466068142212316 0.007265112344716677
-0.00019030775563023416 -0.03358606042829726 0.008464084682745333
0.00623133809686149 -0.052280416218240165 0.007255979301657412
0.00019295845317110255 -0.0340819456290079 0.008495647578675207
0.00033235634143483355 -0.03417097210862211 0.00850632510389178
0.0004588047525655568 -0.03404921427820816 0.008507071502635744
0.00021493641866173838 -0.03383089580233092 0.008495394549301387
0.00023348723255931317 -0.03379879506187772 0.008495706546765368
0.0005428389957298435 -0.03390121098875005 0.008504167616098728
0.006764143867666784 -0.05229314708208573 0.006874269280974345
-0.007636052096082937 -0.04587057968789813 0.0029667253229251947
-0.004444772138972035 -0.0439846557141068 -0.007890863595012438
-0.0076725898718924875 -0.04549329118482882 0.0028497914480242487
-0.007714031950660757 -0.045220459514042854 0.0027107325705015414
0.007041850578941527 -0.052145890149114416 0.0066538062630768155
0.007103910236297025 -0.05185281090833352 0.006585135331244774
-0.000796590963840592 -0.0331735192950212 0.008384818633979826
-0.002277948327412041 -0.049385656917872424 -0.009101520627639605
-0.002434400848948797 -0.049477777372015634 -0.009045138508197619
-0.005727375947678267 -0.054316173838080156 0.005956864440510412
-0.0023719010399041755 -0.049156512524967735 -0.009064164356471388
-0.0013494717510141808 -0.03303002305751314 0.008267578357108752
-0.0058400800727081495 -0.053916613088107315 0.005859230438946113
0.007356070099900463 -0.05150251711378488 0.006364408932305042
-0.0013368803093445028 -0.03279894933820384 0.00827005612902427
-0.0013981598341488263 -0.03262897776125885 0.008255299477156263
-0.002692656101028658 -0.048992719433424176 -0.00893402500257559
0.006584180998085954 -0.051814603503332585 0.0069926133948412066
-0.0009065179976048963 -0.033018757175526874 0.008364077040029493
-0.005423564025155839 -0.05424428397003532 0.006253813368106316
-0.0020489462421790514 -0.048635989240798615 -0.009162507606822237
-0.00242527333041172 -0.04871308158350033 -0.009033143527889392
-0.002661428010793152 -0.048666491830826664 -0.008940263359349141
-0.00543806413643654 -0.05407628589453851 0.006242663148944836
-0.0012271735492325993 -0.0322889413526979 0.008296946042269198
-0.005364301432720885 -0.054163539475024336 0.006306550346986404
-0.0022861239427679142 -0.04864911865628295 -0.009082101795893922
-0.005985289692394251 -0.05382627546255718 0.005695587617205393
-0.005797708765950492 -0.05366859164117638 0.005897540449326145
-0.003258117425329276 -0.049199276196301836 -0.008686902897461124
-0.002977657248048027 -0.04902853382162025 -0.008814692834588246
-0.0007839695180194301 -0.0325261140813751 0.008378487966835997
-0.0005107371352814727 -0.03270489769929078 0.008424699893376042
0.0066956030910700634 -0.050541567620199665 0.006849492800719392
-0.005783822383262446 -0.05331330156821623 0.005902910340909105
-0.003475605764435493 -0.048826517272967794 -0.008571714185268677
-0.005553212905809454 -0.05343394419706757 0.006116672947656943
0.006736921569552926 -0.050472586474534405 0.006813276696154842
-0.005454481619846551 -0.053780006456736015 0.0062278047732686834
-0.005321974659306085 -0.05387067622755227 0.0063447502015482205
-0.0029469296702273433 -0.04867420670981529 -0.008820784249725124
-0.002717776946082536 -0.04847700905585409 -0.0089138058061041
0.006939068862326667 -0.04992511324625119 0.006608231361138903
-0.0002701310293285586 -0.03303388008745993 0.008448702358954386
-0.0033961994548480554 -0.048395524458507665 -0.00860506000871892
0.006883771860858631 -0.049974842750399234 0.00665616376258905
0.00035447254113782237 -0.03351713961322032 0.008497475866335218
-0.0030835508428653457 -0.048123992770406576 -0.008749489518878292
-0.005783944928470188 -0.05309417951958095 0.0058965684815450005
-0.005832238664156386 -0.05297855201431374 0.005842077247272789
0.00722329176664385 -0.04932385926764221 0.0063147094306721906
0.00727719113653378 -0.0491428147111594 0.006252217563696512
0.0006057267724477911 -0.03321995411677584 0.008500000461935997
-0.0022775844347953846 -0.04815041340689463 -0.009073824641378687
0.0069001112553773655 -0.04894109151497393 0.006567071774748905
-0.002174001311601589 -0.04816878824728479 -0.009109542939202273
-0.001956288722664361 -0.04817530279423963 -0.009182014080923203
-0.0022037836090149526 -0.04811329785009185 -0.009098115007836863
0.005285430683659399 -0.04986202978852 0.007694411249444957
0.000768233031281048 -0.056864932689874075 0.004759565970715361
0.005369235462166531 -0.04967957238985214 0.007641882432564561
-0.001962814401059442 -0.04775505471769727 -0.00917222148305072
0.0007776350396714439 -0.03274470953734758 0.008488999679684639
0.005902439730226146 -0.05044398995620462 0.007375583478532679
0.006037591473840014 -0.0502664524858633 0.007284741241984891
-0.00019010973150274888 -0.03261575145236447 0.008458631980219577
0.006316473899836749 -0.05086216712377407 0.0071362906087731205
-0.0030960995407388965 -0.04782786429629249 -0.008738632595439888
0.0062535233757338715 -0.0505456298292853 0.007160006712063369
3.1384348605545956e-05 -0.0325846119676514 0.008475755221104888
0.00602513257073143 -0.05075709185523464 0.007323524663777678
0.006093428765610754 -0.05050951437036755 0.007260383171592814
0.002042901580692993 -0.056085469418833606 0.008809684337449511
-0.0012030726464243476 -0.03184278762992613 0.008301362104999873
-0.002397777419956987 -0.04784018281621795 -0.009025111378159542
-0.0007893645016181004 -0.03201500048031528 0.008377033694245582
0.006252581610816566 -0.05019766144232058 0.007137112560949902
0.0022252036865292044 -0.05570890376877505 0.008788605198895112
0.0022181893685436988 -0.055615673690746534 0.008792061155871042
0.006355907776987428 -0.049971595313753475 0.007047820437422464
-0.0025459017666900384 -0.04751925267583496 -0.008966175558671775
0.006216620683157919 -0.05019514103743912 0.007161570123826171
0.002325276697848481 -0.05517852263368085 0.008779029178108272
0.0024479469544318555 -0.05502297531439195 0.00876533925450412
0.005604446664565658 -0.05052840714536293 0.007555265082998637
-0.006482344370949642 -0.047174905232324524 -0.005993130165581
-0.006538508193670571 -0.04716274715590711 -0.005917369090560942
-0.00031262023012784094 -0.03181227051432069 0.008442333356222437
-0.00027565234578693596 -0.03173384509242263 0.008444334225214935
-0.0020351677167298383 -0.04739623507261338 -0.009143093461079374
-0.0008651383460688983 -0.03146632010399804 0.008358971742528143
-0.0065899224519601445 -0.046742099414834315 -0.005846153454202634
0.005757722065946035 -0.049926401143366717 0.007435840654855409
0.005887125134190827 -0.05001026938153348 0.007360781857847557
-0.006465906791762028 -0.0466097151799221 -0.006024274479698052
0.005837306026832493 -0.04958343445446664 0.0073647501150239224
-0.003660541131367723 -0.04845420915508039 -0.008466662553792633
0.0054611709520948635 -0.04985250134461788 0.007598435557331111
0.005610055044156158 -0.049734093963637926 0.007509786248116551
-0.006639691276674636 -0.04666978214047024 -0.005774276634110655
-0.003883588076015392 -0.048418408910288147 -0.008337904546440296
-0.006561429748977304 -0.04633929730100662 -0.005886267395569034
0.0006594210456337402 -0.03255763275428677 0.008492047568206196
-0.0034396659788425744 -0.0482859194692661 -0.00857943500921633
-0.003600021715728349 -0.0482069461242063 -0.008494595754749494
0.0009045562707584486 -0.03216672162105847 0.008481694098727574
0.005789613663386553 -0.04863391794501831 0.007345797066699033
-0.003824581836185964 -0.0480928229170792 -0.008366461063773187
-2.3054664870605708e-06 -0.03225704852350466 0.008470378712816404
7.355299253977921e-05 -0.03235453393938984 0.008474727235276772
-0.003867285990845837 -0.04793991723548428 -0.00833873555115575
0.006403165874916193 -0.04919967643969116 0.006961610396147818
0.006267245873478216 -0.04923749014549479 0.007062661718756254
0.006440136194200947 -0.04969261929647443 0.006967516530970224
-0.004415082445647274 -0.048583614161693184 -0.00800553357642294
0.006635166060910396 -0.04952961118410469 0.0068126809698332005
-0.004378070897371221 -0.04823843217839635 -0.008021075780723183
0.00630088968055658 -0.049610199585037894 0.00706191579873032
-0.0068404417322124 -0.0460817395700366 -0.005471882271943161
0.0006413869705942218 -0.03225059313373567 0.008488536321188487
0.006483128802576974 -0.04896161875263008 0.00688599437816368
-0.004449840306545984 -0.04803951195020158 -0.007967056977317276
-0.004148060327314096 -0.04833664583494764 -0.008177277860402062
-0.006189062288580254 -0.04592746662425246 -0.006385299773121152
-0.004141178155518234 -0.0479673394952266 -0.008172423722147375
0.006612391443162974 -0.04901724793712995 0.00679134854929095
0.006775126110450117 -0.04899352641180507 0.006666992882042588
0.006628537175997727 -0.048950611838834826 0.006772955469642581
-0.004414176705502194 -0.04781478912409712 -0.007986414532794011
-0.0044917359244159355 -0.04769834922755391 -0.00793186007709998
0.006005881952193329 -0.04928632835646363 0.007236461006524321
-0.004425999429281738 -0.04768201477431344 -0.007977296416601266
-0.0062096845419280875 -0.045486877804435145 -0.006345314889098758
-0.003992539516924672 -0.047992574595285636 -0.008265666407732616
-0.003974828068547693 -0.04792619649253296 -0.00827534617185867
0.005688741964085119 -0.04932486076877335 0.007440422394956353
0.0006980683411047883 -0.03140620413998835 0.008481902380155712
-0.006212114082329556 -0.045336000618677964 -0.006342774201028067
-0.006339389162693131 -0.04530727029209397 -0.006184548470639502
0.00606336030161549 -0.04885339482775311 0.007176966958396328
-0.003343218572296195 -0.04772096918127021 -0.008618009352209882
-0.006600951877920775 -0.045753151162861966 -0.005829247462492434
-0.003304728980991664 -0.047484247895622465 -0.008636361419458265
-0.0010690332882469188 -0.03094276368627451 0.00832821581003407
-0.006839146420887015 -0.045799264728485514 -0.00546922022074103
-0.0007683039416066715 -0.031054611512433765 0.008376979386417098
-0.0006182653415611749 -0.030997099249595938 0.008399234326366425
-0.006403824637536287 -0.04517964465635946 -0.006097334126822465
-0.006489190095680733 -0.04503874844819038 -0.005976943865441846
-0.007184223025505806 -0.04678308402763642 -0.0048926640490441105
0.0007970467828721042 -0.033593673497455956 0.008496038893221373
-0.007376453449572561 -0.04577738684206433 -0.00452351093067068
-0.0034974894480020286 -0.0471185318012331 -0.008532318225103391
-0.0073151720251637305 -0.045387635001438845 -0.004640022758170818
0.0007649307378956093 -0.03335838093251671 0.008496201564156638
-0.0034524235791181194 -0.04680980191688472 -0.008553323396166025
0.007371138267770909 -0.0514696883493592 0.00634822726768847
-0.007322639258418798 -0.04516674285956504 -0.00462763713411521
-0.00404172561435346 -0.04750586547298113 -0.008226892324869391
-0.006111128021470312 -0.04512138819984182 -0.006461793654912572
-0.005937143893003368 -0.04505330329899216 -0.006656906383507243
0.007488141290606138 -0.05047485602350659 0.006167592616414906
-0.004308553127217641 -0.047440785330380285 -0.008055253133148631
-0.004143929505013805 -0.047461579388028904 -0.008162395823724683
0.001369520843387919 -0.03305835153959856 0.008459989260707726
-0.00412023522986925 -0.046972510097154654 -0.008175434551453324
0.007113471441421868 -0.05032439649919572 0.006495757981645216
0.0009325941499356341 -0.03295693045004984 0.008491039644255901
0.0010381620266406864 -0.03279687389725483 0.00847917398732411
-0.007486067727042547 -0.04550095758561469 -0.004274317514056222
0.0016322612320318394 -0.033171376005010494 0.008440418002638546
-0.003748352613270299 -0.046817045431077765 -0.008394577264315911
0.006889934564887261 -0.05087960525200652 0.00672152687424055
-0.004105710244275222 -0.04678265900639077 -0.008181985123866966
-0.007756327070763263 -0.045685785382589716 -0.0035981312869917768
-0.004034414920422172 -0.04657950177659501 -0.008225444260642166
-0.007676057286369657 -0.04548840505423629 -0.003819386130743096
0.001106302115489889 -0.03267058965085644 0.008471382287194896
-0.007790652766536477 -0.045448742249284746 -0.003493966180430681
-0.00783771322177261 -0.045459994689557 -0.003354656054602281
-0.0034853371732500834 -0.046768972857108376 -0.008536286344766386
0.00137152607704066 -0.03243873044502196 0.008448881361223105
0.007461248910131127 -0.050130319542971626 0.006166437927289887
-0.007501470048474607 -0.04536915112108062 -0.004241495442866783
0.001666597042363804 -0.03268856492245017 0.00842046932576782
0.0018421340809194862 -0.032843968667193475 0.008401971914496605
0.0018669983199319563 -0.03254602198998591 0.00839055413361843
0.001605683033582049 -0.03232570144639624 0.008418447993365783
-0.007505560711041446 -0.04501245065652471 -0.0042237635475921905
-0.007533899586737823 -0.044906776662129284 -0.004151710588031393
-0.002176048865032077 -0.049428328422458354 -0.00913907361686901
-0.0021007461315905467 -0.0491596452117888 -0.009156697835015921
0.007671777304954024 -0.04963882553799685 0.005902919473588139
-0.0020665941467052093 -0.049100325870766307 -0.00916713385976561
0.0016410231733368112 -0.032026897102505156 0.008416520174947014
0.007748086981924841 -0.04942175175112828 0.005791627097822583
0.001355537613283578 -0.03170680908426205 0.008445222000850818
0.007402011991234267 -0.049552946137918406 0.006157240989090386
-0.007983903174371011 -0.04555215635854217 -0.002864955201755252
0.00740727161287422 -0.04927323024497084 0.006133003748244806
0.0018581646904038715 -0.032137265265469644 0.008388086538248511
-0.001818799996621869 -0.048327935026491235 -0.009228380223519546
0.0020136665594890682 -0.032188210150578156 0.008364836965335005
-0.00795900678245147 -0.04549165278912089 -0.002956447853630304
-0.0018371922859012108 -0.04814382057278945 -0.009220183079496864
-0.00791383032708172 -0.045002706527230346 -0.003108884182482189
0.007314456771353391 -0.04939855618794678 0.006232680776725807
0.0017801469039757552 -0.03181068280600998 0.00839150682034939
-0.001677909876943043 -0.048042238509763344 -0.009263181546219633
-0.00801860255472273 -0.04531147918430274 -0.0027377697428867306
-0.00799783864112472 -0.04505640257431272 -0.002818864110938793
0.010263308570696308 -0.050990628298053266 -0.0004083308524945389
-0.008083077444606925 -0.04521207992838062 -0.0024717878058192243
0.010255875342718277 -0.050782006398503075 -0.0005277431559658133
-0.008061572924213847 -0.04476044805975063 -0.002518189590603082
-0.007795073801659093 -0.04480232049753859 -0.0034288250328167614
0.010251760331805275 -0.05072617011401545 -0.00022031811545209808
-0.005071078448310443 -0.038946376664112 -0.007695768783716103
-0.0049217027877435995 -0.03870287426738442 -0.007798842906241603
0.003329839204707757 -0.036732970839151904 0.008184018587730286
-0.0016232042318278714 -0.047072210628321384 -0.009267710775276619
0.0034145174597363225 -0.036780782786212884 0.008162210243681502
0.0102028944311167 -0.05040054231647324 0.0004088193317200358
0.010287529258316677 -0.05155499791056441 -0.00010088099145986997
-0.004534108698993362 -0.0395076087152181 -0.008004280086414406
0.010278506419681968 -0.051328544937259274 -0.00016527956477324038
0.0036564330491940947 -0.03643601068988819 0.008107233574665654
-0.0024335623443417446 -0.04658596530803475 -0.008997909679533646
-0.002156530990701845 -0.047193723642262986 -0.00910420942013466
0.00293021555077682 -0.036943352157573606 0.008278514486637452
0.010259020745903456 -0.051157158620622235 0.00013747826330924367
-0.004344277734743628 -0.03907506737725794 -0.00825453445534154
-0.001871082521807624 -0.046833186561138176 -0.00919262915256691
-0.004447687030008695 -0.0389096095040433 -0.00818049955554244
0.0024789110795249585 -0.03671503014624298 0.008366457599274773
0.010246796766361584 -0.05116513719955848 0.00033231552637910525
0.002695465637770619 -0.03644183512744706 0.008315524973741991
-0.0046118210249787486 -0.038798881320308606 -0.008045324375813203
-0.0022982328143538763 -0.04654568133874458 -0.00904614263277791
-0.004856083160608376 -0.03910368862990742 -0.007851154203355082
0.010218470971952704 -0.05100673627105507 0.0006290485721524627
0.01024322792137236 -0.05085430154284524 0.00010740697417741657
-0.0016926255745736013 -0.0467932796453841 -0.009244638516111028
0.010221970959873167 -0.05063479104798128 0.0003585938297547839
-0.008215163602730662 -0.04569243075919657 -0.0018539939951984087
-0.008238729579214432 -0.045580655211392755 -0.001725869351319439
-0.0016865767934537037 -0.04625434878264452 -0.009242800726780648
-0.00211734553979011 -0.046462902183287504 -0.009108666528108008
0.010227468088754441 -0.05035116730746247 -0.0005201984088367109
-0.00811681129960949 -0.044886378398546097 -0.002319276555744958
0.003251662288650772 -0.036600166749262156 0.008200695319678297
-0.008266116113454357 -0.04553256623337908 -0.0014499474739477413
-0.001995148414536691 -0.04598509454521475 -0.009143088076417984
0.0032228443132788116 -0.036064974790354865 0.008191935462673213
-0.008275358033754355 -0.04546728830815324 -0.0010487631523204354
0.0038424874608293537 -0.03732051881525463 0.00809875509627407
-0.0013288353950943247 -0.045973094224041416 -0.00933233800692173
-0.0017092070105003143 -0.04614007652880702 -0.009236857022461157
-0.0018875627766914023 -0.04598611501683383 -0.00917675956782368
-0.0059425596429014665 -0.05243472593172472 0.005735108698245726
0.004167309337694396 -0.037144091862007934 0.008049065375563212
-0.0017283255288798802 -0.04566446749127062 -0.00922284062376564
-0.001514240185121403 -0.04577467396656218 -0.009283376357189212
0.003847023630630116 -0.03685996667032786 0.008090060342466926
0.00374646675928869 -0.03674181028088673 0.008096288129880252
0.004037448702026805 -0.036523105675768816 0.008067042435508574
0.003811423607706352 -0.03629726550173322 0.00807789980364415
0.010209530803086099 -0.05000684357696253 -0.00015592298558177167
0.0102135270771135 -0.05007178981374839 -0.00012230149593011726
-0.0012463764184175196 -0.04532044297456153 -0.009337008012078235
-0.0013383000582977097 -0.04518868073584945 -0.0093172996321211
-0.002961531735997852 -0.04678915440162067 -0.008786080679886073
-0.0060242281263912 -0.05190958314349336 0.005655784121403716
-0.0031585510984825788 -0.04666311704132083 -0.00869561843386311
-0.00298964609580336 -0.0465614439427528 -0.008770907207816174
0.010192455584198908 -0.04966053375628682 -0.0003335706002504802
-0.0030117722518388504 -0.0464955975830523 -0.008760295422096016
0.0032549213098211453 -0.03565183416002182 0.008169189913668374
0.010164734972554539 -0.049236314180407706 -0.00023194013188937765
0.010178695688795461 -0.049572828183921544 1.0689688232415111e-05
-0.002791216496047246 -0.04629626079750535 -0.00885470432103027
0.003650511378110862 -0.036003616903694406 0.00808634802740322
0.010162686642713154 -0.049362046299225915 0.00013182046555460138
-0.005684283636056961 -0.051479388516367526 0.005974137446621725
0.0038620261514790387 -0.03582842387940844 0.008059887824064431
-0.006248668489091942 -0.05107862293819396 0.005340353437806107
-0.003955904430234409 -0.046382535579264875 -0.00827130483198331
0.010193776758874416 -0.051258313301667094 0.0009076955048279423
-0.0062846827684161985 -0.050834430529867615 0.005278445753051145
0.0101938435080186 -0.050889774200466316 0.0007668196437270238
-0.006075893653414182 -0.051192541727538676 0.005575820306058224
0.0034212004790751646 -0.035016409516053754 0.008119182377033627
-0.006048263606894146 -0.05101053988039329 0.005593557588392252
0.010149592585977049 -0.050877721567656846 0.0010461259133184887
-0.0059582869031251035 -0.05085838262090072 0.005684891667867181
0.00392488899472062 -0.035588701448601115 0.00802929361970492
-0.005864868864353407 -0.051301612357906604 0.005797972539299806
0.010166933747697542 -0.0504863704029304 0.0008121427902549853
0.0040656354953093965 -0.03529319942134782 0.007956503599853355
-0.0036182893483614584 -0.04586182624792493 -0.008457798149280214
0.01014211707205482 -0.050382715179679696 0.0009557494472322874
0.0101255900698344 -0.050164271571978655 0.0010043001099890162
0.004067915146643466 -0.03624946810892057 0.00804447112415976
0.010085895689127294 -0.0507695237982749 0.001351392558757084
0.01005522344960994 -0.050874039296460324 0.0015345683325150108
0.01003873147666049 -0.05096707918103031 0.0016373278259714202
0.0027496167045863275 -0.035371823328489614 0.008280502711636203
0.009996483923312338 -0.050569167031226395 0.0017069316322140544
-0.005477371503696173 -0.05099615587103901 0.006152868589699653
0.0100586672822286 -0.05031921330812389 0.0013749915562976589
-0.0026989448455917073 -0.04672075770590147 -0.008897101482812114
-0.006453020389565122 -0.050634874387267145 0.005042223392844952
-0.0026153191625527634 -0.04652656769035443 -0.008928626756831572
-0.002718864042427395 -0.04639166941768903 -0.008884337911360651
-0.0024678864741077213 -0.046542230420940744 -0.008984933285151764
0.003509324568964128 -0.03458334537949712 0.00808506653867076
-0.0024545748249365004 -0.0462926775932212 -0.008987791643599249
0.010164791720394221 -0.04980255613962403 0.0005658166397810246
-0.0024163268615134473 -0.046319063090143206 -0.009002097018754521
0.010129973130006898 -0.05009315331744076 0.000951040047384088
-0.0066651757407404175 -0.04985270885236878 0.0047240399309456125
-0.002238153644046728 -0.04607483357861124 -0.009063960908441991
0.0038452582533458272 -0.03467479570484071 0.007998922394778847
0.003833852026354237 -0.03442519395300903 0.00801786808229822
-0.006596647951613634 -0.049975582601178854 0.004820183387716924
-0.002642526007572386 -0.045598775032610395 -0.008910881779244142
0.003827765275680304 -0.034160008276627074 0.00800899924474758
0.010146468299513154 -0.04952514948473584 0.0005858452031512547
-0.0026041994292228237 -0.045262099597911075 -0.008921633340645893
-0.006209753654791154 -0.050082792242222327 0.005359306283353545
-0.00625016901326118 -0.04997066441873119 0.00530182888985339
-0.0023847656209772567 -0.044826287401775036 -0.008998434834650145
0.0030043804453752923 -0.03447451379547757 0.00821204114470377
0.010085925474573345 -0.04974143461271296 0.0010769406332561602
-0.003518840548816837 -0.04515535782465456 -0.008505352806609936
0.01001216493785537 -0.04976587321905042 0.0014651949500521996
-0.006186485747137077 -0.04976910670687336 0.005381613814597147
-0.006110997851377164 -0.049570771066700034 0.0054733266803068045
0.003184400255601905 -0.03405881931045063 0.008170408366815663
0.0033973488497402063 -0.033978599624850496 0.008113562286669871
0.01008104716976916 -0.04905105025015296 0.0009553745916597695
-0.0027779122047583036 -0.04530292858680737 -0.008852866718306637
0.010067440385562525 -0.04923739476104995 0.001086403393166079
0.003800191435330239 -0.0339429620716568 0.008029191738923868
0.003520689572276863 -0.03392270077203615 0.008084833330742495
-0.006188451200610996 -0.05024148745161558 0.00538813936858328
0.010117747659187394 -0.05007886366534713 0.001024766905524986
-0.006171227415783945 -0.05002896847081682 0.005406325730982594
0.010075545158546582 -0.04840498115968256 -0.0013828378732322817
-0.0026602160566159324 -0.04485799421448592 -0.008894858720795797
0.0037655887223857114 -0.03324741256089796 0.008025143590034983
-0.00264644863121413 -0.044843822194346766 -0.008899991464721622
0.010066616385025786 -0.048200214885703 -0.0013756122691385671
-0.003002171258411717 -0.04473267683142655 -0.008747492459013868
0.010030009152254755 -0.047770854653057165 -0.0015399603369112961
0.0040183929413264334 -0.033618362630158896 0.007990015032848265
0.003841360868970292 -0.03308125948403163 0.008008065047569308
0.003966297053811091 -0.03306731124953561 0.00799337145596481
-0.0020678296352633634 -0.04586607369954643 -0.009119676616774194
0.003585930020264061 -0.03304775380950653 0.008042470792340183
0.003507249066091331 -0.03294421919718314 0.008063639892735277
-0.001953852653095002 -0.04555879080130079 -0.009152534614957875
0.0037925124462397106 -0.03263137372885219 0.007986891653876454
-0.0055478178746317785 -0.05033460827597651 0.006070752638217643
-0.005383489696100401 -0.0503476871923046 0.006237436621285733
-0.0060582384293602 -0.04983836068495447 0.005552040477339701
-0.00587831238282238 -0.05015441811423095 0.005742518944425644
-0.002031625806333138 -0.045358380042031896 -0.009126846497766263
-0.001859431571487152 -0.045163964212796934 -0.009178894488762164
0.002573330821820717 -0.032060411185608234 0.008257849339609848
0.002906689128202777 -0.03215740038607056 0.008190062037016516
0.0027616790903365633 -0.03210364080248365 0.008218440781876111
0.002769121703763479 -0.031726834522578934 0.008207862037084054
-0.002365974891130859 -0.04491391196051667 -0.009007402660796436
0.003063525364003057 -0.03167782188072236 0.008142694276030376
0.010068272033836034 -0.04757171695935153 -0.0006866562378332044
-0.005591970221373194 -0.050009155485919415 0.006067990438585959
-0.005359051229484253 -0.05017951690518539 0.006277086014891655
-0.005649442864702096 -0.04981303366557231 0.006007989611719922
0.010018835799557362 -0.04697506322532437 -0.001240173518020993
-0.0011566100649350135 -0.04750751025279388 -0.009387260918931276
-0.0011488486290182598 -0.04731558093113658 -0.009388221546527088
-0.001696325446911249 -0.047426315736751025 -0.009248330282620596
-0.005302339077078315 -0.04990247031107991 0.006339185592880666
