0.0029440429748699773 0.06070086856502567 -0.0026700751701638505
0.0031380972152057333 0.06091825045359901 -0.002276758466676968
0.0031158803924613257 0.06109672073777398 -0.002318204362628245
0.00557413225417301 0.03455187762721651 -0.00455174832499575
0.003232940001143268 0.06045481815745149 -0.0019410574571654363
0.005649718167320605 0.034273308855803555 -0.004244054127578092
-0.009876742859215595 0.04890155229975349 -0.001548797397266787
0.003260287110397754 0.060432372415337936 -0.001358269668827533
0.0032713208055055523 0.06067907740087913 -0.0016049302747398056
0.00559361119907143 0.03463657691589711 -0.00456671861873534
0.0032256302646509714 0.06116559212805064 -0.001970143721433844
0.0032368641218397647 0.06139103248929251 -0.0018967030159681671
0.005777479626734158 0.03477375417166105 -0.004268256819611313
-0.00773726659010236 0.012743062786746948 -0.004844099692687596
0.0032846761350024613 0.06089195585909377 -0.001527210943171734
-0.009935546465560594 0.04944111662316627 -0.0011296681932244112
-0.007954727261438274 0.013026493059267001 -0.004468030377540148
-0.009943319073427315 0.04913824294875405 -0.0010158848128377998
-0.009939191822644515 0.04931464130709329 -0.0009699797197127841
-0.009929200273720382 0.04955542688711795 -0.0013297936309951885
-0.00995479966350094 0.049966178711769484 -0.0013957971097142156
-0.009933140617602622 0.049752769458088465 -0.0014311675211432938
-0.00779854982356635 0.013456412754903462 -0.0048457969650625935
-0.007836907627549738 0.013755728098185663 -0.004798394509102929
0.00212213317015332 0.061358948556971334 -0.0036091018917944616
-0.008054303981690466 0.013094777052184274 -0.004336390406803445
-0.008103605694293272 0.013254665293452903 -0.004294153733089896
-0.008236527259194926 0.013218806860674996 -0.004058444827782547
0.002206300322746495 0.061784968321424556 -0.0035286735845439423
-0.007962366117373117 0.013894022815528784 -0.0045472199210987736
-0.008163812388889304 0.013599694127386912 -0.004198503529124473
-0.008056442240680577 0.013995669772220908 -0.004356659589359765
-0.010033564051814752 0.051107922522095714 -0.0016836177537254558
-0.008036754812854987 0.013447138309543447 -0.004410391770838309
0.006059917239601225 0.03406306271031073 -0.0033522989897039335
0.0027424367365562205 0.06136074053241457 -0.0028562259053433966
0.002767664862457035 0.06144127937556336 -0.0028288194963355124
0.0026812353145135833 0.0617282007657548 -0.0029155763458986305
-0.009940017293879002 0.0502873750136391 -0.0016577341717250325
-0.009987516613695444 0.05026298540609341 -0.0012358795824870521
0.006260544597387267 0.03346983784836183 -0.0031591492261604844
-0.007649131861259141 0.013778828151333956 -0.005161558622502156
0.0029548697280999303 0.06172226968483336 -0.00257068809732723
0.006531223282959938 0.03278309023372198 -0.0032143141697588604
0.00229179597793707 0.06217516614055846 -0.0031138440672033767
-0.0076919053738802225 0.014059601022400576 -0.0050078677845087904
0.0022626020003430254 0.06221453422029717 -0.0030883734317772053
0.006576430638858635 0.03298445310207154 -0.0028357072445492253
0.002461715319265714 0.06221686866221557 -0.0028315837721518966
0.006054763011525327 0.03369771239563197 -0.003468676392528272
0.0029607630198543837 0.06188240615566663 -0.0024789840156854122
0.006212844204019602 0.03362085975272791 -0.003172717294321401
-0.007496053365913345 0.014509969802545418 -0.005354076240343543
0.006104014801973668 0.03397104392085788 -0.0032706662749993746
0.002152725394431472 0.06238163163039105 -0.002457693501921262
-0.007870935185199384 0.013941969617095706 -0.004730218765064436
-0.007838931646264908 0.014306942077383806 -0.004773138835028091
-0.007999453862780101 0.014240192175990318 -0.004470247383495783
0.006692125076831788 0.032896091593411135 -0.0026011292999371756
-0.007999673633739109 0.01441711225782676 -0.004475420494832685
0.006459812425114817 0.033433563991667734 -0.002664096373693925
0.0028860053695639533 0.06212351562441839 -0.002026698754802085
-0.007863770806921449 0.014537740022944461 -0.004763635526195268
0.0031158793892627846 0.06145161625770862 -0.002315001204938308
-0.007834460818592457 0.015027229871571002 -0.004847054721008061
0.006532136493989591 0.03340742220836873 -0.002449568338348717
-0.007888849083066515 0.01510698214302032 -0.004695758112624335
-0.007866605839108667 0.015034825453970896 -0.004766708873145614
0.006311248260760726 0.03369073516733851 -0.002889119521413216
0.006222926113075497 0.03413420327973529 -0.0030133894447085413
0.0062367738364500274 0.0338785655594082 -0.0029934695347785495
-0.008287425281442787 0.013584467231991602 -0.00395856716778897
0.0030245051882966433 0.06196761886136799 -0.002067857821397671
-0.008404316526844618 0.013338909754738719 -0.0036359527152571795
-0.009684906687022977 0.050937668743541026 -0.003140357907341111
-0.008336860390299485 0.013291431704167675 -0.0038316902895753104
-0.009712675872732814 0.05113148438656391 -0.0031125724746281303
-0.008271719236622146 0.013779626550344917 -0.00396272375196867
0.005867842899706457 0.0350555688282246 -0.0041499529487789835
-0.008203750132761051 0.01406667253159163 -0.004060496410721536
-0.009707085445195043 0.04555474590739119 0.0008642873161051815
-0.008265329075235384 0.014075870471862342 -0.003929953420327078
-0.008150753314128924 0.014283352609612276 -0.004150800366468738
0.0060415469344719305 0.03515508985448043 -0.0036538961585173223
-0.008186515138289541 0.01445863928141666 -0.004036122647653847
-0.009512208654387688 0.044831057626225634 0.0010466273243654608
0.0060780275344183956 0.034741195598205064 -0.0034213810791403937
-0.008069688062401706 0.014824856975248444 -0.004225109596287827
-0.009455464165484784 0.05220998294036454 -0.0041114428332014365
0.0062357934816529076 0.03505490882242867 -0.003189736135138009
-0.008003754227309957 0.015010101170616784 -0.004365055532581125
-0.009509707073438893 0.05225559072923845 -0.003881986601837565
-0.008162958588931107 0.014885400924977263 -0.003978602823947916
-0.008118982470845823 0.015158809633536212 -0.004030389936109323
-0.008098404564036977 0.015094104059905591 -0.004088333509793182
0.006321896552906063 0.034876666921308065 -0.0029711197604416688
-0.009442188028320905 0.0524979875713453 -0.004235597000370898
-0.008160704192355537 0.015084712881827932 -0.003945781152095098
-0.009577684593924659 0.04517113736810335 0.0012449102330087433
-0.009465350714843317 0.052614393537410084 -0.004218666687791325
-0.009509664918549278 0.05245007889847825 -0.003984619801496969
-0.008388824956714882 0.015010414498522712 -0.0035053083613401856
-0.009492347102664073 0.04507005335852085 0.0016432493676815543
0.006598483287970126 0.0335512196778458 -0.002072378844151701
-0.009396766795812424 0.044591197298080684 0.0015417024484639353
0.006464025952012175 0.03388157386791477 -0.002396985124749206
0.006508589277242649 0.03402518981877648 -0.0023085734063422146
-0.009633809658852695 0.052588090147294056 -0.0035430322918692313
-0.009671355250167171 0.053042016102860384 -0.0036990336215603978
-0.009626115696973771 0.052838644251807176 -0.0037043775872572854
-0.0074572563406092324 0.014899918593993167 -0.00547880529203006
0.006625760524697473 0.03408361349466493 -0.001896723057430139
-0.007346324039828758 0.015163139300649199 -0.005663864681582894
-0.007715301060254823 0.015050923880178452 -0.0051383585302966295
-0.00951868088124464 0.04521554169817826 0.0016383087794028604
-0.007571435623434528 0.015335312181771334 -0.005446206130644445
-0.009470508531829482 0.04515481935091654 0.0018061749104387773
-0.0073428100142445005 0.015907125420832315 -0.0057345132669895426
0.006580475151752975 0.03499411877056721 -0.0024645991682578357
-0.010047246664945487 0.0515892626722938 -0.0018119056641090867
-0.009741349526974887 0.04562176371750542 0.0007207140581664687
0.0065497738443438935 0.035110054155225806 -0.0025310005257335546
-0.007528465930792233 0.015950194190890703 -0.005457041701108713
0.0065756715931578925 0.03536059624010997 -0.0024347991593029017
-0.009731870115857216 0.0457669826198056 0.0009743462340895843
-0.0077439778826084195 0.015103853286145778 -0.005065670412850748
-0.009803945239605759 0.04599787981371524 0.0007087730288502983
0.006657342226079582 0.03506327307081618 -0.0021980827932737
0.006640413344118714 0.03540121543747648 -0.0022366608112798004
-0.009811482225042766 0.046162816029042826 0.0004259591233747301
0.00667219575972464 0.03510209049375353 -0.0021179563374397583
-0.009800881235972251 0.04646331207963383 0.0004976434495621612
-0.00757008936799655 0.01604657436402589 -0.005363505142741646
-0.007780038765421769 0.015760776315952907 -0.004867935340693871
-0.00979792542336299 0.0465219487262433 0.0006208455317465998
0.006759333533784576 0.03503221714119198 -0.0015328492349316134
-0.009784323030455686 0.04622668004039793 0.000932943141648948
-0.007409189679217599 0.01700921545177473 -0.005727636195743211
-0.007604869662717105 0.016727886548733546 -0.005303115942393954
-0.0075800425298035426 0.016736424166699113 -0.005377457702885106
-0.0074609589711161954 0.017158845410902925 -0.005609397041715485
0.006746277569639733 0.03312886867905356 -0.0020286700840310627
-0.009724803655950883 0.04658535113101262 0.0012450379211459226
0.006675904472086025 0.03338109142401408 -0.0018992312519028715
0.006800342226539651 0.033210012449822815 -0.001570701978532342
-0.007244795430156305 0.01636972362996624 -0.005848274599186205
-0.007456151288852889 0.01614590666457201 -0.0055441623253144195
-0.0074409258087559625 0.016363898572450786 -0.005591217846907362
0.006828194161697106 0.033226267243823174 -0.001339704235202117
-0.007269614655743668 0.016517990015700566 -0.0058324120108697985
0.006712276864445257 0.03366825284318364 -0.0014498596878455908
-0.007062779507409088 0.016713849720240283 -0.006096991620457242
-0.007353515981477314 0.016632161288760147 -0.005752188754134633
-0.007265803269797672 0.016920559738569665 -0.005921037346977854
-0.007578365644679379 0.016320362055404956 -0.005346531435334286
0.00667059994950577 0.033770791025901865 -0.0015978316060820347
0.006727038774964771 0.0341058593414627 -0.0012135567116842215
0.006752276932230454 0.03435743915863661 -0.0013852133131162813
0.005892022168937454 0.03534352773062831 -0.004129366720834439
0.005709214026581422 0.03564304251391495 -0.004435618501228353
-0.008126733273499113 0.01659077851002559 -0.003940634075669988
0.0059692223273674 0.0358417933350361 -0.0038596157752290835
-0.007908011651444804 0.015580149613333729 -0.004570774350943654
-0.008014169291134658 0.015292704433319815 -0.004289516976145849
-0.008055474271935046 0.015820328061492795 -0.004233610016237186
-0.007856044458639475 0.01587871730941074 -0.0046857094540142755
-0.007803069042085021 0.016211461041054333 -0.004775881699498618
-0.007952570808450327 0.015846097495154837 -0.0044853864268754855
-0.009547859907997412 0.045941577625621205 0.0017219258534743214
-0.008156048550032421 0.015492398642276356 -0.003967814689742107
-0.009588504539520286 0.04636794690383234 0.001683741262538215
-0.009618082760441723 0.04624686297687207 0.0015361489777260121
0.006160569664773572 0.03560842251111478 -0.0034702466843823687
-0.008198005673478486 0.015929434159132377 -0.0038909222891249924
-0.008072519715841171 0.01598911040631308 -0.004195462521058809
0.006183441396587551 0.035798467400335474 -0.003435350784041228
0.006290672662047065 0.03578465597314116 -0.003223595671401087
-0.00950045229327617 0.04663758215047617 0.001962437735336421
-0.0076878420246673735 0.016793561605519782 -0.004923759755434357
0.006062468385188705 0.03626682366037769 -0.003661985472967125
-0.007681303979584216 0.01685521369008015 -0.004934700563852578
-0.007635804213068169 0.017204740348454976 -0.0051001649596584455
-0.007764848818420966 0.016955533147148823 -0.004653745683983104
-0.007720694378995499 0.01724966051502449 -0.004859179361449329
-0.007995968851855073 0.016631867765418223 -0.0041922089606104135
-0.009985890543612198 0.04802514732607176 -0.0002399426431187816
-0.009973468167405637 0.04829289564509506 -0.00039903821414638275
-0.007969008332542217 0.016878576458578008 -0.004207791927932924
-0.009956289279205584 0.048471309025330714 -6.331223735431092e-06
-0.007865528476576145 0.017559420614337348 -0.004690437329028978
0.005903524542370339 0.03657176924281159 -0.003842010699854294
-0.009913196309046109 0.049018800687519876 -0.0004730616014564453
-0.00799908759339434 0.017507999131897028 -0.0043923847035614964
-0.007955217488069532 0.017454415802623746 -0.004448724671846982
-0.007781512763879601 0.01637397402648931 -0.004774764392352406
0.005946610122029268 0.03706356253108746 -0.003853616474663383
-0.00783569690148018 0.016602930088079195 -0.004539749542374074
0.006085195236020971 0.036989436390255634 -0.0037000560933462007
-0.009873288009461727 0.04887481990258724 0.0001901012554841762
0.005894274958278508 0.03713735499128234 -0.003942360305773147
0.00618830305237554 0.03710939511405479 -0.0036289692425158287
0.006095832254633674 0.0374041778814615 -0.0038599939405806684
0.00646250807280081 0.03610035086003439 -0.003015563895294023
-0.009816159810515127 0.04679504269102831 7.057179917504359e-05
-0.009852582185838194 0.04713450670326952 0.00021934720689455102
-0.009856723872355538 0.047182312889860134 0.00027543045632401266
0.006511135781602897 0.0356698480584328 -0.002731251370086485
0.0065316819553935136 0.0358460857240102 -0.002775439517044869
0.006616214625037316 0.03548732304447278 -0.0023334147300875688
-0.009968809559060984 0.0477984233171463 -0.0002658102034512544
-0.009953475684455908 0.047627614549424394 0.00019377719812410372
-0.009993365379377585 0.04786594799076644 0.00012568001265922987
0.006566232665748762 0.03603208011498695 -0.0027665255432598596
0.006585841043971557 0.03636519545354492 -0.002818132473074618
-0.009761650720341523 0.04723094972678877 0.0008239063083707217
-0.009715755461112426 0.0470313397368475 0.0010593776483311746
0.00670453173212294 0.036003591986483674 -0.0019390269078365249
0.0066853970588647334 0.03558270745212793 -0.002084699770403091
-0.009860777136929098 0.04756800965074123 0.0006505011921172943
-0.009960706127790145 0.048030092096743776 0.0004949725227113022
0.006678101572201908 0.03623656325808029 -0.0023362973156952228
0.006653110832583905 0.03637859020639955 -0.0025715305043202043
0.006702176041927557 0.03612356214541348 -0.0019917578729423363
0.006690915924782051 0.03640050344326144 -0.0021201423362316022
-0.006341237292894921 0.017646751849303238 -0.00690177273206943
-0.01000742375398071 0.04815414069858835 0.00013438761589033382
0.0063982311569431545 0.03683689026406113 -0.0033063742827278116
0.006558795894964458 0.03665591064865427 -0.002964447418113269
-0.006561048526558908 0.01714888748520193 -0.006708789464438482
-0.006868291556985938 0.01698184454653326 -0.006341509925710854
-0.009906384704138564 0.048290260143063944 0.0006917325384802143
0.006317853387564259 0.037180269027088986 -0.0034925656172452536
-0.009877573688804969 0.04856377591403976 0.0004906035223862089
-0.009897160244362446 0.04860850756801375 0.0003008697938651347
-0.006652588593561182 0.017435109938822375 -0.006602484002523288
-0.006653240781754567 0.017328648324503166 -0.006605319792190535
0.006500905635632262 0.037390375071357895 -0.003228281102498467
-0.006438333200506215 0.017507366702166918 -0.006824904871554955
0.006500657561829347 0.037442978668438875 -0.003238591714346137
-0.006801388886741919 0.0175083413559782 -0.006462978306663329
-0.009638937252172478 0.047192207015434307 0.0014665885688555226
-0.009681344298652944 0.04739441462519277 0.0012447492015227597
0.006608504488218718 0.03730547772028684 -0.0028728895061832876
0.006630055729578704 0.03750180317059315 -0.002819070836625938
-0.009723735706478283 0.04762629779802185 0.0011281467374369425
-0.00975914142461903 0.04790694753825409 0.0011530301582038359
-0.006276054916854963 0.017786112860041253 -0.006946129905106823
-0.005973425934000924 0.018113423172760698 -0.007160869617004084
0.006659728015753193 0.03664860744294356 -0.002418603228431851
-0.005927082411457415 0.018103968251185883 -0.007194327153686052
-0.007380359770930532 0.051539203920062795 -0.006924025191137918
0.0066471854412099695 0.0372377927906216 -0.002406764714815715
-0.00750320470669216 0.051733301320470965 -0.006809601675386588
-0.007598160939998265 0.05178165473382814 -0.006695245028566497
-0.005763240843837655 0.01817243978088237 -0.007291922321573378
-0.00777308351059272 0.05178723363797112 -0.0065010681332517
-0.006383001405422912 0.01779269172617817 -0.006848280878032041
-0.006414114800342619 0.018180795476016264 -0.006793302765992829
-0.009845963227292724 0.04818699051972267 0.0009444739463940877
-0.0098336173667693 0.04859290504502456 0.0007349944013959061
-0.009825843738118931 0.048461278398529345 0.0009048415117669107
-0.006116842329548775 0.018487847954147922 -0.007070349872612177
-0.009745763147562791 0.048307970947221446 0.0013367473515622978
-0.007512394357354127 0.053303499678556736 -0.0069663210454464905
-0.006351717519493999 0.01847146455629442 -0.006848127374588947
-0.006371240954732875 0.019000128097091777 -0.006776219767292866
-0.009838571815946462 0.04906485644660705 0.0007927957661575506
-0.007489740041990937 0.05349883187982204 -0.006991671202097037
-0.007399657160822303 0.05362604141742763 -0.007093125884883124
-0.0076054358753067965 0.05369121423440725 -0.006852663910969402
-0.009767464371649862 0.048802021975392317 0.001303699315549249
-0.00736581006194378 0.05317976947996385 -0.007117448905140206
-0.007127845528806279 0.05332254833341392 -0.007329797531541397
-0.00967852849181498 0.048387766398494486 0.0018234817298285533
-0.009712293181066827 0.04875733978361364 0.0017469688625395682
-0.009766239459067903 0.04900656548460592 0.0014307240928646359
-0.009112999774515629 0.024421546167959315 -0.0006446571835696091
-0.009112523528739036 0.024420121319494333 -0.0003797440528401038
-0.009105654053999497 0.02462204319152719 -0.00020934974382211523
-0.009115908323608514 0.02509429648802961 -0.0005978003008809291
-0.009064962915629115 0.024244333019720316 0.00024352362736718963
-0.009043739023555111 0.024442052186689777 0.0004614877539835159
-0.009102703230086719 0.025054902933125858 -7.703458005837635e-05
-0.009095418238502028 0.02528098002861876 7.889341051853136e-05
-0.00484263958509804 0.019358642203554186 -0.007995352772158517
-0.009073973105091823 0.024950095946986252 0.0002631625483457133
-0.005010675534271662 0.019508828340908602 -0.007865970000833418
-0.004938813522942648 0.019821046783536144 -0.007921318888420207
-0.00913129459085931 0.025565566734671166 -0.0006364964613101117
-0.00913315501958713 0.026153185626169945 -0.0008446872834405238
-0.00584962493351826 0.019102095472056126 -0.007272753214746542
-0.005458110575978122 0.019102416211848345 -0.007548845730427953
-0.00913089905342545 0.025871366959658644 -0.0004358495386688952
-0.009100566185135477 0.025461286302304056 2.409393678904405e-05
-0.00553730313122241 0.01940276737079864 -0.007526150110024209
-0.005757220198401668 0.019283705781733645 -0.0073641510079666345
-0.009135408478234845 0.02591167027514678 -0.0005801716578580478
-0.005226158916165423 0.019206765418201162 -0.007682360605774
-0.009142061465761861 0.026262864909124037 -0.0006095269756606702
-0.005447913593393105 0.01946910637463646 -0.007587012160458917
-0.005124944269459193 0.019327278183372827 -0.007756724421286711
-0.00742121189086559 0.054622336549217956 -0.007271695694104233
-0.005959526056936729 0.018960707700620895 -0.007175515306452989
-0.006234464529872415 0.019122529079571578 -0.006912616628403444
-0.006163634456709335 0.01927974156947944 -0.007000386064475944
-0.005795561659281993 0.019766235553438066 -0.00731248380519626
-0.0061909223116657286 0.019812494902418494 -0.007002816617118238
-0.007133234499100038 0.05600025540008023 -0.0079489465791047
-0.007569499453233519 0.05568368320737362 -0.007528307056795668
-0.00550514057343012 0.020037978626902864 -0.007500299475078697
-0.00522253785472823 0.01990037692535843 -0.007714009251463988
-0.005014291938807522 0.020117254324012603 -0.007859278879045351
-0.005377652243522354 0.020363253941977834 -0.0076042668976458935
-0.008877922668561515 0.02742103543733587 -0.0025168009734498047
-0.005772769232206987 0.020088703685530993 -0.007299671722590254
-0.008839003573710941 0.027229979413955524 -0.002650420749608772
-0.0054617569735159275 0.02029879809964186 -0.007537936161202753
-0.006036326946284897 0.020127689534653184 -0.0070809378326100285
-0.008759793469284245 0.027774595161366353 -0.0029631866939125477
-0.005568206690335852 0.020567420064132765 -0.007471611667365267
-0.008974182445787722 0.02759292082819094 -0.0021147292947838042
-0.005721152851868843 0.020796443435442298 -0.007357129009539474
-0.0055908321739854515 0.020904526877785677 -0.007481194360797763
-0.009935305865551445 0.04920433718360064 -0.0007078905489178904
-0.009935116477356057 0.049295718057798865 -0.0007076838014482584
-0.009902818644295909 0.04917033765659143 -0.00022590231327170132
-0.008910452344810367 0.02784718544572685 -0.002401846661416408
-0.009958957011771626 0.04973066596521462 -0.0009907850930107268
-0.009986952039473482 0.050008407008609444 -0.0009404732700076643
-0.009954313825980776 0.04969334389480743 -0.0006835871265816739
-0.009909350864328008 0.04926054934839666 3.4964454876288565e-05
-0.009956134722507266 0.049506818256474704 -0.00016879539479186477
-0.009149787413195611 0.026992313121769904 -0.0005886833114896483
-0.00993363053953748 0.04931608220174207 0.0003670908526976496
-0.003994303002229385 0.01933199741509796 -0.008393159067701581
-0.0091544104297248 0.02732114688618016 -0.0005450126739138979
-0.003926227014189724 0.01906736439080107 -0.0084618530372187
-0.009162286634383019 0.027520153202878567 -0.0006750915602809311
-0.0037957055390411658 0.019260560075920752 -0.00848486384673512
-0.010077757860891599 0.049976679126017574 7.496332565212067e-05
-0.003894953534781173 0.01977036476158696 -0.008421098473558576
-0.009142160290328744 0.02672809343339913 -0.0002533169932539203
-0.0033851307694932877 0.019563614710548287 -0.00863087892572605
-0.0036011451914717877 0.019909004376321378 -0.008561316424717642
-0.010071758114718986 0.05126031716057078 -0.0012252466390472122
-0.010090154485294895 0.051428344699753076 -0.0009214337202037032
-0.009019309903910252 0.028568705060504983 -0.0019936665703520215
-0.004291121674185352 0.0197816322552985 -0.008220296075654101
-0.00910094751999357 0.028192948108478447 -0.0015790198341409524
-0.010019802906637156 0.050624028814821934 -0.0010400158631964384
-0.01001568976479314 0.0503404854580686 -0.0007398292682107295
-0.009143379259797753 0.028101353897586223 -0.001275236325497833
-0.0041518170241273515 0.02018215388046717 -0.008303072365255407
-0.010022796419094872 0.05082865585379933 -0.0013933401737604258
-0.010054169619852385 0.05102574209353737 -0.001037869451527294
-0.010068405983943039 0.051142874353561504 -0.0009062741755445811
-0.009158382075090125 0.028348108841408932 -0.0011842100085836889
-0.009145148408045865 0.02874432501209521 -0.0013091216281188303
-0.009160214428229906 0.02852958731508005 -0.0011152094319551503
-0.010076071345121122 0.050550834547156656 -0.00014060762132701583
-0.010061375472817647 0.05084182303181718 -0.00041806902604738807
-0.010091932808953562 0.05143241113121122 -0.0007454936446864295
-0.010065475248773461 0.0510188494755627 -0.00027880434731625807
-0.008997853098108062 0.024616937900869197 0.0008158410240988516
-0.008975781344079638 0.024641375723351518 0.0009588038012190147
-0.010013904254240789 0.049575799598802164 0.00044356899337055593
-0.010040064652738996 0.049652403284918635 0.00035050590929194814
-0.00906234340707365 0.02509976060821295 0.0004099557280689223
-0.0071371818336079165 0.017546797631985574 -0.0061057820902367735
-0.00907196163205888 0.025477531739506818 0.000425397015127882
-0.01003057027008516 0.04973735385085837 0.0005902178838004792
-0.0069522983355633505 0.017930923670287133 -0.00631011781495437
-0.010086233141999362 0.05042033062323761 0.00010335854578272943
-0.00904812066911167 0.025447955402329865 0.0006130123605358713
-0.007133660071835368 0.01820708372970456 -0.006047742378752188
-0.0040217826040913115 0.05634082526015222 -0.009317752718414295
-0.007396020120577211 0.017236573156154258 -0.005734266173539156
-0.010054793324449671 0.049990370695300254 0.0005636644120907175
-0.0074664887503576305 0.017493448088524963 -0.005528408612134678
-0.0074799941870303645 0.01774818798136576 -0.005442522272408339
-0.008965793984779582 0.025111473327594995 0.0010670084633634849
-0.007226986046034009 0.017938240941142918 -0.005934455986145038
-0.00999095705929189 0.04994807818371509 0.0007915970687891495
-0.007242045293004795 0.018174687961332738 -0.005836056577054634
-0.007368347549116893 0.017955799997077554 -0.00564411167639293
-0.007290716658896187 0.018298695862885076 -0.005711372427121062
-0.009970869735669513 0.050061318036205976 0.0008590502739490534
-0.0027281442953843733 0.05630289257089218 -0.009473266268937902
-0.007017191275291713 0.017493108087835805 -0.006247103935808681
-0.0023480133475082383 0.05638747125139268 -0.009495931233636245
-0.009104434445869565 0.02600928147808825 0.00017226382710643827
-0.009904285224613013 0.05061503003922644 0.0011168638111209654
-0.003096790792055547 0.05622118281184498 -0.00942955608487123
-0.002959756463866094 0.056298457284198376 -0.009397048681155406
-0.009076206334235726 0.025744854467893118 0.00042795629773593807
-0.0033147740034147736 0.05638230664237258 -0.00925776881523132
-0.009122047730516851 0.02619196381270045 -2.7607013991395372e-05
-0.00912347309961211 0.026586841662471463 1.3952514853436968e-05
-0.0070221503364687205 0.018187540152916272 -0.006206988613821837
-0.002640130749390209 0.056532308069603576 -0.009224699439290135
-0.006986269340462313 0.01864753492224762 -0.006163020628404268
-0.009083132786451238 0.026191049814107133 0.00043303787739132625
-0.002685888393006917 0.05657430588553129 -0.009037413886499823
-0.009088003805951787 0.026493501196367678 0.000449912397941786
-0.006598708078827384 0.019026389374389316 -0.00653301589553524
-0.010069079471590102 0.05114047061336829 -0.0002496863312811818
-0.010073523412642608 0.0511582590695798 -4.12927880059286e-05
-0.010105624727354198 0.05157918637830852 -0.00023616222828392873
-0.009053182501385714 0.026082244209431525 0.0006728321382361653
-0.010081867223819823 0.051257618776659075 6.210715540851809e-05
-0.010100704549025443 0.05151527375810423 6.216859846331141e-05
-0.008970969983092394 0.025940553185272924 0.0011378624819910219
-0.008987689113662906 0.02603942838020815 0.001058406740185178
-0.010038187601573142 0.051142808309398574 0.0005028223842795524
-0.0021275072820221806 0.05646015139245721 -0.009494630984407993
-0.010009242701770268 0.050807273648963876 0.0006799843166592297
-0.01002349741219174 0.051079289477416405 0.0006016627510626305
-0.009953123302239039 0.050892048030910214 0.000907559259153478
-0.009923377775790627 0.05068208516973202 0.0010277542789724513
-0.007167145246939488 0.019134371615494805 -0.005854951085156631
-0.009976780299224285 0.05101346102641061 0.0008236264476856713
-0.007017707079963316 0.019403423176966986 -0.006018256837603763
-0.010061945483480144 0.05133327822643714 0.00044933413465247945
-0.006771171732346207 0.01819187586433328 -0.006462825443691891
-0.010089989025810129 0.05146838169460183 0.0002647591244177804
-0.010079243370906541 0.05185060798222369 0.0006718833855265779
-0.008898231423724397 0.026012323837440232 0.001462152342297439
-0.0063520915348530375 0.05622609185853134 -0.008503303882272318
-0.008915191688729613 0.02605682120387593 0.0013929759846888195
-0.008854920934262593 0.026181668624582193 0.0016485446965916568
-0.0075827983827251675 0.0177472070389112 -0.005224075035772914
-0.007718665134848362 0.017770456109707625 -0.004983056895995358
-0.005790525091552244 0.05551542575286095 -0.008765876943407924
-0.005738195722282999 0.05589701631218549 -0.008858686083412802
-0.009868742341730477 0.049405070406912104 0.0009926202036589556
-0.005503459346811032 0.055647653122140456 -0.008853800816907922
-0.007489985643032326 0.01794028371734721 -0.005402256295681183
-0.0056400928188095716 0.05593751775517811 -0.008890670161738515
-0.00544331474888866 0.05612041323982952 -0.008970598970578185
-0.007640955493386475 0.01810319006028288 -0.005127560486598106
-0.007536160573912553 0.018379598357426627 -0.005276072414996367
-0.0053810746558783425 0.05618106027255727 -0.00897015180719864
-0.007839204572317895 0.01783264570007388 -0.0048421857597753856
-0.007906998052323332 0.018095233037029413 -0.00477162544366605
-0.0080604966770087 0.017870667639160138 -0.004492754291268623
-0.007997660166975472 0.018169431596046334 -0.004614047824909327
-0.005850157322727187 0.05589804813184305 -0.008819096776533083
-0.0076660829235860335 0.01861766652018651 -0.005046954355163731
-0.009140886601299261 0.027208175144775432 -0.0001756316545588733
-0.007815387139297154 0.018660499909466683 -0.004792349442288742
-0.010074020357021127 0.0513574016520747 -0.0014110103422857857
-0.009152635164495071 0.027458161121079825 -0.0003723817776369183
-0.005711287060108799 0.05632450237638284 -0.00880995138291364
-0.006074882622394042 0.056209989379171224 -0.008684126105280701
-0.007405859375323724 0.018761361947647152 -0.0054843997361564934
-0.007319376299373073 0.019027997518823957 -0.005631028458909516
-0.00606301115161585 0.05650396069468753 -0.008543220046173756
-0.007507340200084352 0.0185610288736665 -0.005313939663984717
-0.007516597840467353 0.01908777656399084 -0.005285164163841382
-0.010102641601485303 0.05243255890102251 -0.001711686676040677
-0.010120125062112868 0.052035175088387356 -0.001296689475731477
-0.00914158405818879 0.027752734680626556 3.448709254916285e-05
-0.0073155728256196016 0.019141952442635484 -0.005632662286822255
-0.007212501973330539 0.019312103625923453 -0.0057913579527274035
-0.005060512703857387 0.05650128027181333 -0.008915279570414767
-0.007416315335418452 0.019148724003828475 -0.0054689621878509275
-0.005024200282370455 0.05643505271891651 -0.008949230794869787
-0.010133114706892116 0.05200487509008045 -0.0010508661176643183
-0.010127612322229501 0.051776617187140085 -0.0005775105237643679
-0.0078308740933121 0.01904354927236656 -0.004717316611154383
-0.01012988140974868 0.051831058234803565 -0.0008146193399396672
-0.009133035714000766 0.02739771387374164 4.34347270747408e-05
-0.00562582736936557 0.05683645287114349 -0.008552407172193327
-0.009101779098878958 0.026983150916757563 0.0003460956828435994
-0.01014703283599086 0.05244296691801792 -0.001313400492832982
-0.007816832690661284 0.018861486978100757 -0.004751956551791197
-0.009113658652502066 0.027294398987995135 0.00028037515506047837
-0.005098236876606066 0.05676716415223286 -0.008696660926898267
-0.010163493693339996 0.052543579906205104 -0.0010890312759497065
-0.004781431271455236 0.05677774557020037 -0.008615634222184938
-0.007518650501997157 0.019713022617236665 -0.005317971840968568
-0.007661387798961877 0.019578491149389074 -0.005061153735070453
-0.007760676471012995 0.019723687372010593 -0.004901970558526186
-0.0050467990593677185 0.05680131249881628 -0.008657997779947668
-0.00912090295403366 0.027749874394062825 0.0003232369804010834
-0.010073766098180625 0.05243923784280532 -0.0018993104600135973
-0.006540631770711336 0.019162282000533763 -0.006589896225811452
-0.010124391720231891 0.05262791372682889 -0.0016599885598484842
-0.006624509185751781 0.05607089115785206 -0.008332668519734607
-0.010141709970899417 0.05294925140433948 -0.0017149349424617959
-0.00659379175612267 0.019501043019124753 -0.006518609172543139
-0.006299117648708994 0.019808860197473348 -0.0068682902229710175
-0.006923468068236297 0.05595185003190574 -0.008101330887746333
-0.006135480560576691 0.02006690862435028 -0.006998497217409881
-0.0066449528870242604 0.05631341334610762 -0.008156062393995982
-0.010112508656709058 0.05342255121353606 -0.0022102412909754073
-0.0063582191979710346 0.020242140028446376 -0.006684145492141675
-0.009172042202994285 0.02816959926964891 -0.00025685512003819884
-0.010129146908001348 0.05318849270271144 -0.0019304025575196566
-0.010186638636491292 0.053553782392202126 -0.0019202711712758497
-0.009163668542630657 0.028788279949336193 -0.0007410348255441155
-0.006434067478348522 0.05647870696191647 -0.008223690126754935
-0.006272675271719804 0.05675162296858901 -0.00808028310273379
-0.010173982836043623 0.05300782884926774 -0.001541165984775651
-0.009175801928794771 0.028397293141505894 -0.0008060543743537747
-0.007096233538222399 0.05627441511137622 -0.007869515337957073
-0.009179389012304614 0.028491921059923368 -0.0002736240436423461
-0.01017900994172646 0.05279122257595599 -0.0012257768895749667
-0.007302998344676311 0.056308630247218654 -0.007697549231880223
-0.007072220674927503 0.05653573765206846 -0.007634091063949411
-0.00915301052827857 0.02805461714671168 2.5752785906521305e-05
-0.006528859192489736 0.020273164131162848 -0.0064582029004457055
-0.00668773279347414 0.020101182332319133 -0.006276503659477163
-0.010236382827566531 0.05341650922743321 -0.0014680354930025603
-0.006919376666135832 0.056487144720135815 -0.007799641952035899
-0.010230261963092723 0.05348095339786752 -0.0015787085340045835
-0.006360308812298776 0.019363419353881143 -0.006813921990354402
-0.00913874359159585 0.028472763177215765 0.00030387267325944294
-0.010283358911398047 0.05363976431016667 -0.001358723950615587
-0.00917463051421444 0.028517211250884723 -0.00013360662723612738
-0.0091403279733988 0.0287138365087568 0.0002865391545534686
-0.009149498800605688 0.02899878246836995 -7.502516699157554e-05
-0.005960680634433793 0.056783631373731144 -0.008389464293681802
-0.010146061854159246 0.05198161151070302 -0.0002859998514610074
-0.005476059178195962 0.056976980369725524 -0.008417406864748293
-0.006132001604396319 0.02064131809230821 -0.006899149032052602
-0.01016671723275117 0.052228265970597085 -0.0003688387869609875
-0.005844199061922085 0.020872021628595725 -0.0072515290801781155
-0.010178206355068501 0.05243005559282359 -0.0006842897094315317
-0.005912910591350511 0.020964815940827324 -0.007183721733456872
-0.010222847123043853 0.05269995794336399 -0.000628570161036336
-0.006143931794461402 0.020911894111149704 -0.006890501333254131
-0.010185668153161541 0.05237941318534886 -0.00016615650938209964
-0.0090302404578847 0.027283807326527132 0.0009050944929398926
-0.010225835995788883 0.05266829349902699 -0.000480337925664432
-0.006102869221028829 0.0212054742643149 -0.006996870316629253
-0.010173578671016398 0.052289717113406964 -5.4822247031031425e-06
-0.006506626440012423 0.02039712831151516 -0.0064610523036251945
-0.00636583110687475 0.02065412158040712 -0.006600822709688326
-0.010199702459520035 0.05247555509969213 4.556878151895863e-05
-0.009031842865005829 0.02751774596823252 0.0009110934339543629
-0.006526861436589866 0.020936744585984705 -0.00645045354133147
-0.009054131816269444 0.027848165513250017 0.0008147687964349367
-0.008997774714070655 0.02764440600196773 0.0011053136974565002
-0.010249371327711074 0.05285807369025042 0.0002580614425009045
-0.00900336013840555 0.027997175263650503 0.0011092191275852985
-0.006393846080480477 0.021122704607275798 -0.006635866311439916
-0.003945313268875383 0.055596671962030275 -0.0076780446362141735
-0.008863440693493985 0.02718607503676762 0.001668389286914081
-0.006645952201472143 0.021137209501521665 -0.0063922018925462905
-0.006486733772492178 0.021285498770588055 -0.006583443069172074
-0.010137359729833892 0.05192783213700171 8.701937442571057e-05
-0.010158056681321585 0.052159931869971164 7.637473367400313e-07
-0.008759307974525987 0.027146530598612488 0.002038436992419443
-0.00882534366261764 0.027639021848992112 0.0018372325146592213
-0.0039196882139492595 0.05608791475688513 -0.007893022102307795
-0.0035997051681424426 0.055819666404982496 -0.007891799949518597
-0.008934764618870938 0.02781174337059312 0.0014108306038938983
-0.004487193129485072 0.056332791892439414 -0.009174560216091988
-0.00439642718042611 0.05634352318764519 -0.009198553024413875
-0.0043106878441899355 0.05635027969037683 -0.00922639574198651
-0.010282071390058989 0.05327568342158807 -0.0008630140631678341
-0.010317352433059703 0.05342482032727596 -0.0006877302695762362
-0.008820134060586678 0.027690741225735192 0.0018571179411495551
-0.007169954899412601 0.01973012965097746 -0.005814567202633688
-0.004292582347593025 0.056626274344321596 -0.008872425040623739
-0.0070499097759112285 0.019988109389229937 -0.005913584649551806
-0.010268015124953895 0.05293501375582854 -0.0004419758516923612
-0.010293705059028432 0.05352153968838726 -0.0010792394778120311
-0.0072202238033699 0.020380548595963943 -0.005707730187560404
-0.00909095696371329 0.028588170573064967 0.0006754796696302857
-0.0039033174934282903 0.05653702928038758 -0.009056311948565689
-0.010344215473903554 0.053744564698079395 -0.0006504039969677842
-0.0035958847118675286 0.05648398068793276 -0.00905659734466457
-0.009134852404929228 0.028890028486992514 0.0003075867372316756
-0.004060628147912003 0.05660461690861832 -0.008921784046220634
-0.007480576137322163 0.02053592965639049 -0.0054186910623913315
-0.007412080762492688 0.020399786206683403 -0.0054959520904052095
-0.009077259301855146 0.02874191025834766 0.0007602362166016987
-0.0046715130460290855 0.05667633833385287 -0.008761774591415002
-0.010302753573505019 0.053161909656440284 -0.0003330665443344419
-0.009072108678104335 0.029215150401941878 0.0007257163294673761
-0.007548919915368721 0.020593409658950547 -0.005330737269107625
-0.004468890232301062 0.05673280054575356 -0.008276624574809974
-0.007547874208050691 0.021022619938616968 -0.005375432498800048
-0.004146436026078805 0.05665205609364896 -0.008510672516391558
-0.0090194734780169 0.0293413002462639 0.0010334309632550299
-0.0037857607022996564 0.05654075387499428 -0.00844982748828658
-0.010333628557319998 0.05352856297943463 -0.0004488846061446135
-0.010355044019111878 0.05393802595495714 -0.0005859006342446295
-0.004052442472662291 0.05641548031929317 -0.008063348395917293
-0.004217197087106906 0.05656848996569746 -0.008172337430878331
-0.007063972974663924 0.02085892388166773 -0.005930594718540993
-0.009057970763146477 0.028273885718891847 0.0008375098355800456
-0.007008257725709093 0.021020056861043447 -0.006017846843605664
-0.009068088258829968 0.028594254110990383 0.0008097208731708159
-0.00898843414046731 0.028413625329036584 0.001215115938040709
-0.002881616800641707 0.05597716308725539 -0.008170111773741514
-0.0030027368082875877 0.056279625805675026 -0.008338419428377618
-0.00899353291851216 0.028464878281814487 0.0011896860105751754
-0.0027296998862257216 0.05622798211934328 -0.008353682207818515
-0.008906295999358098 0.028341251011925955 0.0015578127222329516
-0.0030146997458093856 0.05652586467840293 -0.008850801521109638
-0.00894505381902812 0.028627811342845873 0.0014036733107992676
-0.0034948661359738647 0.05651097008223327 -0.008710044340481867
-0.0032174168776058143 0.05648175014680247 -0.008639563473460593
-0.00741747931066954 0.02133249955248983 -0.005556410951706945
-0.00902476258873391 0.029179756675977487 0.0010163999913894567
-0.002816937778118986 0.05651676284571866 -0.008745627677719307
-0.008939023857965328 0.02883556296784201 0.0014307538126551334
-0.007081569807684404 0.021789885778637497 -0.005985485606119823
-0.008974332164559054 0.02915686513745197 0.0012676825851638466
-0.0026590900303019934 0.056397566439845496 -0.00852042199447893
-0.007215353330126536 0.0219584044687251 -0.005816627255023091
-0.009879813952108412 0.050716846444732455 0.0012813769577660699
-0.0036752123960487404 0.05645405712092953 -0.008376931697558165
-0.009899844138040017 0.05117552626513058 0.0012365745939812696
-0.009841842572682063 0.05092143852762428 0.0015195028337610015
-0.009849750393695346 0.05107858237796564 0.0014461645501775713
-0.010056492424610786 0.05183744982882254 0.0007810329262765904
-0.008592937201069517 0.0137805330184276 -0.00302719910072762
-0.009965623085564817 0.051501366912524146 0.0010350048245982512
-0.008728978111037872 0.013711913032907887 -0.0025393736681491455
-0.008681938756779542 0.013841890748617577 -0.002737492641206366
-0.0098816447715333 0.0514795804018054 0.0013721688024448953
-0.009932325406253691 0.05181546353964868 0.0013450632174862396
-0.008829559115214674 0.02485031731894728 0.0016631225041115255
-0.00855653722375132 0.014247340466333008 -0.003152038660457342
-0.00887331650164339 0.025214592783718695 0.0015057665084437098
-0.009797801362595886 0.05167415090583371 0.001751250286845717
-0.008768223750802367 0.013823666587136043 -0.0024014601824858687
-0.008804866834098011 0.014047907650922144 -0.002308959686988952
-0.008773678870445502 0.02478756077707392 0.001858302793636564
-0.008878044513366708 0.014105738536662067 -0.0020382132019112244
-0.008689555028153719 0.02518633974365638 0.0021615254175705043
-0.008773480530164654 0.014226878774609803 -0.0024542057838984077
-0.008669942391579047 0.024798497756120596 0.0022039553165414056
-0.008806949522944805 0.014767604998767472 -0.0023909344836343036
-0.008806512823392164 0.025452965612296843 0.0017768512987785265
-0.008812766425818602 0.025515757639391862 0.0017577594464009876
-0.008725813045271199 0.02524589232570919 0.0020471367699016136
-0.008568406104588446 0.014851373979426452 -0.0031024979052698097
-0.008483573589617589 0.014822915908752591 -0.003313089139014561
-0.008568956870616694 0.05558165043078318 -0.0063778996320511564
-0.00858429213061005 0.01494046452206764 -0.0030580192822466015
-0.00841899319855394 0.015224725311497192 -0.0034257171627846716
-0.008713998527201592 0.02564589344933674 0.0021096258380100975
-0.008516456463505934 0.015242300728550647 -0.0032116949362840158
-0.008618597844755257 0.025800849095461754 0.0024117941780066035
-0.008325988982445123 0.055535719690027935 -0.006675764480759556
-0.008843607517997447 0.01508129391492817 -0.002319154585554176
-0.00875656751889126 0.015292820339247124 -0.002604277555594031
-0.008450308705028192 0.0556337116102444 -0.006546871816105181
-0.008677112692159813 0.01538641218762441 -0.0028128887047255665
-0.008104399295581887 0.05617357011743451 -0.006637428622407222
-0.008702191571326625 0.015883339248082138 -0.002610785770282543
-0.00879028081586595 0.025850620019204743 0.0018592617328859814
-0.009508884040497077 0.05077937641638624 0.0028259811874002403
-0.009419902686425155 0.05077687892242008 0.0030591693546062836
-0.008954304523722638 0.014346093031041254 -0.0017528400760853245
-0.008684692430884511 0.026092012939685643 0.002228033824012547
-0.009419505047024376 0.05093303639820274 0.0031110906766095006
-0.00889376652015542 0.014582103417921995 -0.0020736548390821686
-0.009328296204885124 0.05074936056281687 0.0032351693454505566
-0.008633375804227208 0.025918180404598656 0.002374294941329425
-0.008678911926721348 0.026212535727987665 0.00225418164111012
-0.008977133037140855 0.014583206557505097 -0.0016330609348695472
-0.008742615193269718 0.05525740187976443 -0.005961039086485686
-0.0089195111636382 0.05562891710028942 -0.005901675396905737
-0.008686492649340672 0.026578795039465284 0.0022505748122082364
-0.009575195513750207 0.051109042454807144 0.002894530873673142
-0.009005227558687764 0.014605812747778439 -0.0010353616656473207
-0.009014671967446139 0.014166740644919072 -0.0011999506740166222
-0.009014652882373355 0.014201796048801679 -0.0010059983921230438
-0.009015974452743976 0.014360868813545088 -0.0010824359814832448
-0.00899437708319105 0.01451754750437825 -0.001500994850312212
-0.008980020892124218 0.014885833390049927 -0.001516167915770413
-0.00898652721765041 0.014960387789478152 -0.0012970295318134731
-0.008293076314859009 0.05614578383962029 -0.006391574567713087
-0.008703628598277998 0.05585164083868159 -0.0061729371211750985
-0.00887765746039249 0.015037672957396848 -0.002145710784192965
-0.008851016851545183 0.015244682138227082 -0.0022536031776603047
-0.008320453905825665 0.05629448095294263 -0.0061058882612502205
-0.010226013071267364 0.05290860425421126 0.0005087244778508473
-0.008879062727923472 0.055977908593760194 -0.005836142204493093
-0.00873457938945112 0.015996989384996108 -0.0024046775416281525
-0.008637207398613513 0.05616325013985363 -0.005924202172682963
-0.008928729926379853 0.05605225707019672 -0.005696310484772483
-0.008779880201114918 0.016027397617395293 -0.00207928350963526
-0.008574519764575813 0.05644244997505665 -0.005469534338229965
-0.01016502469015345 0.052444465439947574 0.000780943337599802
-0.008365918420118721 0.056406590569833874 -0.005786240751841855
-0.010149276752887213 0.052526140022503 0.0009618469248569986
-0.008958915997140634 0.015264084541228169 -0.0011884612592046348
-0.008911351283776549 0.015528571746486015 -0.0014058960637267138
-0.008832563053117672 0.015893376900130717 -0.0017237475276541264
-0.01019865048693147 0.05272216388928576 0.0007100364687240225
-0.008795131708297946 0.015990095001445406 -0.001978865317741079
-0.009507120678141013 0.053745665015197064 -0.004344253143929266
-0.00949821512197078 0.053968938603662496 -0.004393315402322736
-0.008485137855473824 0.03006731492423729 -0.0036836946981239245
-0.008551497457884354 0.030242547357448326 -0.0034849035792773454
-0.010095598389193494 0.052541800719572804 0.0011762404422488615
-0.00981175705399746 0.053599870443830785 -0.003611394267949401
-0.008517880072861953 0.016170814156188377 -0.003078539580151735
-0.008540792184276998 0.01635040564550306 -0.0029684178073039673
-0.009948830683902002 0.05206293192460572 0.0013840517660715004
-0.008792781037757819 0.029869906825452576 -0.00285930250286905
-0.008819480697054434 0.030153905855166672 -0.002667074899349357
-0.00869343227669506 0.01603686684531322 -0.002577118683740135
-0.010171350769289492 0.05306374460086378 0.0009206092086997996
-0.008663050307158986 0.016523743445338118 -0.002462347364376986
-0.009527300346064058 0.05414453681945507 -0.004341198633148424
-0.010061177577820542 0.05292105762517618 0.0013268770739777174
-0.008696660981949 0.016445440330797572 -0.002322526197478942
-0.008685727481343115 0.03052212099231401 -0.0029786863782323165
-0.008706586654383583 0.016640826879965844 -0.002149721691960174
-0.009566379931624302 0.054915020684989393 -0.004596499684843225
-0.010281193736113001 0.05334417104668183 0.00021033079783668295
-0.00876808272735851 0.016315577917142807 -0.0018842086133645422
-0.009553376935985864 0.055095091827439324 -0.004742215839813102
-0.00875320800601469 0.016478652269680195 -0.0018737177759484216
-0.008768841770409269 0.016421017631480787 -0.0017804622335098894
-0.010192546130470846 0.05323849722468513 0.0007584176927782467
-0.00875861373879395 0.016696846536741902 -0.001699673574314748
-0.010256989850890802 0.05354695395088375 0.0004002697217653228
-0.008796908377141468 0.030519246418308048 -0.0025324931953452034
-0.008457419030771112 0.017831930934053022 -0.0030619453164367344
-0.008789015816449305 0.030632801183780166 -0.002487789928229618
-0.008492966887410443 0.017976214942656263 -0.0029979891368243595
-0.008823049651980403 0.03078828688600591 -0.0022508918224893658
-0.008629347697527979 0.01780045422888963 -0.002619916342231741
-0.008957258072105886 0.03031052199572559 -0.0019264218727165611
-0.009612962487519604 0.05498073700246764 -0.004521403036907562
-0.010306765123953916 0.054269010955933505 0.0003950507695686657
-0.010198790038155638 0.05367553028912703 0.0008438066956580435
-0.009655148968405646 0.05504806355158902 -0.004468678966681661
-0.010293589348043546 0.05423763908263625 0.0004757361896812781
-0.009774252688183356 0.0551792799929882 -0.004271974303301161
-0.010267017606789622 0.05434624651024996 0.0008347428310347476
-0.009871640198401064 0.05362829591561147 -0.0034428584483650517
-0.010174268594111045 0.053386025535911374 0.000901530689897458
-0.009808142624987257 0.05398011887042272 -0.003641123952280699
