-0.037176553310011455 0.01516182984045001 -0.015997656604766614
-0.03869721348106089 0.012893347024970518 -0.013699814967575497
-0.038011676330594976 0.014083571881620892 -0.01518936696151928
-0.037900730037977365 0.014722302673570333 -0.014679648009154871
-0.0379015177777966 0.012702014017704221 -0.016043517534938916
-0.03624473050976825 0.014947411672684225 -0.01614704660527478
-0.0360329488435998 0.015124818244951288 -0.01612298769133109
-0.03812603330472395 0.012772295152960515 -0.015667104489931943
-0.038268542405473685 0.013890220270514252 -0.014317297931414816
-0.03776569113534247 0.013502975662412878 -0.01591531884046902
-0.03559855581287481 0.015171175869602052 -0.016101659150746073
-0.03537870282736412 0.015718067998923717 -0.016124339899425334
-0.03593044112899636 0.01552096256262913 -0.016158938771819467
-0.03858941943344226 0.012641837652154295 -0.01516880996281646
-0.037296607536169445 0.013248229265198478 -0.01639977192538593
-0.038201667927229635 0.014282850655058755 -0.013528954470253825
-0.037675410835516315 0.013625931137607445 -0.0160148049524856
-0.03792814112721889 0.014801346397794457 -0.014232446982588924
-0.037754377070343785 0.013880837429412715 -0.015783126370331513
-0.03860730199963358 0.013127157594234167 -0.01442242541293268
-0.03834993045239306 0.013413149129952574 -0.01496254740985533
-0.03706108112890466 0.013622500866925139 -0.016380771792220406
-0.03683479307683841 0.016111254195062843 -0.015597674858754986
-0.037426444653733786 0.015688208505233413 -0.01458094206939433
-0.03737031116312695 0.014320340281348572 -0.01618417963993045
-0.03753687063409937 0.015505238079552907 -0.014531262114653082
-0.03655688988019917 0.0164447678401317 -0.01579501548430688
-0.02732517563183053 0.020945692533944606 -0.014375561303707016
-0.027623994348053516 0.021191574092265113 -0.01470026807008861
-0.024928620198003428 0.022846760959295255 -0.014044429494731663
-0.02718307328864578 0.021988990943256043 -0.014856626724826216
-0.02696107019569216 0.022085677577525366 -0.014709415130057744
-0.02671701214990492 0.02192460064867352 -0.01440276860501628
-0.024928817525454318 0.02231809052351275 -0.013709594907358184
-0.024991368387618958 0.024170731777993813 -0.014700928681248757
-0.026641130707972506 0.020470878749393077 -0.013675452964233734
-0.025340621850474705 0.02363934864862328 -0.014505604793155236
-0.025536574722584006 0.02355583915947851 -0.014572524885726561
-0.02623955488261782 0.02346012617616173 -0.01514060166972184
-0.025917057695355898 0.023700426578764894 -0.015062084882643965
-0.025145573873009225 0.02348387951693621 -0.014318473957473786
-0.025796854211241685 0.02331021371955831 -0.014614695520327896
-0.02754429826195641 0.021641944693007013 -0.014937540434721277
-0.027135351883375635 0.019952553767858268 -0.013744776273919498
-0.026474659223517823 0.022795019103162523 -0.014823439488850673
-0.024496735480264587 0.023180849947887994 -0.013940095959447531
-0.026569929224478636 0.02174316718390946 -0.014233246227798247
-0.026979271743989102 0.022683588514299937 -0.015213382728312177
-0.025639239055170335 0.021770810980796602 -0.013745246871068657
-0.026371033973792302 0.022485327527938997 -0.014517823048398435
-0.02736457387227602 0.01978971917128241 -0.013864329044476126
-0.025718355019237082 0.022237464296466135 -0.014180785535576234
-0.026908319064923494 0.020771129472394526 -0.014145213370991857
-0.03293402389051339 0.01967573192627011 -0.016141846653660988
-0.034633716455693166 0.020383548190070766 -0.014702010980968133
-0.03299538003982059 0.018216178520402672 -0.016260801047995023
-0.03611016814079352 0.016983893916724557 -0.016262754627807907
-0.03218581478451108 0.019267660449368285 -0.016236125266409017
-0.03499579591192323 0.019750189904849422 -0.014978640489755347
-0.03336513168072353 0.020715153874837692 -0.016180442727764352
-0.03443806902386702 0.020160586956357036 -0.015444163053564903
-0.034763765767882086 0.01967809155125992 -0.015619172759001132
-0.03458599681771525 0.02026319062586847 -0.014921029151325278
-0.03527487093090134 0.01789303191389794 -0.01643155461256516
-0.036448421605859434 0.016860194352211415 -0.015458610575832808
-0.03584202699830865 0.016837231349902726 -0.01640091801409281
-0.03544217452792891 0.016782627179485313 -0.01622046177830956
-0.034853242921338116 0.01990703979565094 -0.014980612232599833
-0.034100767523706124 0.02020985461387083 -0.016016935628799557
-0.034418535761918695 0.018465549551999957 -0.01617224226024634
-0.03361421873226836 0.018466107073057965 -0.016149469863128044
-0.034953430742323606 0.017865862329324154 -0.016236425660556022
-0.033615043515795445 0.02014591575746194 -0.016221636333019335
-0.0319706267042902 0.019954495960876114 -0.016324206999531604
-0.033463019150509185 0.01851084476647845 -0.01615280981634616
-0.03298228720426562 0.01743981989482653 -0.01623894314879626
-0.03401255116367902 0.019449448370970675 -0.01617229480384361
-0.03433689076471411 0.020769603890868675 -0.01492696768286473
-0.03344210961871199 0.01930744171534582 -0.016136110247927233
-0.03266534593729686 0.020608956660636734 -0.016272400879879325
-0.032518172246066214 0.021225465899555887 -0.016294426926138583
-0.03558909039056911 0.018676326588405748 -0.015347049226630896
-0.03412580467326554 0.020758235027391738 -0.015565247971884395
-0.03237724959822443 0.017662903331909785 -0.016183870405793485
-0.03590977390649566 0.01789415448735027 -0.01568437186678616
-0.03352808418491165 0.018433987368540253 -0.016154195673824118
-0.03493114380671638 0.017759536394083713 -0.016194490161023842
-0.03272531340525406 0.01961146356145259 -0.01615850122425616
-0.03275616904644493 0.017905939294003123 -0.016274693154195878
-0.033156173631063136 0.02046034757513263 -0.016265629254088337
-0.03224913984276803 0.018382636667689415 -0.016234494871730742
-0.03605025952527744 0.017180218280772885 -0.01615718645029672
-0.035430657601868726 0.0184849794915994 -0.015981102567216014
-0.03382429956990931 0.016980885647975823 -0.016253023861823812
-0.03230631141236103 0.01955107444495583 -0.016245489002890225
-0.03468868767762747 0.02039194741503298 -0.014606396331460408
-0.03523457934972269 0.020040088643868664 -0.01408298895072654
-0.03523007999105211 0.019250196608883975 -0.015354665038902692
-0.033424672542272625 0.01997785275393938 -0.01627544849690206
-0.03531287419733865 0.019287394487586887 -0.015084774692375564
-0.03346925782773863 0.01821118700026994 -0.01618218639187378
-0.03411807336825416 0.01922559080230837 -0.01615529319188851
-0.03453831893521657 0.018987159801280674 -0.01620304253300687
-0.035341718032182126 0.019189882124575397 -0.015177525769388432
-0.034958380120171086 0.020908095646644788 -0.013860970410524481
-0.03416593920909193 0.017588437187866242 -0.016166891032211306
-0.032543231008441545 0.01692133553093149 -0.016114454243917904
-0.03442251206554338 0.015886225072137484 -0.01613257829673529
-0.03268379409284974 0.015684451592993608 -0.01572336439246571
-0.03130061761808772 0.01621972321913159 -0.015153160859818306
-0.033298543665605154 0.016635327965574532 -0.016189399600701863
-0.03113303475012056 0.017222399659338614 -0.015271937947239033
-0.03229925602117367 0.017517543710473926 -0.016126432072747086
-0.03237639078580137 0.017101723894235376 -0.016071156954502216
-0.03236540680469417 0.01580190559906061 -0.015522588112329611
-0.0317447916536112 0.017370311903688727 -0.015720737960562593
-0.03426809759424326 0.0149157998130132 -0.01613811507432142
-0.03113501941199808 0.016780132596960203 -0.015188584844392125
-0.03341849455007833 0.015625500268491136 -0.01616919446698554
-0.032237325821982965 0.015492191731541212 -0.015380803281921871
-0.03303079649274616 0.015695718468011877 -0.016012095922886056
-0.03177422668091809 0.016704389669630237 -0.015497346460424697
-0.0317642863956956 0.016249440586167417 -0.015337566870854774
-0.033716157060436805 0.016508115113364575 -0.016184449274072588
-0.03142743603739424 0.01712360303075918 -0.015422962021300201
-0.03199661951999769 0.01643368187563212 -0.015540571653438286
-0.031631071086084823 0.01761610105720799 -0.015751295769862752
-0.034416055494818173 0.01605182390657387 -0.0161578117386902
-0.03573834632419048 0.018760538041799762 -0.014581080666175885
-0.03569993746644375 0.01965924949509108 -0.013621370795284797
-0.03730085959430665 0.016830340632205502 -0.013300151671734262
-0.03626950059575078 0.0183038050558258 -0.014077556568640185
-0.036043979075173635 0.01810677710939343 -0.015041644055110038
-0.03730678963432325 0.01711643774491406 -0.01314241136425483
-0.03699634830246788 0.017548840533106465 -0.013234755335987202
-0.03681731530823872 0.017121379405359814 -0.01405902317052705
-0.03676882903387342 0.016684684758565226 -0.014728499883453042
-0.037633591313172954 0.01661701092205143 -0.013106926626849431
-0.0360925590089486 0.01848614015582227 -0.014231054266770321
-0.03563544204478343 0.019383533728637162 -0.01412049547691499
-0.03629574435740745 0.01993228073587497 -0.013074194595871896
-0.036845092555857314 0.018181405325246255 -0.013151418647508184
-0.03549652066355534 0.02058057740513617 -0.013385631663619797
-0.03639966796916155 0.017226603687036973 -0.0150871002041358
-0.03747786735253003 0.01596422124910918 -0.013917429692024362
-0.03660213450501798 0.01776582117561057 -0.013877109987035246
-0.03639750982666386 0.01814261038708493 -0.013978116827456786
-0.03762717856557997 0.015497304790730939 -0.01405674273947734
-0.0361452469860588 0.01794741140394397 -0.01492033857059385
-0.03543697230455767 0.019570055977430303 -0.014121077202354124
-0.03522982399593547 0.0196772979852877 -0.01446862138458774
-0.03581690478323277 0.018313660516790994 -0.015367060236388163
-0.03775395071266707 0.01541327664748627 -0.01373362147240502
-0.03673856128539503 0.018209287997372675 -0.013182952236231931
-0.03765591452995112 0.017389148857058365 -0.012708538831234618
-0.037230512466516825 0.01644925709353581 -0.013965789522992073
-0.03584873760417764 0.018796536074093144 -0.01427882202737354
-0.037811957601657974 0.015635709994170133 -0.013383694098312953
-0.03651476799947819 0.017086397444848828 -0.014848333305937891
-0.037557276654173716 0.01645936021947034 -0.01324733933698721
-0.03481653695190193 0.015001993394594442 -0.01616825878206544
-0.0343792650932746 0.016388801783172133 -0.016209648948007287
-0.03473552491168441 0.016423929084952573 -0.01619524534612333
-0.03477231333203947 0.015991051569527657 -0.016144690777490003
-0.02005128938801421 0.02563843630035101 -0.013713867051603584
-0.020189376735907115 0.025181394606921606 -0.013582933433262601
-0.019990032797456293 0.025913373999902404 -0.013781255597224044
-0.020125486112179278 0.026601506944804412 -0.013746205019809509
-0.021269367406872016 0.025193089986292886 -0.013648130614550173
-0.021658642863982197 0.02741348642869003 -0.014732051326010596
-0.02063125971091978 0.027687082759885812 -0.014468583816064936
-0.021552772815338836 0.027084819009804688 -0.014432305117479227
-0.020777040347759006 0.028035750883609416 -0.014749768693719897
-0.021693340201184064 0.026733007927031004 -0.014355427216710088
-0.021826134425204497 0.027583947527273674 -0.015058537628162495
-0.02063395887034468 0.02627992773595703 -0.013802129027795536
-0.020238393472896042 0.02776689984879277 -0.014373863776637113
-0.020302234896291172 0.02695316112505429 -0.01417581689050426
-0.020577762796117102 0.026730516934104893 -0.01416633254972624
-0.022833897435988598 0.02523600584890973 -0.014223409905188975
-0.020625472758746446 0.02695080855641284 -0.014278162213933781
-0.021412944748897173 0.02769772837708248 -0.014793629556609853
-0.022278665425556232 0.026254963141363462 -0.014417599073717133
-0.02140872266875447 0.026798567594364497 -0.01427106748843847
-0.02218243955834808 0.026795504351718947 -0.014632854356253102
-0.020800856613891246 0.02833220207646071 -0.01508315103508039
-0.022533409049328282 0.02466732380792941 -0.013697447211314238
-0.021803807172450052 0.025357751601456327 -0.01374882463308638
-0.021227769864208778 0.0255505290109165 -0.013671169609858485
-0.01985875077052861 0.027834440407091352 -0.014261950267391693
-0.01982514102717545 0.02739146318874537 -0.014173975114008478
-0.018563015662663766 0.026356180674185086 -0.013626841283760273
-0.019034880892826136 0.026693255732778903 -0.013691077694166588
-0.019535217078860318 0.027150860117831282 -0.013868735662764134
-0.01963874150351213 0.02608661887711168 -0.013677037767087485
-0.017988071658530724 0.027557621270608477 -0.01380297617574051
-0.01902279726133884 0.026078883755969406 -0.013599287958392105
-0.020255436038138196 0.027027731115305424 -0.014221280551093698
-0.01793427875171945 0.02687360132851696 -0.013558733722497444
-0.01927498151486535 0.02627972568132106 -0.013639039967929537
-0.023230013711439613 0.024614493658066346 -0.014168962216635871
-0.0242278191137035 0.02378432276029287 -0.014175730886368912
-0.023835857923572967 0.024932219064801787 -0.01450344835509819
-0.02448745853813441 0.02366940427359064 -0.014201627664224005
-0.023143708573535086 0.024566997126471347 -0.01403423385864851
-0.023458095730649522 0.024404821901778593 -0.014168003033028223
-0.02345204705823004 0.024783077573615607 -0.01433688516434417
-0.022837598158211174 0.024311407519007285 -0.01364081853908985
-0.02373383985379767 0.02378789627938758 -0.013777631043762109
-0.023884362415039176 0.023646941253693182 -0.013788261598482666
-0.02026002838415785 0.03345566494579979 -0.016066763958461856
-0.024112357697791 0.029615388682262274 -0.016329428159916302
-0.020859315837707566 0.030988259711469696 -0.01636570927818132
-0.02073187158669701 0.029048781289370395 -0.015461273823703983
-0.024880080394398 0.025318674045131963 -0.015408004733680983
-0.018535074077636063 0.03286158954995329 -0.016304554567991895
-0.01881047873729939 0.03207520401261133 -0.016296330671603312
-0.01890901998884338 0.03237108360357549 -0.016321659426554475
-0.02342473089539276 0.030046709798734632 -0.016325299436012155
-0.021251137993749745 0.02886293678229997 -0.015571094941162477
-0.018711298395792934 0.033061095967918966 -0.01629520221938007
-0.01980917394265736 0.032223309354213796 -0.01637673674798904
-0.019453747817011733 0.031193095636109388 -0.016301803561375866
-0.020001355800196248 0.03076270118178661 -0.016306547343649135
-0.02445625193832711 0.030443212233736316 -0.016134374747343368
-0.025987488376660633 0.030174990288007845 -0.015571591244372355
-0.02501014941950273 0.02765596856200476 -0.016381854073133688
-0.021493825050150406 0.028933630824989495 -0.015824327204133036
-0.01934025031256127 0.03226349564670661 -0.016323713830685652
-0.0220845715184316 0.032072186886408845 -0.016013049758158187
-0.02039447816177259 0.03148907390074788 -0.016414056952231238
-0.020387763439273628 0.03128097337071161 -0.016398053982906766
-0.024171355140264247 0.031974430572762336 -0.015076454676991934
-0.023931986913232166 0.025950142893035297 -0.01523539140595145
-0.02600751230060902 0.02417159308586337 -0.01535400343497616
-0.02093790876427755 0.030296113830445594 -0.016319846163238748
-0.020390032196370315 0.029861349964823307 -0.01592171619212344
-0.024521290501918057 0.028203336714527422 -0.01631064193280808
-0.024327375190754383 0.02479394029149642 -0.014678101279216043
-0.026301474262282167 0.02937356981800924 -0.015704737859148866
-0.02553636474049313 0.03137953205373531 -0.014453350387571283
-0.02082405105669291 0.032482548835196315 -0.016206574280377355
-0.02123404370506916 0.0322204507437268 -0.016171152077033072
-0.02351219159258775 0.03277242676012255 -0.014451877846236468
-0.02173879522363531 0.03180072692315122 -0.016142383571525438
-0.021857890843416182 0.0308306699040699 -0.016407375981587844
-0.02130334339488435 0.034432752405376084 -0.014357903740663026
-0.026267660681514305 0.03081238654064376 -0.014093285286245337
-0.022556851552994656 0.028507030320267857 -0.0161224169977514
-0.02092655535538064 0.033464431665633225 -0.01573598871457667
-0.025051167799095487 0.030813592232643062 -0.015669366599048946
-0.021997578343508708 0.029547671308391057 -0.01638020650309536
-0.019325782630348738 0.03351967499585337 -0.016103418454380666
-0.020461737980850898 0.03398830884146558 -0.015269413272457105
-0.02290208563319643 0.03379864540386204 -0.013507082686273767
-0.02010709366908036 0.033671220210692535 -0.01594026244737899
-0.02123274961588409 0.030603715957576785 -0.016370298389066316
-0.02518111789965414 0.029111511544675853 -0.01623774940259859
-0.022866273009201 0.027260399950253575 -0.015387394702730428
-0.023501481795044424 0.033260004913072565 -0.013655901619110362
-0.020553570924996885 0.035238529616567676 -0.013900489403940081
-0.02529076903106277 0.02752050698472061 -0.01639764609700427
-0.02370949027305822 0.027365493513022053 -0.016020084163065027
-0.024316091122679243 0.03177891933987873 -0.015214405245900639
-0.02291494388166222 0.031068081657600662 -0.016167430054998242
-0.022817740693015735 0.02905761859095634 -0.01629082110695304
-0.021613806788588173 0.0342966877689708 -0.014258422263558416
-0.019793196382019932 0.033034713288157144 -0.01631546085786088
-0.025765679824915348 0.03106296854538091 -0.01481817014769071
-0.023818222498216815 0.03235349108870268 -0.014839937218008237
-0.02574441320950633 0.024716048436867675 -0.015477716473951018
-0.022833312839680462 0.02610938973555802 -0.01452613055310685
-0.02162932476174565 0.02966541505681804 -0.01633799524837174
-0.02654340762492675 0.027775811474479 -0.016314069788549955
-0.02473826712616499 0.025929866802118492 -0.015573238667588953
-0.02179772138017415 0.028297560402737787 -0.015473299632660514
-0.024034701987449603 0.03071354390409521 -0.01611220708513372
-0.020994322379818166 0.033118143714924546 -0.015964582826447592
-0.023330310684744615 0.02602577523838371 -0.014855693668671793
-0.025154136006085605 0.03105453227240639 -0.01535216830945132
-0.025383099127575914 0.03208771183829929 -0.013575058368785309
-0.024376655070316455 0.026637513813369585 -0.015752912375469115
-0.02258071576598225 0.029788082998358213 -0.016286844536391672
-0.02132601540618797 0.032468852052107214 -0.01611655735837372
-0.02032469403870319 0.03324340391378306 -0.016165042606273865
-0.022410035191114685 0.0324535386608011 -0.015746970695428467
-0.023833935712917687 0.030669402443457207 -0.016146659291232546
-0.02444706563764708 0.02521662949587625 -0.015211669417851131
-0.022060422055418173 0.027685079189694 -0.01523562435215138
-0.023607034179904295 0.027398167733510767 -0.015945910073126394
-0.02784212546720576 0.027562021185391097 -0.016136036055009042
-0.027093534982436274 0.028156421073203697 -0.016015375560560863
-0.026361768665155792 0.03091803301300913 -0.013745788004670228
-0.024453690068898835 0.029468035099530693 -0.016287107454551163
-0.024814308609674585 0.02853087516940337 -0.016343745750170387
-0.02646085110386582 0.029433799049839067 -0.015559538881876065
-0.02174040374483308 0.034582741565334515 -0.01386928110766841
-0.025135122415583463 0.029505435547100105 -0.016166769708483526
-0.026176580149153725 0.029607751161876285 -0.015679112432805866
-0.022139193319549815 0.02862494588301765 -0.015958310972311235
-0.027712823827826024 0.028004678286253405 -0.01605361751629281
-0.02372224281134793 0.026745057051752882 -0.015489288415553089
-0.02047937024053262 0.0340447066395756 -0.015220086489728595
-0.023012002275913185 0.03247605442918352 -0.015597977646748553
-0.02117370139124895 0.028520415143450814 -0.015347726566103934
-0.024913334488104018 0.02782368032778524 -0.016379428716128623
-0.02378257077845842 0.025465588812704044 -0.014748508786517796
-0.023474381104387976 0.026520994611396377 -0.015343489533574818
-0.024602740467421558 0.03213002747089701 -0.014250483861810536
-0.025391618524027437 0.028431393609101453 -0.01631023201908087
-0.021084840144370322 0.03334716849348729 -0.015755444346667893
-0.022130398384045624 0.03332055596683638 -0.015192646521405295
-0.024725986622422196 0.02484669986919264 -0.015125930139500811
-0.025507231674824035 0.030328277712653923 -0.015832456140870647
-0.021263532782686445 0.03418514779148355 -0.014741767581849252
-0.02347822807145726 0.03332738705583016 -0.013495026838617665
-0.021029151768983234 0.034097359844461335 -0.015002510696317087
-0.02069383087374161 0.03333216474118913 -0.01602768753011871
-0.02086350629327625 0.033728529848727345 -0.015420120963123073
-0.02622788445944159 0.02761707024671204 -0.01644463922509271
-0.022959480613900046 0.031781909979079266 -0.015982042782698103
-0.024150265821749783 0.02855648190300769 -0.01625643679040218
-0.025896342501123257 0.03066013946767843 -0.015216909260863257
-0.024278495628503302 0.027378117643959653 -0.016208916660172448
-0.022205696160555167 0.028724112670079772 -0.016090185334525935
-0.024393063922366946 0.031134666729510416 -0.01581363325668919
-0.024381738973800315 0.031414399838629634 -0.015630250073408118
-0.024656778056615935 0.027167784809793292 -0.01627330492317766
-0.025029269548623757 0.03173982787204833 -0.0143701860577025
-0.022605527415532227 0.027985401505548867 -0.015721818923778774
-0.022373393202380625 0.02774986035559372 -0.015421314303111805
-0.024067879491825046 0.027022662314375962 -0.015926357293346145
-0.020583409667268706 0.03362681175797992 -0.01571377764198077
-0.023542694112773058 0.03236787904151746 -0.015227581927604629
-0.028039581751168247 0.02767228193244494 -0.016121325916509954
-0.026079251318554854 0.025797262179359414 -0.016268894423899408
-0.026249662232848456 0.025536676081294486 -0.01625802003334221
-0.025369887210719876 0.02587728290984957 -0.01590181373554002
-0.023231743474399456 0.027452155569192505 -0.01560751510976581
-0.023255369322552028 0.02782265947799739 -0.016003819825715977
-0.021214378630692268 0.03356110991296688 -0.015427384137377625
-0.02677646379554651 0.028809384260144226 -0.015860629187171616
-0.02450315091687783 0.030667248928232995 -0.016009019791032968
-0.02641298157999806 0.027486971382151556 -0.01646629704253213
-0.02224028606217435 0.0328488688886763 -0.015548571582882732
-0.021904845219081738 0.030372519581771184 -0.01638466622427895
-0.021519275971290226 0.03174613758795948 -0.016220614830496603
-0.02335693415816293 0.029303727127323743 -0.016274023156833652
-0.023924514772111573 0.02777500748140178 -0.016291456811337306
-0.02578481065711078 0.030877005766952723 -0.015079627214445607
-0.023507841567253537 0.030704463018433277 -0.01618525053742211
-0.023399718061108486 0.02971148806901014 -0.016313433445887572
-0.020427067130516084 0.033679391349866396 -0.015724134095028784
-0.02395972530913871 0.03132247687031466 -0.01588661348769365
-0.02811781415944169 0.027549739090998403 -0.01613491614492058
-0.02398231189387883 0.03262937701172888 -0.01420703988079813
-0.023303478750058372 0.03148425848319025 -0.015988312144203713
-0.0223528645831361 0.028736303586198234 -0.016156325516156506
-0.02168714194442646 0.03365218210799076 -0.015075192310208606
-0.022391572966923866 0.02978834715456133 -0.016282708843953907
-0.025401443813878193 0.030339194144051146 -0.01588685068322164
-0.021620487957333165 0.03102726939404972 -0.016388636744414917
-0.020677224534283587 0.03387455820699298 -0.015319507972461212
-0.025920817968963138 0.028867734398397633 -0.01611143862578191
-0.021417994607353934 0.03427624128290449 -0.01450068001056851
-0.02291096119418716 0.03316987306087222 -0.014538211971197004
-0.022975576545356088 0.03293687810415342 -0.014958862317341795
-0.02625358652039573 0.03065799872779865 -0.014483009419734964
-0.02395019030293953 0.03152090307500859 -0.01576101510186475
-0.02501450306659094 0.030147243005824532 -0.016008570227035935
-0.025128315479244587 0.02544146752993961 -0.01552832576828019
-0.023019668328997493 0.03257860908497823 -0.015499216756947353
-0.022089656554804313 0.034525971313155664 -0.013475181380149283
-0.02191243551977021 0.029148956392188972 -0.016206701455267765
-0.024932034653753096 0.031455160021009065 -0.01495326541614531
-0.02269912009511105 0.03300315828123247 -0.015188079556375578
-0.025598415992413998 0.024461398033910557 -0.015237540745264979
-0.022232300998037118 0.03158452673883246 -0.01616283999950406
-0.024315969440536395 0.027020457810865414 -0.016095432954827057
-0.02253502839933319 0.02943174292426782 -0.016311212862043026
-0.025224304349531032 0.024366236269243266 -0.015020343804623797
-0.02034753568064985 0.030872729233000034 -0.016346724152255326
-0.014649123736529913 0.03867746089274936 -0.0035049046062325577
-0.033159411374780685 0.023503207233257606 0.006307956097670042
-0.03327963962195701 0.024098502459327577 0.007114646363783708
-0.01624737045371037 0.037976336020119565 -0.0029110982063138766
-0.022209546735115694 0.03481539281213552 -0.011704125323898452
-0.014978083134068714 0.03850052362989916 -0.0027717159198833606
-0.03313112856369403 0.02285591489778386 0.006639529996314802
-0.03319638777534066 0.024566476638632526 0.006695684912334462
-0.03324412049336768 0.024221510207928093 0.006430204283227085
-0.025769833549388062 0.03237060084496216 -0.0038926930061018365
-0.03324681761737209 0.023665603702921402 0.0067692538587872195
-0.02034046923465228 0.035843236875106835 -0.011471333516509977
-0.017748762409653954 0.03733500943107954 -0.004167792655946793
-0.032385940028024626 0.021037592797945856 0.005661148321886758
-0.026575906744032506 0.03173643015467929 -0.004002097480424878
-0.02029750674099253 0.03608939295326221 -0.005615186547514805
-0.01972699704139849 0.03639196230041338 -0.003637681380809273
-0.019721776408426366 0.03619574453692839 0.01232489573268744
-0.020663305850042713 0.03581059242048115 -0.0051095657029962445
-0.015969929510617084 0.03812329975894497 -0.003791368202800302
-0.018318881392793498 0.03702041045821162 -0.004632209320262691
-0.02635797359293593 0.03202268256502484 0.0008969701578510369
-0.01744305814922085 0.03750824224741339 -0.0037741806353420136
-0.020295031247293212 0.03592133463626248 -0.011159050122022559
-0.028665524962565185 0.029824539233537683 -0.00684772174738296
-0.02643188281287124 0.03179530054244903 -0.008946633159775232
-0.013238473904315859 0.0391426084247821 -0.0032792110376945673
-0.01368414932494633 0.039000467571146766 -0.004247258495217745
-0.02021241832597108 0.03672094134904431 0.01546454655806479
-0.017530859745492372 0.03748206735488866 -0.004829160219164275
-0.026236426443183424 0.0320767666261092 0.0054031881931054975
-0.01866104887697972 0.036905306992577956 0.005705589964302276
-0.019603376043313386 0.03626265978690524 0.012930611227261558
-0.01812945102862099 0.03712547253983739 -0.002589245488301508
-0.01777055472190136 0.037326586491862004 -0.00286001446577419
-0.024957105903790577 0.03296218543385556 -0.003336780367164103
-0.020511358727966597 0.035785227153136936 -0.01244107849823434
-0.01869775607322094 0.036816402639928615 -0.0019488599405640646
-0.0161293453731696 0.038018329413754534 -0.0023561317477431426
-0.025240791767534253 0.03303430374360127 0.01615593274360965
-0.01952468877458711 0.036344803562179236 -0.012943192105604349
-0.01362144457695346 0.03901198150822435 -0.0029515630702683245
-0.016781227872258754 0.037804503051416194 -0.0030997109030896077
-0.028880153188146507 0.029641351207569194 -0.007448294380715876
-0.024663204827477445 0.03310746670770673 -0.004389270471527206
-0.0232005562640672 0.034177926279284836 -0.008086370227688489
-0.01987605975720795 0.03633266170126024 -0.0035200403846535376
-0.03302332255464061 0.025584906138534383 -0.012633354503147464
-0.015477637021904031 0.03836361148330833 -0.003955849484026262
-0.023838175029381514 0.0338333208062134 -0.005148323766073371
-0.021356217570821526 0.0352660867928816 -0.008736685984594005
-0.03029568142616482 0.02821276550162851 0.007748098133894676
-0.02880873684477131 0.02974291105983633 -0.008879932418080924
-0.016506157298302408 0.03789043133731914 -0.0023921202901192274
-0.021788481266292844 0.035052458212319 -0.010261959580332807
-0.015598936991051585 0.038284228520860976 -0.00231351292773107
-0.03292120699106877 0.025034688505748193 0.00686486614051645
-0.03202980100964918 0.02615271785057177 -0.011066698074722268
-0.022052535133542606 0.034934181149663394 -0.011031061502199093
-0.018464665878784935 0.0369246268260286 -0.004282192451979449
-0.020423418717409526 0.03579635604590836 -0.011795202351092094
-0.022594428851586246 0.03446516666148469 -0.004541658972637346
-0.02938807970726249 0.02870833713597585 0.016064183627141217
-0.021237068494607443 0.03524907008012944 -0.012223324802920673
-0.014784514427533174 0.03859626165179019 -0.004045196425802979
-0.03422193965500011 0.023698816708093155 -0.012098990169625835
-0.02845050672857078 0.030944915964113615 0.015566153114297588
-0.013858629262877453 0.038930096122811654 -0.0020535439287895636
-0.02795774333044213 0.030380959846428805 0.010055115075771209
-0.01987399458475679 0.03632207982599167 -0.0033193567827386338
-0.027527654244533885 0.030851455738067225 -0.0061204973270744855
-0.013744894535184753 0.03897386149947202 -0.00210332168590411
-0.013577418922068672 0.03904449620793452 -0.0025445511397058965
-0.015404927880248873 0.03838548254238197 -0.0032219280469718836
-0.024872247796649975 0.033664925020101176 0.01592635773893166
-0.020964109822538192 0.0355614163802062 0.011951645646974174
-0.014701271096044327 0.038649502119410734 -0.003375719309266052
-0.03459805334247912 0.022872867368437654 -0.007461165084621687
-0.024606716441465296 0.03324842389399518 -0.005239128257871511
-0.013428891976932967 0.03910034488306949 -0.0033568924836293976
-0.026466677616487175 0.03174226802989391 -0.00536566979904223
-0.02655127378519643 0.03167905365660979 -0.005486141967575705
-0.030377009808890312 0.027861181722599417 0.011752566332408546
-0.022818733748907617 0.03437075766968682 -0.010041314323558733
-0.02101871435429143 0.03545953268806954 -0.009034548727472785
-0.017429494708936285 0.037487056852593036 -0.0025753993975291415
-0.0255675145138133 0.0326555980032063 0.01623017807862112
-0.031123684719391552 0.027232815852560738 0.008908899151049157
-0.026208619561025596 0.03196621750099107 -0.011517960398115697
-0.027550832323295617 0.030844014892195896 -0.006757115716178745
-0.022120684886935804 0.034774237104135214 -0.008798903593383197
-0.02252999039440967 0.03457624899600048 -0.011880090253622338
-0.018140199792865228 0.03712712875058528 -0.003934016849800303
-0.03310708349488022 0.025060684669381723 -0.011111514451060686
-0.02867788089830394 0.029802911798048424 -0.006308485562119121
-0.020710544365015463 0.03574260697933941 -0.007353081864127896
-0.01986246494807553 0.03610002013670952 -0.013142876366179692
-0.02026397259408991 0.03602243056493632 -0.008646929145167886
-0.029638973910352563 0.028597635412757276 0.016399589235548826
-0.02250432945148503 0.034621051865081326 -0.01020851704189356
-0.023393405758576798 0.03405944605095301 -0.011826344893039029
-0.026137551144369223 0.03193751981567876 -0.008718104862103322
-0.023444591742497592 0.034536867186421925 0.01587883671915751
-0.018175654175761752 0.03719165117946011 0.005092030500782958
-0.027021195339910067 0.03133285711974488 -0.006070375410040371
-0.02252970696027934 0.034590279626559514 -0.007172046920304743
-0.02317695128570013 0.034149831532403 -0.0122644623688983
-0.023948748541801512 0.03431696481314435 0.01560303897494224
-0.027463759761309426 0.030950963619674407 -0.008680400697646277
-0.024509108776978088 0.03273765863734891 0.014647079505713336
-0.022328053273301285 0.03499767069567519 0.016093703714098455
-0.028598430539408824 0.029877636861220566 0.006668103571572959
-0.019792132311060483 0.03614939251939068 -0.013102636202034806
-0.027974881646415522 0.030506905086853768 -0.007641479598218333
-0.02599264977091289 0.03214842775593012 -0.005248767833768094
-0.025831556279579403 0.033172288678409635 0.0153558127576773
-0.027348401158102567 0.030565473726476014 0.015174152405297202
-0.016440159125360506 0.03798594937404938 -0.004737783341635398
-0.027763345534640986 0.0306411024864061 -0.0026092206681216433
-0.02351637509029507 0.03396777960924299 -0.011672832211020782
-0.022858358412146656 0.03437380099432955 -0.01262790627785574
-0.017512062535009223 0.037389011990041215 0.012167619855271273
-0.027288767091921295 0.030609784831576302 0.01586753875999251
-0.02114145352069149 0.03489578083984025 0.015293848672452728
-0.03022701604012425 0.026406822266011085 0.014210796669172389
-0.027199173111576977 0.031187324651838027 -0.004566151492850714
-0.022826028693321516 0.03461718115346622 0.016198203431114395
-0.028831001954701604 0.029990904221752563 0.016230088655374685
-0.0207363753094395 0.035671783408820906 -0.01236673009843995
-0.020278050466343626 0.03590103629081117 -0.012320763936736492
-0.02554325357495666 0.0324925427914908 -0.005991078348771726
-0.024486921070910266 0.0333224798283881 -0.012009556590550027
-0.03048058228884115 0.027513480013276193 -0.010530089232712227
-0.02095077056350416 0.035469580560417144 -0.012876711127242662
-0.0243100923629985 0.033951048519415605 0.01585626385597927
-0.02600366396005128 0.03207359820817295 -0.008118749787264729
-0.02137093145296369 0.03527733225536138 -0.0016622091781878937
-0.020733286833622706 0.03659638789805706 0.014887023035294024
-0.02551197982332299 0.03306377214609781 0.015989594655584527
-0.032743495529131555 0.025477122895678238 -0.010731813146335298
-0.027160626020891497 0.03003272214013053 0.014223215706946643
-0.02318221225866187 0.03508942802741948 0.015017453690923978
-0.028502236841948532 0.029981756184844076 -0.0034284743391923486
-0.02540871045815826 0.03260647377716262 -0.012588297175423174
-0.032904307606562946 0.02536156099462332 -0.009273637579807125
-0.026867595546127672 0.031032093812714986 0.015029447076780847
-0.023022714546845804 0.03429031829327096 -0.0047685833308037506
-0.030747743387502358 0.027683731916677508 -0.004872205003783829
-0.030634754724144838 0.027804584329681654 -0.006270778141813669
-0.022406538972852805 0.03518261293943688 0.015841251249158132
-0.029312953904307566 0.029230819011754682 -0.004788538023779867
-0.02399901498790438 0.033599902119254205 -0.00607599438924057
-0.021345607915955894 0.035200069263131864 -0.012908155741477596
-0.021175421201985185 0.03565204559530971 0.016248655564386687
-0.02227478675456188 0.03532624005612472 0.0157737444975506
-0.024878967543922274 0.03241498132169283 0.014458339207815777
-0.025709931787529724 0.032398636639050536 -0.011847304164201164
-0.016884555939690554 0.03767110473649092 0.010986783251478702
-0.023078498435371568 0.03419279724055403 -0.009795354383647476
-0.02808330916113521 0.030396773899341895 0.008943185600521432
-0.024332856896138337 0.033390810245999075 -0.01152986070911538
-0.031380241154392155 0.02746954347343669 -0.012902752875794421
-0.025921969886497073 0.032209918889246854 -0.007617389950147521
-0.023155225957080767 0.0341886249213405 -0.008707216118254627
-0.029758774287447574 0.029358195394106428 0.01615605433354759
-0.026964126097753092 0.03207483937285774 0.015788049212307722
-0.029047671568225332 0.029422978778972358 0.006017527483480461
-0.016997883942893317 0.03776582963586203 -0.004832855062926146
-0.02446112292864029 0.03333097857108465 -0.010409459647944205
-0.024829236557906115 0.03292699973713081 -0.008593726292961358
-0.030320106340000128 0.02795392243290725 -0.00959875216960358
-0.03529391065518764 0.020648453240920316 -0.006278712573315538
-0.0258721366245747 0.03233387652350442 -0.0033857066154195955
-0.014888296035560165 0.03865301896597545 -0.006986295404870992
-0.02832716712364595 0.030169122074961873 -0.005476327971825276
-0.023996690780350945 0.03380346867626702 -0.003387009794571798
-0.017854661452277893 0.03710604903942873 -0.013365661669444652
-0.025050907939198258 0.032882878523177096 -0.010990607397909599
-0.023363105921301676 0.03392369728867774 -0.0089677535152028
-0.026751442096186497 0.03166123444507772 -0.010554216879766248
-0.02537458591179461 0.032571639369544006 -0.0090845554299676
-0.028006939905578 0.030466246426340354 -0.00524612184079738
-0.03199722541256668 0.022496709451222657 0.005604862300980744
-0.023234020066151714 0.03407379142720654 -0.00908221303765888
-0.023295346079828062 0.03413185744291002 -0.007029519106253813
-0.02572597363468416 0.03245949905722675 -0.0034164596610107636
-0.023056359338877952 0.03498484232724779 0.014561757354823915
-0.025438886574169955 0.032571847237208046 -0.010840783671850894
-0.030965895603572054 0.027149516389386584 -0.01131577524912366
-0.03519424551821719 0.02160175138916391 -0.009176913309497207
-0.022290617211186862 0.03490738791711249 -0.005368948298735375
-0.02641944485174383 0.03189459341060138 -0.010828831178070488
-0.02670420092150205 0.031499639660274935 -0.012958558937101542
-0.027360859597596404 0.031014748076847554 -0.01246841647761061
-0.02113364521426386 0.035634498388058704 0.006233248412991187
-0.02784817986942248 0.030583386640753715 -0.012248994375223022
-0.025642426535811346 0.03215119151570892 -0.0133836431735684
-0.02663523313834034 0.03156867389668504 -0.012746782123757624
-0.028816944907054845 0.02948375875110995 0.011863618261045851
-0.016126535492123575 0.03817681604987043 -0.005086780789038044
-0.027519011532890165 0.030906053716486945 -0.012885538099560553
-0.029285418477431414 0.029392722636285635 -0.012354743737339812
-0.025618882452160714 0.03246677175137216 -0.007888509020432753
-0.02882610281443086 0.02878781376981624 0.014341943466681571
-0.027680395512607876 0.03134612890842258 0.015990786733203918
-0.027864022477937615 0.030576141311992606 -0.012454061651823351
-0.021823819433098877 0.03567198009389135 0.01565452664535544
-0.0345605845891938 0.02304208549285952 -0.005227561928830589
-0.029625460334738667 0.028542439001900174 -0.010892362994628712
-0.028833098441626518 0.029508282239987447 0.009997845714267116
-0.02835041972620824 0.030085466695817093 0.005470534759908951
-0.021688134988133524 0.035542370885347355 0.015940842593112244
-0.021666040360265523 0.03591953406044553 0.014691564552836562
-0.02074220471481311 0.03572478795757608 -0.004625580510236361
-0.0266965987514564 0.03137311781513093 -0.01316950758462132
-0.02029985861696759 0.03605412496404152 -0.0066253379149273425
-0.020512776754536537 0.03580443624920403 0.012278857855184606
-0.028876490975764287 0.029204012397257693 -0.0020219626587672794
-0.027812609934821823 0.030620893949164278 -0.012743066846627748
-0.026980799278740922 0.030703502847296733 0.004272125760491454
-0.024913386514479514 0.03305753221048652 -0.013189751670991963
-0.031083782372108258 0.02707082318534936 0.010482963641356036
-0.024546212468152067 0.03193727390872369 0.014130808141300463
-0.029579464708881738 0.026130117310529007 3.5861622326566596e-05
-0.02940436851715083 0.02633969351340396 0.00011274560415520475
-0.028663415167144265 0.029820055938175098 -0.005340990364309184
-0.024720580925669658 0.03302392898863127 -0.011606880298245886
-0.022624670879255855 0.03453428448776107 -0.006050580072763127
-0.026461010178904856 0.03182595226739335 -0.0027731581126622627
-0.022273746571358898 0.034762009389457775 -0.00622886003684968
-0.025616603148817592 0.032484571521147344 -0.005248821498306095
-0.02913207705971541 0.02930601304549387 -0.010248289429660835
-0.026458642578592026 0.03171696949613367 -0.008143613900242447
-0.01987324907191651 0.03663913303564049 0.01592530733770789
-0.02942764166316727 0.028707815987551878 0.010664371407871387
-0.02855693962229633 0.02771348646532413 0.014229657064787004
-0.023854357596969546 0.033608663907595246 -0.008635108311732772
-0.022473669069253018 0.03473899288817861 -0.0050032663611868575
-0.016579247329550975 0.038058751293733775 -0.00039707465889349665
-0.026695057311669525 0.031192268546426025 0.01642506249742639
-0.01687005602484761 0.03766658630356365 -0.007821739689409263
-0.018809826469596575 0.03673343883101252 -0.012922262288820539
-0.025248494179444275 0.03279613675443194 0.016335787803043705
-0.021108675272327196 0.03582803143979102 0.016036953160688667
-0.030241538783898937 0.02780618796726064 -0.010994652298299393
-0.017185113979996784 0.03760172461757616 0.011773206416312965
-0.02879521509812352 0.029671073948020245 -0.010925238552927884
-0.02412957545464635 0.03352880519716598 0.009747146293674923
-0.02250241868254127 0.03535252264399566 0.014677856133687682
-0.01998968562718635 0.0361586672169025 -0.007169570835681116
-0.018379840003429026 0.036969546894121005 -0.012912272789878386
-0.027075365957319783 0.031285646536404324 -0.0053815927033517875
-0.02169062551711068 0.03519030584829796 -0.006514659416943883
-0.021356906088556893 0.035293149327259604 0.012487393748857782
-0.029145887662247093 0.029379248045532384 -0.005209179890141534
-0.030659020096755227 0.02712091141021948 0.015462433185677195
-0.029124589107209775 0.029400471642060375 -0.0060421783896222455
-0.023172053839280282 0.03411812317547348 -0.004211621453534025
-0.032962298947797536 0.022189816643168707 0.008485975699541822
-0.02400834073536158 0.03354610669872208 -0.008656235483275314
-0.028910813665105027 0.029650136286706544 -0.008510482613100018
-0.026322041175782667 0.03183020441328191 -0.008805823777060302
-0.027155452854682897 0.030125164864317742 0.0029949109354324155
-0.0199481481803939 0.0362798390341926 0.009831664983606239
-0.022667174235315505 0.0344889101759365 -0.0018674421250425644
-0.0210087017617096 0.035449847111089915 -0.009263139883819676
-0.03147530434536957 0.02798939202412168 0.015108545833828674
-0.025772244329600794 0.032471060774894436 -0.01013347697482594
-0.022749568308175018 0.0352674079749959 0.01541978114716296
-0.019558004217651706 0.036366331976465494 -0.01267553126528063
-0.029740992758726097 0.02877160700220697 -0.005740540894415018
-0.026473868393698953 0.0318024899110408 -0.004043455138459741
-0.017719542809000295 0.037226036917954404 -0.001255654655757694
-0.021829014669965646 0.03523664029589591 0.016215489676724655
-0.020487746506831536 0.03474029006128379 0.014161611276301623
-0.026127534064789047 0.03204777989305549 -0.006127073320767495
-0.021670838127539366 0.034998987676196594 -0.012942553905093405
-0.026396126282669848 0.03196534058444271 -0.009432620569650406
-0.028299114712179507 0.03014820129831927 -0.007026830668222063
-0.02115149154126504 0.035552102970622536 0.008540107453768582
-0.023987521953123998 0.033572985572550534 -0.011202344487846384
-0.027439228182122435 0.031003193538205596 -0.01028205551152225
-0.03481359506036615 0.02207394931082714 -0.0043770566668868026
-0.02545399344702777 0.032672953632079144 -0.010377201988616132
-0.029858361115436667 0.027832484773770517 0.014550541466127118
-0.02762869283600889 0.03076879862631709 -0.007197277066125546
-0.023478585475146283 0.030648592703526323 0.013938658454370648
-0.021393606309137506 0.03526842476317974 0.012600220639229666
-0.024640044169485956 0.03319427226587562 -0.007562957092476645
-0.017851767604883214 0.03725879363136881 -0.007061398865058742
-0.01988841385809312 0.03697680824055938 0.014968449526616709
-0.03495771540092573 0.021440557376404525 -0.007082145755980223
-0.03498466210726547 0.021301613926929693 -0.006918409869662946
-0.016938454020675075 0.037678946725130336 -0.007407425855732833
-0.020924570114133803 0.036510400462199534 0.015060662257665289
-0.01595035335255316 0.03814672825646698 -0.008643401359712314
-0.026081538181863564 0.03205827780866708 0.005884940164045839
-0.02320131098762994 0.03420447864299287 -0.0073419934132637615
-0.0157795437846119 0.03822144883480906 -0.009004152070979305
-0.031506961124366406 0.02714489486789876 -0.012503966222684584
-0.029776725772029538 0.02875214637228625 -0.008524889565568055
-0.017610246099884767 0.037344194995494254 0.012990201503405723
-0.021770488984644967 0.03506493427593481 0.012693462422155046
-0.015909328519155858 0.038205759920368176 -0.010027377817086696
-0.015138265139836701 0.03855460506628971 -0.00893811532414152
-0.023013300476899166 0.033982808440236635 -0.013259396300015776
-0.03139696835719321 0.026832851052175984 0.012155128825103835
-0.0331610490444055 0.023333201368147278 0.008462210708801368
-0.022233663478063742 0.03483451121526476 0.012287538127348691
-0.026252622643360563 0.03204872930950757 0.016348802120383307
-0.02203515080553427 0.034918308451311234 0.01291005308828643
-0.015352298963225047 0.03845242992345476 -0.010302782536112947
-0.029422018152284454 0.02987574385608794 0.01569519087379618
-0.01690197498471286 0.037729954953041905 -0.01151229746093187
-0.029285487854943094 0.02946160631047727 -0.012907334833977557
-0.034019732694668015 0.02388754137965467 -0.008562180407270392
-0.019265935146463253 0.036797916070280254 0.009123351144072709
-0.03450956088089775 0.02350436407893742 -0.012716590487978692
-0.014177042905145553 0.03891270404386597 -0.009494069270043246
-0.024836067582084287 0.03262326402946853 0.01502050677662226
-0.02350814849486979 0.03396163944628087 0.016339283821780733
-0.030436668640976237 0.02804116752016878 -0.00881296792977006
-0.03182563980526356 0.026487667016157075 0.009309907272506072
-0.03166537492735608 0.026623950515503612 0.008917470018460959
-0.0154912198855479 0.03839710450977733 -0.010589501583953494
-0.01872084504859835 0.036765750920714046 0.01203607807739026
-0.019045469479638637 0.03588769841106514 0.014952331187006056
-0.015947441064727425 0.03812645490129691 -0.011498923602716492
-0.022804351673832938 0.0344564906717931 0.002658476290366525
-0.026152484648339396 0.03205091355468351 -0.00386558307797858
-0.031143076971454506 0.027680723536691668 -0.013202023557742956
-0.021594682515618385 0.03521167040557698 0.013245070922994807
-0.034279938910173155 0.02351563544721392 -0.005855857004696687
-0.021784857118232172 0.035096895445078546 0.012327042838530998
-0.019269436699350023 0.03649179384701935 -0.0006276637175160403
-0.01494343491267159 0.03866060238520929 -0.009097722547986884
-0.031004547164598446 0.027390093337058986 0.006195277597969775
-0.021459600480508403 0.03527438523261851 -0.008309358218543682
-0.02339726473144071 0.03107146398774109 0.013882419564832514
-0.021454147255677965 0.03528119493669992 0.013173432962091823
-0.02256605941956928 0.03457184156077667 0.013273523505787439
-0.02730580554473819 0.02987994288765784 0.01421263156756085
-0.021991093762528363 0.03504709778656685 0.013601703103643146
-0.01672598850353441 0.037774191110040295 -0.010550513715742019
-0.014782078492417444 0.03873116833116486 -0.009709791590370838
-0.03129572277718419 0.026981377326604643 -0.002253640162966842
-0.026745872112443413 0.031542806150688295 -0.007966513957056259
-0.019314634216492467 0.03599701461914322 0.016364182590147616
-0.018110242659289583 0.037036357232980474 0.01269227791157392
-0.014098453929673913 0.0388947125664727 -0.005694393124835256
-0.023847362909962876 0.033714398711137725 -0.012230764455906049
-0.028539193687246445 0.029913146262352797 0.0056686261025717
-0.02301380136339705 0.034272420764209555 0.013370285280320058
-0.03026471322425259 0.02758696594022805 0.015818965621742887
-0.02354544450103788 0.033980930738438817 0.013133177332058276
-0.016628791515596823 0.03722603574886356 0.016468558267013534
-0.019181556737151897 0.03649935486633658 0.016345301192497882
-0.02347255043373509 0.03404147444904883 0.012940395891486343
-0.03419366951479075 0.023544499643716334 -0.008668514674341947
-0.02096334645301285 0.036452248863977535 0.014856144132090649
-0.015957391283229094 0.03816988588534174 -0.011146108570944707
-0.021685780127364777 0.035191996791524835 0.01205844383361488
-0.035229111833025725 0.02102945708491878 -0.0080942602543485
-0.029996406978752225 0.028447125427147366 0.016418933775294933
-0.023908129803951718 0.03385126051888672 -0.002560625862680523
-0.02225488867806819 0.034227495649557835 0.014842115316055466
-0.01797627635810669 0.03706968790394097 0.016332166809471603
-0.032876556509998746 0.024607819920990193 -0.003178640339574004
-0.03093524118290336 0.026834701080218876 0.015420449961652193
-0.02181990554907553 0.035864433703817256 0.014793717784603559
-0.017152693316983787 0.03682879188331325 0.016536478026370448
-0.01996897720223304 0.03558873955676593 0.015152512961714522
