0.01595266374479277 -0.01724919703938289 0.01334300889097206
0.009740171844571538 -0.019443133656758087 0.013389569618819338
0.009937096403190251 -0.021027759554072767 0.013227054739351625
0.006568831963154682 -0.002078598080876958 0.01313236806907182
0.005207690773516116 -0.024786234328570363 0.013462449542704837
0.009522573940586428 0.001785960366250761 0.013012039261985776
0.006917366565187684 -0.0046209414211111355 0.013136521433028264
0.0027656661935585173 -0.008933066654331741 0.013168218110565911
0.00725618494286265 0.005435586896207707 0.013161328993093238
0.00834470598105251 0.00510571348762935 0.013082989727790439
0.010508478707926629 -0.019380114695127147 0.01350210629060104
0.009573679116706032 0.0029143015992013225 0.01320262548558345
0.007931356186771264 -0.006568077534384111 0.013086433183458446
0.005755606270620279 -0.006310785426766302 0.013147890834100975
0.004455722558469594 -0.02342988281914837 0.013419788648535222
0.012028010413455024 -0.003920979478027246 0.01305232428871836
0.011105311631021351 0.0018993186451531344 0.013092538704456673
0.0062615208384072555 -0.00749182864992518 0.013110376740936666
0.0043459812392212 -0.02399591111357989 0.01332124525062059
0.003703419447980468 -0.0028041032136972154 0.013126778087473132
0.008272516617307404 -0.005610986940901761 0.013181231269439583
0.005980830011983996 0.003168056068912374 0.013047553797568794
0.0038946226409824172 -0.010712088056409563 0.013046489504224306
0.0038839003173617055 -0.021597762673934373 0.01333097588842618
0.006283014855529064 -0.01613878501949428 0.013358293474255548
0.018043107325134974 -0.013254364482810085 0.013268837500372048
0.01585560670286244 -0.011837548599000958 0.013381524523707337
0.00772877273514461 -0.0020085894234433566 0.0130537941021753
0.014827735234031253 -0.014320280389339515 0.013413306630372266
0.0041234805207559806 -0.023303000572134934 0.013475755222323787
0.0025158613775169434 0.00219473491973108 0.013087851979947933
0.011055910510956089 -0.01080710426692751 0.013167070257993782
0.01094310531572041 -0.01096064915035467 0.013163597906006453
0.0047830914312832025 -0.01989970528375086 0.013250426198833112
0.016061916748064634 -0.01196116294519585 0.013344022625183881
0.001645614462567987 -0.01416015478600438 0.013148344205608701
0.0061490665270577585 -0.0009084193853127281 0.013097152454264684
0.01656446149886196 -0.01289994179297936 0.013372295334857336
0.015514614699176732 -0.014076881434940871 0.01321533634143791
0.0168348110147984 -0.012903767065236355 0.013300511077965616
0.011307208823325294 -0.01472383137576975 0.013320965370161628
0.01102036092597408 -0.012461479851227437 0.013203652533710293
0.0035835420628657013 0.0011448666783268465 0.013090310351317982
0.015431483046895607 -0.018628357371469898 0.013329368337390766
0.015345961512337854 -0.01662592800464842 0.013247149429250465
0.007944416178854247 0.004987138750729005 0.013122405217929881
0.016037674501725923 -0.01266153285537061 0.013416718224527014
0.017221451287164707 -0.012843379759716602 0.01330675935178171
0.017461569354446288 -0.013260697857103725 0.013258060163706384
0.005288231888095769 0.0006342573161872951 0.013061304507901923
0.017450434856736488 -0.012477263884204068 0.013295131685956835
0.016648996128212416 -0.01187155870611353 0.013278746199621513
0.011509396396867978 -0.010370115727774059 0.013177642983111401
0.013315178447401948 -0.013201309347940114 0.013320284500702058
0.014278894207875356 -0.015134620040996711 0.01341499543169379
0.010764259909035838 -0.0015944781289254206 0.013071399288459344
0.010541662594618046 -0.01890885898893143 0.013293459301669938
0.015549135578717977 -0.012604746448294072 0.01324845937049098
0.01357567352856347 -0.012805483294928366 0.013326806520900457
0.007174953686490318 0.0018869718699207033 0.013079837336769956
0.016889717006401225 -0.012922993256705713 0.013294683642643954
0.015318337218832717 -0.01166290105216996 0.013306552069701823
0.010598951259897139 0.002277541430713598 0.013152347640789533
0.010292004328958514 -0.003713859905128811 0.013096242827909367
0.016489430389186075 -0.014563328708551062 0.013199869797008525
0.015767216857667417 -0.011855880569863206 0.01335782143169247
0.018019675560940997 -0.014025406596812073 0.013269340405436914
0.014780685578814855 -0.012326098603894714 0.01319927269427007
0.005134750619154135 0.0020541079897761637 0.013048574598610162
0.006465545407134131 0.0014670127182847235 0.013066713100923362
0.017608699637185293 -0.014292237323558693 0.01321501097546556
0.0013721701887600601 0.0028162502282979736 0.013043925097977178
0.0159000218381964 -0.014401042874893834 0.013198395920483148
0.017739185242508365 -0.014049471347182579 0.013191598556236587
0.00810193884295822 0.004464662737270174 0.013099328690317897
0.011788953419603171 -0.0002839099508457711 0.013104957199751383
0.011214105327958145 0.0011025901285835536 0.013029348848209695
0.011809609770941948 0.0007109918375222707 0.013101374220364146
0.011592566359246862 -0.012707337003161082 0.013280763510442356
0.00799645839343956 -0.002686006325873273 0.013183562501159726
0.011485924420050034 -0.002320694627633845 0.013064751134341693
0.014467601266380923 -0.011072030686334298 0.013219663446953123
0.012622845799618834 -0.014348862148725576 0.013315860082285
0.009321165116410006 -0.0016760703120065209 0.013076345602346006
0.010638138911120452 -0.0005270486582198212 0.013089031699375453
0.008125464280749319 0.0006226124864689572 0.013058383331076742
0.014620415791214763 -0.01112260006016273 0.013216906459467239
0.010704089904665481 0.00018379814403439004 0.013102084684058818
0.01680025904820456 -0.013734007137580526 0.013157336381299033
0.01139297822612932 -0.020680282817456205 0.01334063444828753
0.0046677521240036865 0.0014313506059000028 0.013033118665502911
0.01667268513075358 -0.018091527115213293 0.013324843145571853
0.011121187814380267 -0.002187037194211888 0.013050665926777016
0.009960151569753651 0.001101278670130654 0.013092893436879489
0.00758515585214821 -0.024151577792543004 0.013163305931147172
0.009417623510576775 -7.257934881151472e-05 0.013069120314534168
0.011497298694177115 -0.0033492387802349435 0.013101373912566302
0.007919816997289967 0.0038553571582407957 0.013108590947619708
0.017565264322597765 -0.01505618256825991 0.01328077391235194
0.017613937108811567 -0.014668023421361864 0.013310023740547695
0.016111693954633636 -0.01359904245046277 0.013186222997342623
0.009929240397353092 -0.0016415934460757289 0.013100870468518086
0.014760623014218528 -0.013444027686685081 0.013190038284507146
0.00911972496872844 0.0006650180756035828 0.013087307927456226
0.007674240325478648 0.0026336274460580307 0.013084794527251576
0.015240840185598556 -0.014996679512078549 0.013306044579542854
0.013974221467265572 -0.012224303459577406 0.013269757361948664
0.012645323090600874 -0.014057185030549427 0.013334854064437428
0.010926829904226783 -0.013539358480059976 0.013244022031223615
0.006509960575250053 -0.005494775864550765 0.013112401787946265
0.00921946875170468 -0.002310773690114852 0.013075846751858406
0.006794368128825759 0.0038081372592764576 0.013056146227167446
0.012546858488420702 -0.013440262755106583 0.013366836386572427
0.00762985309193193 0.0011697041901495586 0.013129452532859147
0.008537327678484224 -0.002201979084355917 0.013101007964393277
0.00852958823440608 -0.0015268952982210983 0.012998630393143008
0.007891299286488209 0.0005269081123669198 0.013045076815955535
0.014851055476610399 -0.015267173940945799 0.013299996109408657
0.006516003122396548 0.0031945766327681783 0.013115962452647092
0.006983745852383173 0.006231316094451097 0.013072635119742874
0.0019522092750521866 0.0037307039964414156 0.013034230577586837
0.0073520262952582825 0.0007444646388850364 0.013108702690264309
0.008197941632624658 -0.0033917420436200495 0.013179013237984495
0.008503537170141604 -0.0018562219449405222 0.013026190098510713
0.007214516631101173 0.00043265536157242835 0.013063274230254173
0.008218317360951261 -0.002229118440310214 0.013097061364418464
0.015250307019691905 -0.017425794384464025 0.013236375395874432
0.005657844845446744 0.004008261033941568 0.013111275395021823
0.014429787281323152 -0.01342602079836575 0.013223587096170972
0.015121257701990824 -0.015514259536777226 0.013221354635687296
0.014432431276975936 -0.013114449211588167 0.013175904754637086
0.005585930144605639 0.0026365980372776744 0.013040017857035728
0.007471453026863178 -0.0019233833105470042 0.013093632049191083
0.008600481742882587 -0.021939736229234355 0.01334790380532934
0.01653090387025218 -0.013817720742631066 0.013167420644214518
0.014016788915179403 -0.014157549666621281 0.013299628594270679
0.004145942010639393 0.0018454715705099062 0.01304617824685307
0.003948246547290588 0.0018288102714550945 0.01306343182594353
0.010595114209474213 -0.022565474874032623 0.013355056399560207
0.0055933431891825505 0.0017256028641045758 0.013082997394970361
0.013385561143915748 -0.012442469089248044 0.013315123719667966
0.013339155933923963 -0.013822864585993373 0.013285894862480649
0.004000920439893859 0.0031600908797678306 0.013084382559926886
0.006053285595237526 4.145727794546717e-05 0.013062161590187242
0.014334850048017041 -0.015857026169055474 0.013305805023000878
0.0038635966167278398 0.004696378000384726 0.013068339538029519
0.0035246358278565996 0.004569272101549671 0.013043753907596028
0.005621250966455596 -0.0014189044870787345 0.013146167869092722
0.013861732902092694 -0.014548755495738542 0.013362569825985215
0.0031759383108076085 0.005703162925210281 0.013089558722289289
0.003728035365293871 0.005390378403222133 0.013089483062040141
0.0025176667520428854 0.003327408556402938 0.01307190947979215
0.003554867018787154 0.0007170284947768263 0.013148217893062052
0.004510126197776566 -0.0001797084989493221 0.013172877164237626
0.013412256658395344 -0.014062851179303823 0.01324834095225172
0.014285303581172632 -0.015335765796876311 0.01335787843797472
0.002693982780644267 0.004520976879273413 0.013026020050383785
0.002663763317983688 0.0036795648818278006 0.013104929583902875
0.0032275859429847635 0.00147312586375493 0.013066990590442681
0.004990745331749364 -0.001158862105109866 0.013141541397276094
0.00201025873097156 0.00310848367426633 0.013053594419788987
0.009270925458440934 -0.01664365917188983 0.013191374325546568
0.01349337351202292 -0.014213667565040035 0.01323250387892285
0.01253730485058041 -0.012843092265349547 0.01333637702324006
0.012066619256549779 -0.014103361598586172 0.013361234664586006
0.011953864765237972 -0.013172545249242827 0.013370531460632376
0.011924464825283665 -0.013411820579994327 0.013394764720603154
0.006300875931031253 -0.0008105644018478202 0.013043417873446046
0.017397290439097754 -0.012759467129498084 0.013323207165346344
0.011368757862331241 -0.01335133639123054 0.013308662536958577
0.012168032581785788 -0.014572897799092446 0.013388065971664136
0.011630964480776496 -0.01416346439191203 0.013351474798886152
0.010886144276569766 -0.012960562755271198 0.013241803228466067
0.012355180310302069 -0.0149647357927442 0.013330848948306925
0.011818181257285043 -0.015316809714623458 0.013314114349249562
0.00829390679426581 -0.020194535385205707 0.013191745638791054
0.013526473926910658 -0.021423144595677224 0.013460751292707646
0.006886910276841176 -0.02308222714084914 0.013319511450637549
0.005412961679699765 -0.015692558753133704 0.01338373408291085
0.0044787264194810755 -0.011474456241332818 0.013207081270142966
0.0037773547468008518 -0.024090685286071476 0.013417507101758397
0.014352810629132887 -0.01834109865221344 0.01333832264548291
0.01689819356899895 -0.017028799943926694 0.013319410321524805
0.005850703608633427 -0.022744293640122336 0.01332071344227566
0.005850480407202848 0.005422812305962241 0.013043707526746044
0.005646191842509941 0.005548553193559165 0.013039735575111311
0.005759674296265642 0.000362832585605667 0.013046807768023437
0.009385534597430545 -0.015181401348298708 0.013273885670113342
0.004946185474539324 0.0015886327437093142 0.013046988179998371
0.010971479040726585 -0.01190042494476148 0.013171664532760984
0.002749828589250886 -0.02467381238397586 0.013387339307750799
0.008776209387198076 -0.012818702880837373 0.013221523814262002
0.00029626442992330347 -0.008594274107539851 0.013084837073206793
0.0042335956946521315 -0.019250049732428283 0.013287990034095736
0.004020702241280127 -0.019706049884477293 0.013359437566573457
0.009153513060633037 -0.011452376998798336 0.013252558998181582
0.006394888157909842 0.0022947868812758705 0.013105313387299752
0.005548704425854959 -0.018580039863449097 0.013224864143548513
0.01666095953421759 -0.017229582958553293 0.013350253903160594
0.006869959123449693 -0.021791497152488362 0.013278247515796376
0.011359880064804364 -0.018805768378587107 0.01320269469984249
0.011460442847818927 -0.021938331929350637 0.013340511300446658
0.016297360648834993 -0.016366023368551183 0.013321375375977395
0.008589309159049981 -0.004170134048971524 0.013159360783567553
0.005850338271819039 -0.005948722472650128 0.013160332153217448
0.005722878640552086 -0.007192023580848742 0.013135269579116548
0.006077488396375706 -0.007816412419054581 0.013115435991763461
0.0021443501513183963 -0.013113855933209007 0.013303519269949597
0.007630538498159705 -0.009087669377574667 0.013266801552788901
0.007354530761347772 -0.009089766786867234 0.013247354381749286
0.005348835008941945 -0.010079999213646372 0.013068538744872321
0.016332518912453367 -0.01674945014684264 0.013315357147274555
0.006348859531628642 -0.0021471732535180946 0.013145936699717566
0.01534522566845429 -0.01615983501943879 0.01339139321539785
0.006623057249716135 -0.003553124882588319 0.013081128638337642
0.006936110669277233 -0.0029728839073142454 0.01309456501637539
0.00422015195896237 -0.008930691075465893 0.013170529971120115
0.005186439562178629 -0.008351795045950502 0.013143131031361353
0.0053704949460464755 -0.008062524562389673 0.01315842120721345
0.0026671658250242334 -0.011346998745329663 0.013159775221431923
0.00291396684631187 -0.010894469800227093 0.013138382915823569
0.006566934505064704 -0.02456916982999203 0.013233453009360671
0.003873345715710411 -0.015556838144942811 0.013316042442215313
0.006030405575203701 -0.002501270662705091 0.013149796322929844
0.0070519783039551896 -0.00817242485947889 0.013056478286203661
0.0057065873034027135 -0.004289979530706761 0.01310530044912162
0.016029677462982565 -0.016310712325728602 0.013298825734025445
0.005369142642255703 -0.006427730596920513 0.01314809586904292
0.004643693022476178 -0.008778020505527753 0.013152977705419983
0.004813715964102176 -0.00820782863698711 0.013160916570885688
0.003570619760863458 -0.009067683167100743 0.013159048955282086
0.0021907430208133725 -0.011121700240250677 0.013144231602265669
0.002726483002829273 -0.010769247877402183 0.013158095997634643
0.001441124408781493 -0.01334389540575718 0.013254925275473794
0.01819947077692947 -0.017216950670831226 0.013218577180260992
0.01841048219773394 -0.017352435812753073 0.013229529227113318
0.006177463225223903 0.006160220454308023 0.01306328516065225
0.006964144552810318 -0.02478547228060837 0.013239561265929994
0.013183336222613298 -0.008693706519101866 0.013176702163880978
0.0031169335679592635 -0.006381990590445295 0.013144705011190326
0.011022022475317281 -0.01944280924283088 0.01340567296793559
0.016774250532335774 -0.016498485418893767 0.013303871670085317
0.0029826638940887674 -0.016252043254290093 0.013152301099749625
0.004067197589717126 -0.016751640055531467 0.013349938750315392
0.015040228318230847 -0.01642726131772785 0.013272382432793689
0.006232035264755197 -0.003391949296893292 0.013109631204550033
0.015285521942527504 -0.015836238879432196 0.013301877186413907
0.0099535945959907 -0.004405794483709193 0.01320361543660743
0.004966534792131307 -0.004425583856759406 0.013141668371186747
0.005869520740515094 -0.005358135399020044 0.013124659969732054
0.013300615894651565 -0.022297619624934144 0.013690604486016429
0.017362415671617313 -0.01639267935450133 0.01328284803999825
0.004831722543483011 -0.006386494752860495 0.0130766202662033
0.004075966871939188 -0.00821285658940902 0.013193189066656173
0.008021237145218229 0.002404956896365486 0.01314585382176522
0.011945814130059301 -0.00632395067666641 0.013216740000626356
0.0023857772400114633 -0.021543894893478497 0.013338373346144978
0.00301564710315237 -0.009612677171124764 0.013171480987860638
0.017320189029557648 -0.017754994302657305 0.013311657132114196
0.0021021669535751606 -0.010998037901839671 0.013176826511662203
0.0026141199490399554 -0.010064274903507739 0.013207113723026829
0.0054885692435980024 -0.023484793417938004 0.013274444402322763
0.006269953611469463 -0.005019950915004251 0.01303470181159556
0.010903336991355686 -0.005550409381278317 0.013167805063413394
0.015194570162225248 -0.015705085434887158 0.013266951561458358
0.015381997841613648 -0.015561123553915158 0.013210615272168694
0.0013408222307224802 -0.012874429014340265 0.013306922453965128
0.0014778401070007206 -0.011577328407860694 0.013100269395439103
0.01147121994445798 -0.011805299509071231 0.013203288190570268
0.0015372976737608208 -0.004238861315361135 0.013171414927255752
0.016425021444198648 -0.015046334990259558 0.013253512803180349
0.01149232337662084 -0.021598131596999276 0.01335223367081722
0.013658394450815492 -0.016082863484683924 0.013331882155249322
0.014040348692456146 -0.016779138158914197 0.013249716286336151
0.0027915370303035246 -0.022650034352865694 0.013244753011014118
0.01394646463187463 -0.017313999485482297 0.01325107896807063
0.0030287602446799583 -0.019977428739299974 0.013367760868366503
0.008825088937696983 0.00011130648941575554 0.013067702889713506
0.005484606468000157 -0.0025601891773779266 0.013083869285906533
0.007447158634321894 -0.018057620492705696 0.013163299810960566
0.016158977155941463 -0.017635451746921008 0.013368480120665948
0.002480187193338079 -0.001521706618953114 0.013129162576885059
0.01139855969835032 -0.006897798479083214 0.013177954285272197
0.002951097734660016 0.002206511730555969 0.013084547468142974
0.0006725073423760274 -0.0028424291014791476 0.013082741512654088
0.005135220833186384 -0.025792714227064292 0.01361852411739257
0.017121648523896277 -0.015582489363870996 0.013271623220384696
0.004643799547783487 -0.0074793890501841116 0.013181349976505104
0.01629260875484384 -0.017341856040447225 0.013364389020258832
0.0020140559338803375 -0.004345604154617144 0.01316104276966879
0.010526834516821699 -0.005860141557274453 0.013155336455116818
0.003818108378793923 -0.008411865384986525 0.013206321080359306
0.0029555214025046347 -0.009467204053119365 0.013198950260529889
0.006432198679466953 -0.02318956470178577 0.013374778022749903
0.004474773462987716 -0.01854318901999899 0.013312714082118168
0.01481143845959162 -0.018594157933130448 0.013337273502292232
0.0150021311784428 -0.01894689611016494 0.013283123415132308
0.0009027931007602864 -0.011513993602392686 0.013186480892114348
0.0016555007780682657 -0.007158165759349069 0.013041888851018174
0.008213259113971999 0.001937063747354821 0.01306837078552506
0.005950770483861919 -0.021984154714309576 0.013345538908311005
0.006342786241215823 -0.022260110824177462 0.01332401846211152
0.01413764884683824 -0.0077985387116206225 0.01328804766102217
0.004073402612150959 0.00663891718287405 0.013137628152021113
0.008867474365866915 0.0016240049616070547 0.013111068753555933
0.005518064120976517 0.0006681565307839616 0.013068679669071229
0.007825265917276192 -0.000259855853588932 0.013046852203116919
0.009030124318800185 -0.022853847007122553 0.013254188931286343
0.0007519359208015983 -0.008054184457549709 0.013073831939536373
0.006852232211505988 0.004718458998905565 0.013072438008961348
0.006466753771709512 0.006446084961100435 0.013053876016923332
0.0069864372257818245 0.0054853184094839965 0.013150797773018086
0.006169289163817587 0.005660755866400074 0.013067483380794925
0.009337744215815541 -0.02182007491657431 0.0133228209393467
0.004900865908116522 -0.011038965237208596 0.013100644541834575
0.005993385142567731 -0.017435370079177046 0.013304654506378888
0.001155379382031831 0.0007361445726651761 0.013032875311099722
0.011202451722034153 -0.019961397316070172 0.013395819701891104
0.01612776104671369 -0.015643727659674297 0.013270875667650039
0.008270206548620745 -0.0008947716863560008 0.013083464468730228
0.013381903587665299 -0.017885534497302957 0.013256510366888082
0.009683886292843823 -0.0181116715531412 0.01329128604786883
0.006482046426274592 -0.0034214541048721943 0.01309994315068475
0.008645373749665897 -0.014135725328563878 0.013213008949816456
0.005672460018668175 -0.017044383287123283 0.0133347763161859
0.0015251444685587144 -0.006134680274406591 0.013131509601841286
0.003913340479981343 -0.019531068005206664 0.013345339353131147
0.0055978845837397345 -0.003464871109573383 0.013119022374562311
0.005372628985408972 -0.0031522296704446784 0.013113657884472921
0.010568317329417954 -0.014594708522652313 0.013264893821799309
0.01101587727105328 -0.0018825472314189325 0.013066254282164177
0.011075284560236685 -0.0011958210124394183 0.013078096819408675
0.005073213018830546 0.002825889666441126 0.013053095666511326
0.005002808610584886 -0.0040328776174775585 0.013132011989505036
0.00880035397648529 -0.01694468312104728 0.01321005396379514
0.010349730207995683 -0.0023868222327894286 0.013069068621949363
0.006746835981571404 -0.017627343215445086 0.013260925079301697
0.006828331403652363 0.001866470542360595 0.013067142383703354
0.006489598363036483 -0.01560424140294647 0.013131123827341714
0.007534369577804094 0.0037493664837162047 0.013026484551474225
0.005389716876872293 -0.023158816916703174 0.013276559023968732
0.0033551523989110753 -0.017939867611514143 0.013280918808144826
0.0060777881829578335 0.0015339217687657205 0.013080497561406246
0.008837836421929899 -0.0019165863067099709 0.013060057322686416
0.006678304157619443 -0.015528468486850707 0.01308419054546699
0.0052769168110702435 -0.0165961610176688 0.013323407118591592
0.002954952060372825 -0.022564085591499895 0.013251867497053565
0.0036647848670893443 -0.007870999304035902 0.013163458637416574
0.005690549018774743 -0.011077992188833152 0.01315380026854052
0.017103878247498233 -0.014991985491021912 0.013214871437385636
0.007550277859607909 -0.022169459165401424 0.013256868542132615
0.005344577471693794 -0.0057692113250086986 0.013170104497549741
0.00307182300263315 -0.0213197185718298 0.013271059426706271
0.005872402416518192 -0.020730539792612798 0.013302963039364301
0.001736477317591334 -0.0038170690646649403 0.01317439204877285
0.001701373438726789 0.0009460904730260931 0.013096058311094432
0.0019395113265731378 -0.022248556358988977 0.013360589397471194
0.006112363800637528 -0.024516329512834042 0.013260061353006282
0.004255097805202732 -0.023892213657613695 0.013383760511366704
0.011755773186075718 -0.019421932920450503 0.013250599028966716
0.007820509259331492 -0.019807615397100516 0.013285512486865467
0.004668981779749432 0.0031682167777475224 0.01307508995881017
0.0017494727552708341 0.0039158219300221495 0.013028542305787372
0.004326281363035238 -0.02007456972709754 0.013326020416169822
0.0016586264700024706 0.0031730842045889877 0.013027167419537872
0.0031499563525007263 0.0008981524804177637 0.01317186264514051
0.0064093178425564615 -0.022869370141529753 0.013349566368353749
0.008546343940011506 -0.019986752847832377 0.013189585058694346
0.006959120041548974 -0.01673124408048569 0.013371161035078518
0.008760682950362739 -0.02245129067917119 0.013252599608943205
0.00048149287121179994 -0.01171029621121284 0.013206667081079164
0.003346265116846178 0.0033199140777602763 0.013046966113845433
0.004889555761635744 -0.02308704525321309 0.01326622357687798
0.009830324162376973 -0.00046851088560598877 0.013123008140257632
0.005533066877360743 -0.003744082503754803 0.013113974307536778
0.00683912001800404 -0.021209423563186516 0.013217273723943695
0.0073873512953882454 7.5639738293411e-05 0.01302981896586194
0.004483726767825929 -0.005856359045857977 0.013129640702179339
0.004229672629769766 -0.006252190876430768 0.013080861223315766
0.013612749063538446 -0.021976267228395584 0.013612290299370425
0.007099302268347798 -6.348068798436167e-05 0.013060962205469755
0.00618037838640406 -0.00048288526828718794 0.013038104790476653
0.0067327175870520155 0.00013300281179272144 0.013063820488486927
0.0006396540451596914 -0.010924965853426312 0.013091303790860036
0.008241906332760991 -0.014652486685943041 0.01322839171567229
0.0028400007619739987 -0.008370839480030994 0.013107963350127967
0.009486270835486177 -0.021637403913190856 0.013340852257218967
0.010568415671631692 -0.021561652813174546 0.013303784962265837
0.010202551233272308 -0.022810470061853255 0.01337371824542811
0.003823823852194503 -0.019835484960644037 0.013377398744848399
0.0024592726043720934 0.004863353483874669 0.01303800709741205
0.002534817115771232 -0.02217705306248877 0.013285960557031825
0.0004019094947695064 -0.010837708286078615 0.01309892127503641
0.006578049780776127 -0.022167872776148484 0.013287274839959257
0.005434506298507584 0.0021177028747112804 0.013051524520911984
0.008749731539056758 -0.015088130847485944 0.013173612836471253
0.004509031442878859 -0.02464030914242326 0.01323165455655147
0.01106129200406495 -0.019095729440053298 0.013240654634101248
0.011119590289551236 -0.01879697758663422 0.013206794374967353
0.016371135976307023 -0.01616877680766028 0.013317082438669364
0.007509827115393139 -0.016861952101392623 0.013213174710094876
0.0037005102669232046 -0.018949838970660042 0.013284000325653602
0.0001764681961061118 -0.006686459233497637 0.013336591362606478
0.0034653631152967122 -0.023924210777760697 0.013493355496546752
0.01309662344207629 -0.017215116771005595 0.013239227693687
0.006990443576241956 -0.017108587331574072 0.013298572581925367
0.0027577795894957865 -0.023027086492104568 0.01323145941144117
0.009582127996985108 -0.021816829914345613 0.013322604404090384
0.008871668444340515 -0.023253014815758633 0.013310501521006364
0.008518504609388987 -0.01901404258177003 0.01329943368157209
0.007042590649822392 -0.020810376570482004 0.01325368319719668
0.010734538455719254 -0.020389000230940854 0.013346515575087618
0.006447068702720627 0.004048638287914902 0.013084143813877866
0.011803659599956464 -0.021270773137339563 0.013384498968408334
0.007160569704448562 -0.021772716137979008 0.013311234240039247
0.003428145620609334 -0.023707261509946263 0.01348998767896436
0.007561210329173916 -0.020322632598780373 0.013325899546094743
0.00868679405855766 -0.006642055490735906 0.013138407613329309
0.00810657461146215 -0.016925221691095987 0.0132585803166535
0.009236631524035362 -0.004386751916020839 0.013203386525756502
-0.00022129045846566448 -0.008212436271802863 0.013186061383305973
0.004620426016886125 -0.02190999844749944 0.013422541782667453
0.0027549360751889297 0.0053688311227477305 0.013074394391133498
0.00390652061211992 -0.006035523209076064 0.013159545399713072
0.005522834365217849 0.0061722749530586365 0.013081647807796986
0.0019194762568104076 0.003967314537501963 0.013036771570279585
0.004379727756886333 -0.022188178109620586 0.013404385613417408
0.010085614237372762 -0.022572280237744487 0.013224436963724544
0.013029111524280641 -0.018280127982719916 0.013206592133397414
0.008274599278475833 0.0023022699793438617 0.013100717927204578
0.002514363235819412 -0.009461436769488313 0.013159113715950709
0.004490669839046691 -0.001938301238524297 0.013055348679585146
0.004657182972042576 0.006262583990695119 0.013044097258128
0.006748568406255444 -0.008864654373271162 0.013141438974844403
0.0052108251038852265 0.00688887665642815 0.013133012813115633
0.00456806109345 -0.0005758305604692756 0.0132419798039511
0.004278556182890236 -0.0031759391391633146 0.013117643667857067
0.00442012145627967 -0.00491779055024894 0.013174815341899154
0.0035591395126746955 -0.006116432776621973 0.013135144584943907
0.0037135825020513024 -0.006966021255387683 0.013078983994081302
0.0032534805178670145 -0.014205227983357688 0.013274406558493346
0.008630214111938454 -0.02059753233281163 0.013223092258555374
0.01030911186647073 -0.00659113057770392 0.013216393358919313
0.005743865377736656 -0.026512186602557535 0.013642893779322525
0.0093864148251515 -0.017370488752143507 0.013188310741611677
0.01802060119995176 -0.01650825278784509 0.013231585135378917
0.0017551413331157774 0.00045137064109144993 0.013074645811345523
0.0044817912885255955 -0.0006123046787955097 0.013221096158697302
0.004778867928565094 -0.0032906473318296825 0.013092546717783933
0.004276493449471589 -0.002164632282723453 0.013022681331111669
0.003828678743842614 -0.0032745684965019657 0.013078367533256731
0.011932763924150934 -0.006160105340537764 0.013202891827511814
0.005334255404880583 -0.017803393988119125 0.013176950998809047
0.013117769123217837 -0.005594295738810602 0.013115336896470592
0.002459510560571962 -0.023552652764232858 0.013245629494295573
0.005652053712459701 -0.023405641498010867 0.013311827486537876
0.007629311089296689 -0.014185801082517316 0.013193548076235805
0.0012700590403191309 0.0015034779045420808 0.013043271235829932
0.001183882157479869 -0.0020955992424271696 0.013063268036266992
0.004210485167544046 -0.0022663577883569623 0.013058577473146324
0.0036792479904194497 -0.003208393023511627 0.013094221742813394
0.003493592020467842 -0.00347498766089536 0.013114856744030906
0.0010354027942497204 0.003641867161410153 0.013033881418644647
0.003229033002439847 -0.005734293552631843 0.013102040028504205
0.002800694577103773 -0.006380967124351831 0.01311386865907823
0.004657687091720525 0.006597542191668566 0.01308546064220258
0.0020779589265909736 -0.008504958556043562 0.013130187362914622
0.0004516143714195641 -0.00423802461651949 0.01316054199991394
0.0007951481408178566 -0.004078397391866928 0.013125158235153374
0.008032927745385481 -0.010762925284159248 0.013247115186761471
0.0014796554843474813 -0.009060187485346316 0.013112318705637296
0.00915550569761331 -0.009977013792487223 0.013267185713770103
0.0028497617156638556 -0.02394194005417522 0.013408463531830044
0.012204753204767261 -0.020965952399758334 0.013365919519748385
0.0061119455033392875 -0.018639239995822197 0.0132214745343134
0.005605234035190751 -0.01436185782070137 0.013108162205851823
0.006542205678068658 -0.013653577370202945 0.013214599751574662
0.00477075021220161 -5.8513641908951205e-05 0.013119404032292713
0.008479797372174995 -0.019552883170105957 0.013202621459654973
0.0033100334561068346 -0.010288468766524419 0.013088408651871788
0.016661989755552362 -0.018380504558536417 0.013286875260177333
0.0043447957275507786 -0.01177765894613459 0.013273938616902703
0.006363016682794645 -0.013299295274220139 0.013224133653274083
0.004756594609227077 0.004036655146998261 0.013100360049358974
0.005858309940386388 -0.013810732907444343 0.013233874905453195
0.0023431112757694903 -0.022913522050553768 0.013233094202401076
0.005774441016718937 -0.012617328667395738 0.013271015624374813
0.00450882933563688 -0.013234839122200975 0.013146495577482563
0.009151829362008335 -0.018352416038975576 0.01339327199704334
0.003590900342078775 -0.012058276868382144 0.013316219175176915
0.003208844423738984 -0.018960413078678483 0.013199008715907415
0.006713984472772428 -0.013577499546763796 0.01323734638998245
0.014805758968157959 -0.01778557063111888 0.013274336478990106
0.004097393998213137 -0.013014968998147828 0.013222291444001033
0.0065059708581987315 -0.014937785074387942 0.013140027084768077
0.009545833538022288 -0.0005059140480057287 0.013091455203485468
0.0010681991714845906 -0.0004041924003681885 0.013083960789313056
0.004925889475910931 -0.013519525808455297 0.013154428168476466
0.0056576000312171465 -0.014286725435124435 0.013136883959704885
0.0052428132404076355 -0.013554796314581813 0.013211479780040543
0.0032888225252810524 -0.001440344608405595 0.013042171817183906
0.005352086726269819 -0.013042420589357596 0.013199578478899729
0.0048563246120358955 -0.02502378812682693 0.013511023351026418
0.0028735749909196647 -0.02167528383097553 0.013279238642271984
0.004242421763847237 -0.01391176450733054 0.01312007307766503
0.004316446773941654 -0.005455224942532039 0.013225699770832083
0.0048574314486893085 -0.01223827250478199 0.013313954694355506
0.005144033460980908 -0.012126424580768182 0.01329356691649193
0.003408539711071223 -0.012552151620066412 0.01331678673548775
0.00378929759617618 -0.01292825439591575 0.01325807169468276
0.004657130216839362 -0.012308838990739136 0.01334714114241644
0.0034518295612477887 -0.012298587042227666 0.013318938286851576
0.013096561525340425 -0.015556921985772677 0.013324439544203304
0.0031779439282266174 -0.004420595867568933 0.013085519215575402
0.012169980553669716 -0.015558649401394202 0.013272902541781225
0.003198382855517643 -0.004974241277821678 0.013028884932362195
0.012768134571102572 -0.015525278172318953 0.013281340864784386
0.01324300466317363 -0.0154721471231362 0.013324567816141412
0.006395378096845695 -0.00609897070105254 0.013151107222629962
0.012781978390677573 -0.016195610808282246 0.01332268204901381
0.011413936307792133 -0.01627716359232978 0.013299205416771716
0.003400343709595948 -0.022884682358491386 0.013350847529778562
0.01204899730539983 -0.0166207210808792 0.013259511902461362
0.012015062649967032 -0.016796336508482838 0.013302482995599756
0.0029363618128499225 -0.004173070891198063 0.013108872128971895
0.012467318783101065 -0.016138052127074122 0.013254786636471354
0.011138085905132244 -0.017904925014485828 0.013218425946180425
0.006568919769051714 -0.024858001098249274 0.013326602675546277
0.011200937901602228 -0.015503690701629628 0.013348341895299914
0.011654060104637683 -0.016872978588597723 0.013321508521533782
0.011867504072426129 -0.017256407551077373 0.013373382696543902
0.011092761506785837 -0.014686547230078647 0.013294208074571675
0.011215772009084005 -0.017025432652604575 0.01330839753208682
0.00935413869983407 -0.014080224632441652 0.013238231428907704
0.0014480234530703006 -0.008476325180833529 0.013133217258987685
0.012426553162558435 -0.019564541763722285 0.013244583176837884
0.010635604306457713 -0.016844149425962504 0.013308570056537836
0.003909117478718598 -0.005412920102531964 0.013219077571635325
0.010046753300963471 -0.016338884225515944 0.01330536004842656
0.010097401593605407 -0.01636254101493145 0.013312370301976104
0.010276099102963716 -0.015477618689563388 0.013304682068396738
0.006361508255035195 -0.019472292556237083 0.013393044044183759
0.01106624349335435 -0.017907068556587087 0.013220870068536162
0.010415358301377547 -0.017656675978590518 0.013260111916540713
0.0008708194480703607 0.002876188595822567 0.013080056190980991
0.016751111514451043 -0.011036619379651074 0.01314094029456189
0.0025116242199568605 0.0019328633471397193 0.013118472240271784
0.01654775810359509 -0.010997902329135282 0.013144623446228092
0.015592522394619106 -0.010260442884829489 0.013118252786702898
0.004039666571554798 -0.020600415000375096 0.01330456146834718
0.015953866062134572 -0.010106235203636536 0.013193001672178366
0.013732405552237457 -0.019796639165643497 0.013213353991631191
0.007325305814060951 -0.024096358531866757 0.013178386316410095
0.01442259874675459 -0.009634920862568 0.013158685554045183
0.016102529771943576 -0.011252640245130518 0.013261195358341908
0.015316445039006952 -0.009093714117113995 0.013282857235728543
0.016341762015003855 -0.010035011311240396 0.013170380730287716
0.014131808070963548 -0.010300010104531231 0.013274722226912717
0.014535637459573036 -0.010258897611026479 0.01325279647380307
0.015074444512999108 -0.0098877231746235 0.013162700815639639
0.0035764736430650675 -0.002872377872743327 0.013100683501658224
0.014006706239718952 -0.017753078165083546 0.013303787890250078
0.005081562454752194 -0.020292612540663817 0.013243366379193672
0.006743942361782376 -0.024418063136603357 0.013197230505039736
0.009324606402843695 -0.013902381202378848 0.01324041697735937
0.015126960056724903 -0.010165124121797611 0.013179367875380547
0.013314051038877193 -0.009125233428503913 0.013162015633595831
0.015523017103654481 -0.009618176234215133 0.013234648528257946
0.006819284202795926 -0.0005818161672025465 0.013079448271979436
0.00019445357779024043 -0.009554866464314261 0.013108328578260171
0.011115770939012337 -0.022341459127312998 0.01318758112822588
0.012182232961455024 -0.0222818642879871 0.013402196142374801
0.005065447471088058 -0.024262568803802616 0.013330305388828912
0.016966310345251874 -0.011821660397187328 0.013221926492595333
0.009930612820884574 -0.01449505536513051 0.013228636357976855
0.010150653300963076 -0.015037863315436724 0.013253625037594224
0.01602506755818716 -0.010251443983116256 0.013178082594276502
0.01237664547420292 -0.01928196528652445 0.013256525580806682
0.007535225791997555 -0.019876791566855623 0.013334085266501663
0.007465925345500778 -0.019836594567889387 0.013343940877098018
0.008297587438954491 0.004031638880573544 0.013115427839726222
0.008439500291670596 -0.021149830841440877 0.013385891289745898
0.0031879466395780673 -0.00032469934259747515 0.0131176506816906
0.008835645074240787 0.0010609950898700315 0.013086155078519564
0.009133120830559324 0.0012129227717737729 0.013102029277918306
0.00829624259303325 -0.017940049889196046 0.013350299161679728
0.014209715603279428 -0.009573093922582432 0.013149628523569953
0.008241425660557215 -0.022171682604455463 0.013300782671366244
0.015349222985679433 -0.010647420056530028 0.013211652099400258
0.000697416008401877 -0.009234254514174567 0.013118398649030765
0.016483497708440556 -0.018788905152545676 0.013281229701450547
0.011683808351004962 -0.02044879966769849 0.013363009246750903
0.006073472659296155 -0.02354771703257295 0.013357099821544382
0.0034464904698438123 -0.00234686884379207 0.013163677617739244
0.014310911921262912 -0.018912816101757525 0.013302581816366189
0.005798789252041831 -0.016725566017912866 0.013345839896730853
0.004629457320500011 -0.018264251504156524 0.01334584307446565
0.0030186855566522127 -0.024775252933840263 0.013426710286773794
0.0052408629154124375 -0.018466006748227324 0.013269155784585443
0.00960325125485199 -0.020923975372378122 0.013205163651918803
0.0036747298348715905 -0.020314953580029868 0.013330494283802497
0.002637257029203008 -0.0011588355506562805 0.013067106677602601
0.014542699330493996 -0.008598863554151895 0.01318950840665532
0.001128903933427395 -0.010117332114191618 0.013110168462064486
0.014076264933793367 -0.00934561332944407 0.013118827840999228
0.012877317404646848 -0.020452147052234273 0.013444390564340538
0.017526378237046204 -0.012263627856145782 0.013224475253851823
0.014783874122556096 -0.009172308764450564 0.013223409170686231
0.013909731251922776 -0.008560207685538637 0.013136205241482778
0.0016711167917688404 -0.010117492055403972 0.013134216198856866
0.013356262524513367 -0.00830863572021648 0.013175269276090518
0.002129655215856869 -0.006022438273888208 0.013129995356585454
0.006431874529205833 -0.017918260763519496 0.013283366447637685
0.008157454646393555 -0.015748662271887343 0.0131939745922905
0.0056414075617032535 -0.022206623934877247 0.013355091878085253
0.0031727146593907097 -0.021851898907636134 0.013261925056099013
0.014071625506503413 -0.008090330395342972 0.013217131885214936
0.01360291916604394 -0.02117005943464821 0.013428589026762276
0.0017666562077107827 0.0007010388007028438 0.013109420525944462
0.00326596117363459 -0.0007310943834233211 0.013043498251072297
0.0028054949443543985 -0.020563370220766267 0.013384663953178642
0.013255471464296726 -0.006684700597182623 0.013247406390387687
0.009000323311139034 -0.018613891145285263 0.013429150625259012
0.005189275177757892 -0.025920946230835993 0.01364695153976676
0.01741866699265138 -0.017017466076724986 0.013285134090981312
0.012693587433665467 -0.02296353230709567 0.013526552684820305
0.0025185824963862447 -0.00571234806454735 0.01306827364129208
0.00978533847037393 -0.01432141971938316 0.013230473730592954
0.0009396073796560369 0.0020518546207551752 0.013089171656066916
0.013203819080564956 -0.020105756700306367 0.013270158702736859
0.007336241691275378 -0.021320149513410644 0.013340689861526332
0.0009621102007084681 -0.008817315261571201 0.01311704623755501
0.009770219169489287 -0.013780897462231106 0.013244733111794981
0.010144062395035503 -0.013923078182212788 0.013233824745990452
0.007372484832892708 -0.02390556693796654 0.013168188814809346
0.011572928022929014 -0.005890771634164546 0.013194691680406915
0.007028639651474863 -0.020230340377908277 0.0133916135616219
0.010496666262585802 -0.00413076914800237 0.013093293578953738
0.00490802888659581 -0.02386606047325951 0.013277998837576502
0.015749416238896356 -0.020002519943743798 0.013338442618791607
0.005408019635458492 0.005220105322640137 0.013031923747267015
0.009579467582354841 -0.021601831997398655 0.013328710764402589
0.013441995529714406 -0.021712551358588607 0.013565428622546928
0.0032703359550049806 -0.02057220600193973 0.013301280758066211
0.003177894164212413 0.004052716218673492 0.013100046727500026
0.007306029257684155 -0.022961713082884343 0.013269237010601866
0.008847018188225352 -0.008047426398540908 0.013329654243017457
0.00735403424923254 -0.006543223985328497 0.013155838227488836
0.0029394705793099295 -0.001548722971162692 0.013091613942637694
0.0023373246848360334 -0.004957449802484838 0.01318219517888105
0.0024439253656524697 -0.005990373776076271 0.013113510408435542
0.0010817363939279454 -0.005959476542129561 0.013189179406988182
0.008145996647263867 -0.010032871498345168 0.013307812972920906
0.006994298519841525 -0.016315863138291503 0.01336464559323914
0.00238319510923318 0.0014681647766641253 0.013147249888201528
0.013175446571098716 -0.01936047984953311 0.01323322954651447
0.007109524663457786 -0.01672110908182799 0.013351652079274707
0.005753927949077828 -0.021053609663073798 0.013242127796235357
0.006341999580232164 0.002673019656555312 0.013108783833538376
0.004102102894555426 -0.0027796955361551134 0.013140091336481736
0.00908853421241454 -0.01827435655913876 0.01339244081007087
0.002566772250321125 0.003237552377046274 0.013061474157864798
0.0006938650134595636 0.0021003697570687353 0.013045317632237801
0.014340234121002174 -0.020844165234116314 0.013472672675715558
0.010919137761017203 -0.022490556020488106 0.01327732131130405
0.002500638097503369 -0.011769381610030206 0.01306732261382118
0.011542605691072646 0.0006513124503135679 0.013088134170899178
0.011933087214067401 0.0005410220316784187 0.013124566953153248
0.011498917665449908 -0.018347391992675915 0.013213370573704787
0.0014060103982039642 0.0009333847916088869 0.013084175636935544
0.0028895867800534467 -0.017126720299269753 0.01327240105553633
0.004837697328368171 -0.02250189597482066 0.013394766760470384
0.0075562863351697875 -0.019171053055126404 0.013319018743208661
0.011100383527711158 -0.018357171110868 0.013207468250031232
0.0021402030184656654 -0.007265465867665055 0.013097682095285295
0.008198524202526775 -0.02274371914930481 0.013267459732721545
0.0026509606006536873 -0.002475077974063782 0.013152974415662164
0.008068496569077478 -0.01818336556680085 0.013309520373222264
0.002706144867853008 -0.002966513263111847 0.013153287497433268
0.0012825843572036371 -0.007077093447722761 0.013102038856296953
0.010050214647280573 0.003041599119973897 0.013223517008854158
0.010259967502099798 -0.022893295286492976 0.01337555251671378
0.009579501714513921 -0.017321742421532574 0.013225989943195241
0.004730716412946603 -0.017005951679467435 0.013315554787213638
0.01026948908035374 -0.013278106174543551 0.01320903328367693
0.012218996553565401 -0.02254437883779361 0.013430962362683162
0.006329867905301497 -0.01966527196570691 0.013413589771640581
0.0023386532685885104 -0.00852795068224368 0.01310217083679173
0.007280058934512635 -0.015736596013550104 0.01328338672777855
0.002802200453511932 0.0004274451828105619 0.01319370518762957
0.0129773946709537 -0.0068081445104671715 0.013339844191513744
0.0038907726790246193 -0.007524714997017955 0.013134649501295712
0.01174264469917323 -0.012285997111168316 0.013258202014543509
0.013527467677041124 -0.005518313195163419 0.013144864158887819
0.00031971280419052124 -0.008806237615711407 0.013080096601267167
0.004541010165830254 -0.0021890045262328867 0.013001178938949852
0.007623479102036163 -0.0015384582404629292 0.013008912916743255
0.01315439046533226 -0.0050804839740095555 0.013169023985984496
0.007980842449604507 0.0015265818846667387 0.013079877832919123
0.011874181325487928 -0.011405502225600802 0.013217196155505399
0.003390910796436963 0.0002813446857063965 0.013159842057120546
0.0027596408386149386 -0.0002182002829932723 0.013124681026912334
0.006190851327344899 -0.01134266906214518 0.013131639180410744
0.013451512847798911 -0.006129144511070366 0.01315609345490944
0.003193616018271692 -0.018131483116758988 0.013264483140197238
0.009062589879485192 -0.012624035960799732 0.013236125092558
0.004211626575283308 -0.00032034046282710814 0.013187303067098203
0.01398124228203734 -0.007093049700833945 0.013284229025867305
0.002039996828783505 -0.00023488885509897873 0.013030446962384524
0.007384505156730109 -0.012240191571347968 0.013151643060074944
0.006635836963376951 -0.011505907599436068 0.013201558708628509
0.013411651315110336 -0.005632106568236735 0.013151910749134401
0.001760121708937567 -0.004582414665712452 0.013186283380804863
0.008756075238231355 -0.010392143545388007 0.013250251068117256
0.009145699246652806 -0.007387871404488974 0.01322794638303873
0.011204572264149538 -0.010502348450429192 0.013152555522064199
0.008019095298594585 -0.018994245936015963 0.013256261137874193
0.009765229607586839 -0.020270686589147793 0.013282657228296283
0.012730375132977673 -0.0042808135984907895 0.013096131114284329
0.0038497687898027214 -0.006828120765681261 0.013075426073826491
0.01280872731391268 -0.0096764742068652 0.01316080230016577
0.0017980991691473173 -0.0004866705161761755 0.01307270343756964
0.01030538092531363 0.002713144531934427 0.013191664394577685
0.0020063154272862366 -0.001951240267393788 0.013095623185223941
0.004236921998811065 -0.003752786988975403 0.013055935605700668
0.012892839197947958 -0.005209639482841495 0.013140327054360027
0.004861967348803821 -0.014982632489374426 0.013309839929143807
0.001444908582044767 -0.005091926039196079 0.013220108176057541
0.010375505254883479 -0.011133880719836278 0.013186604108407933
0.00028359570882392364 -0.008291541029673206 0.013123770767073413
0.008048144028765034 -0.01370899420012198 0.013197946083895228
0.009549413765315817 -0.012152940694094349 0.0132101179145933
0.012746531512231145 -0.006107997745218637 0.013260019554109591
0.004980842771228903 -0.002535091811354014 0.01300492727038127
0.012377426050388902 -0.008999886153741862 0.013191154301034482
0.013167068478426823 -0.0075520119678856145 0.013252246049473537
0.012552913053390272 -0.005705308120044738 0.013216684812376527
0.012559577751452973 -0.005065481289586711 0.013139393404528514
0.0036151004768620954 -0.017765692401996557 0.013223953949556586
0.008263241333839842 -0.013481514796329542 0.013181943021990989
0.0090192570366784 -0.012602233617411529 0.013236492809639998
0.0060672914860265565 -0.008843095569282654 0.013052785507214431
0.0014622078948600622 -0.00032797449310426096 0.013027536485238323
0.0059283734067689465 0.00421312132243057 0.013106262449823707
0.0015896753376944536 -0.0018405757251444502 0.013058954531090305
0.005327399562656675 -0.001480155241111315 0.013091819080768601
0.0017089668812442613 -0.0028923091689979233 0.013161452893321789
0.012075870254798535 -0.008652405351300354 0.013198586530879637
0.012989982827670509 -0.007276026886209519 0.013288498591661677
0.0006790870005119539 -0.007563134350279653 0.013129211899612934
0.010544154201523414 -0.007613910029626629 0.013235668854240264
0.00984606124236719 -0.012030706851873142 0.013205532743038569
0.009739969687732372 -0.011037794213172884 0.01320686718257696
