-0.024640268649689046 0.033106627567498007 -0.003892502792474505
-0.02489325270563118 0.033052882525359414 -0.003030303975581608
-0.030827380009649123 0.023488292309875772 0.004172463913614908
-0.031133225402076508 0.02259637983275081 0.0010805960947018376
-0.015864375486391045 0.038196280688697584 0.006026324996038445
-0.025502815541154182 0.03266774961552534 -0.002143014668282628
-0.033883760933639144 0.024038565560245383 -0.008893158471100051
-0.018686281252204125 0.036952009094304274 0.002338819192064063
-0.018428310271375536 0.03700478734107278 0.0016570952844967846
-0.01621067840898551 0.038259374041707386 -0.0005362552473451768
-0.020190917446454702 0.03619946574418001 0.00030126654659177175
-0.031171491729609632 0.027143730140974813 0.012839640890103421
-0.03021323865777243 0.02414223697922152 0.0023341224403765986
-0.034308033227929656 0.020333953543605156 -0.000993456418245987
-0.018412406604203034 0.036946129132379504 0.011307561687966265
-0.018180690026961772 0.03701206848834951 0.011043487979173164
-0.028184949610464312 0.029435514532829922 -0.0006793207065076282
-0.03338976140643303 0.02455560795457793 -0.005725920119785446
-0.03370003260957302 0.022987393457032247 -0.002973873653305062
-0.03080001774185537 0.02741908925272294 -0.002264683582445267
-0.024755228191676658 0.02982911190815285 0.014068398775265403
-0.025448681601607938 0.029406035784106895 0.01406802235581796
-0.02833714539164582 0.027754235205359058 0.0012908184975298006
-0.026731565983766636 0.03160540412813666 0.006807568014760519
-0.025122601768314504 0.029858806428007145 0.014172390202842194
-0.019722012544283338 0.036425398529926684 0.005564896661339023
-0.03310753759045018 0.024543254926085688 0.006196311541299031
-0.021269867930115025 0.035507399875217435 -0.0033419324468430146
-0.023966595396159533 0.033717852828352046 0.0019122954290247145
-0.016180952410779267 0.03787435419482898 0.010392335152892155
-0.018905798913836 0.036866515138795145 0.0026872678034326504
-0.018650756556705454 0.036834108080451324 -0.0018293564589499916
-0.027208533327545546 0.0321246287771243 0.015218384238957095
-0.0355566663159587 0.020792990060212617 -0.008707971966232669
-0.032323005283771696 0.020914040445496575 3.6586843566745474e-05
-0.021975375522095723 0.03501255372556578 -0.01135665569006299
-0.02245063742407198 0.03479450902254089 0.0018795797278507787
-0.01824571750485786 0.03706091192381608 0.00019799464985673982
-0.02066641445927283 0.03575873148594007 -0.010483623579064488
-0.029228215756680838 0.02882354012037805 0.015313489402727764
-0.023904199823532986 0.0338039409985289 0.000138687368969131
-0.027959313121542144 0.02949628939223541 0.0007690599679927996
-0.017986032896899748 0.03716079082683658 -0.0002577270972118252
-0.03225774734792084 0.025969659038968695 -0.005645329478845125
-0.019702427005190398 0.0362136615027498 -0.009633359352161471
-0.03200463181089682 0.02627849461742704 -0.01147477015287763
-0.020899575329447802 0.0356815167675486 -0.00028159497389216925
-0.03229918986232195 0.025978316847173104 -0.009907461313930839
-0.01997255199819586 0.03530453954659411 0.014373026068286795
-0.03217792116129663 0.023751415142014072 -0.0015697598130280585
-0.023309536528469905 0.03410947553940831 0.0027195425894597927
-0.027841870372069033 0.030699785093517253 0.008276256659079696
-0.028979640083804433 0.029554201533342053 -0.004178622763266548
-0.032512918742240035 0.020647316243056553 -1.5197946778439824e-05
-0.0186340543874625 0.036864586330347865 -0.00918625447151418
-0.03270157103806052 0.020816051078553 -0.0002842850917549951
-0.025029737486280457 0.031135942610040514 0.014113406308011462
-0.015672403345909698 0.03831563103770114 -0.007501205193423725
-0.03059990070930458 0.02372117637570946 0.0009554809605717844
-0.025254911939752215 0.03259588913632026 -0.01157818167791489
-0.016872983760034935 0.03777532295594388 -0.003645899961539632
-0.02323902351478628 0.03224181426062574 0.014107229956056453
-0.031476043696682866 0.022141078736979777 0.004679825617331865
-0.03155627823515588 0.024756573400950756 0.005125923320418198
-0.02986907231878933 0.028369201735623052 0.00493980614667355
-0.02689283257151742 0.02929904449342064 0.01415246944048841
-0.02866929117615721 0.029713516948290462 0.012312784757632225
-0.025607947883563815 0.03240631285266629 0.006500578768194224
-0.02236653569168952 0.03492274692832136 0.003400827825897487
-0.017875769263195583 0.03747904770988347 0.008718731053887353
-0.024431298459215156 0.030658223293863942 0.014273122973950409
-0.03139276043209544 0.026909282633767722 -0.004833718141391547
-0.03369602896170976 0.024434498580166747 -0.00719712324613506
-0.01833058853153227 0.03710420347294406 0.005493453364685812
-0.021136437012350205 0.03549447886182888 -0.0007451019355165284
-0.014727930558877271 0.03859154130892322 0.0052165358456578905
-0.026177507335097987 0.02980556840052706 0.01420622029536732
-0.029783332220252066 0.025406893643942018 0.003975622908824605
-0.023419714789085506 0.031480479005689385 0.014051151248538505
-0.0197746005665706 0.03618954451003285 -0.000761925651394812
-0.022648438492405956 0.034474369116521304 0.00992207550804861
-0.018027389136548284 0.037163999165116104 0.011683395100172718
-0.027130773158314424 0.029377856266074493 0.014149222713308417
-0.033388499688433035 0.02377978574448362 -0.00321343379729645
-0.018804228297095125 0.036839636078914766 0.000768930463393655
-0.024664987129599972 0.03125243288598392 0.014132882448954614
-0.01679942973184648 0.03784501254213533 0.005869068024823814
-0.03464535857543499 0.022592084955371974 -0.010176014432432713
-0.017695420139260506 0.03742569888658676 0.016213052954568066
-0.020272849514123406 0.036084725997371496 0.002022234999884316
-0.02365068924393505 0.03385861484908141 0.011834607166774397
-0.017793134300857178 0.03727638419644813 -0.001983527824246053
-0.033096921306136264 0.02510299745585845 -0.008670568323575495
-0.031061593732844867 0.022369247310409252 0.003779701229529826
-0.027609483793290812 0.03078760570384073 0.005784185279100802
-0.018754596201092086 0.03671235345304202 -0.0007304449713537512
-0.02769408327836137 0.029255186493863525 0.0029790653498943708
-0.016212040713176216 0.03805989677983377 0.012018295234735929
-0.025413769404899415 0.030339933058150522 0.014311209750607597
-0.015129756048695854 0.03851034794100096 0.0005984688301436225
-0.02349681116755774 0.03206299041431162 0.014133086137510426
-0.02359964733443919 0.03166019687314371 0.014154645042653556
-0.024978166656574582 0.030228069575795533 0.01433815497284386
-0.02308814978664827 0.03437040282445335 -0.003293933646370539
-0.01607223301985162 0.038064289279540406 0.012263895624226867
-0.018121697270586767 0.036991968864299556 -0.0008293343678620257
-0.01709864303842514 0.037634703113652634 0.0011653717742408196
-0.02007889633025139 0.036037234940377735 -0.011312238796180617
-0.022916631535366477 0.03446025862372156 -0.0055266877669524934
-0.021593488625530198 0.03508146885385914 0.010653405183478671
-0.023471601871333386 0.0340149348280919 -0.01262974183253487
-0.01838471381243119 0.03707907963118273 0.002661805020755586
-0.019536959767761087 0.036364212586548386 -0.00282885157195053
-0.019942569489181713 0.036163054099303184 0.011955331151184164
-0.016817406177727482 0.037774552984216565 0.006715016461250093
-0.031835383499066436 0.021604874934320586 0.0002562662882593668
-0.021051772916659512 0.03548932021866054 0.011647518528029822
-0.025869751734627147 0.029802543061716674 0.014373354454779413
-0.025945184430354866 0.02932330721506026 0.014235357832261712
-0.02390254488277492 0.033889089942507056 -0.003103452324151605
-0.017648104008283615 0.03799441203780537 0.015204808331739612
-0.028554124558517368 0.027105590375327504 0.0018468930063104154
-0.028056466434562683 0.030345222380832367 -0.0022010282857261184
-0.019120492875242562 0.03613515876830628 0.01637216966944552
-0.030532264637906134 0.028854543150846106 0.014783515450068264
-0.02093174048943737 0.03556880436900829 0.010227372263182022
-0.015833516257000798 0.03816426706487952 0.012952852546519567
-0.026215865343035844 0.028913486083557188 0.014216096767806913
-0.026625360316110777 0.02822036670132867 0.014030276450251353
-0.03399675009614333 0.019385049394814797 -1.379109914540914e-05
-0.035215728807927664 0.020857655586996645 -0.00550132704641072
-0.015441639248808797 0.03839173443600295 -0.006949188438426365
-0.02736411891682044 0.03101904089046628 -0.0027476354557919216
-0.01547381158314248 0.03839542817797888 0.013482360986853325
-0.024983403270096363 0.03255404756146797 0.015306460391544756
-0.02153737608010451 0.03542489308250617 0.005752669973238332
-0.031158672768711936 0.02715463695705818 -0.006187155815906453
-0.02233534188777577 0.034705094597068 0.00981272441351384
-0.018748019587236514 0.03675130985765604 -0.012494563580175321
-0.02179210665220141 0.0351453900965203 0.0046250501942760175
-0.02553179807710579 0.03250233802704859 0.011849230483865193
-0.02482857474098584 0.03310392439884089 0.009377114160377294
-0.016758593119490132 0.03798079274371417 -0.00010692892553913224
-0.028549935799955406 0.030023469828926858 0.007897949108177555
-0.029998892982391043 0.027867319453056223 0.016265187668912634
-0.0235129370259795 0.03398373296759437 0.012723888279460017
-0.018399019063421597 0.03705551348949897 0.004153719102819399
-0.025870865324396124 0.032342725816321714 0.004526434884508837
-0.025581618827942056 0.03261401319749406 0.004461721850868399
-0.01592881869448836 0.0382719652231579 0.013550289822381637
-0.016265328777460807 0.038100346081028184 0.013480603379815189
-0.018395396123685362 0.03775021515628005 0.015011593518401863
-0.021359744804384104 0.035401332246156034 0.002405491265537389
-0.0146447325668218 0.0386504382078079 0.004304390342496865
-0.018314664688228725 0.037009936738886924 -0.010372106145322918
-0.016003622055918817 0.03839355332348103 0.013963620063297167
-0.0316546517593001 0.020928070377612257 0.0019638035070559333
-0.016245414423853684 0.03829027386682218 0.014028487206170177
-0.01659650003092714 0.038088562509393756 0.013983925307736816
-0.03149716751909058 0.026748882963578743 -0.006830221016569621
-0.0178724859624389 0.037965548242129436 0.015122773929760403
-0.03001731717012567 0.029303655366407083 0.014569061151193571
-0.016576328986107603 0.03787544549636689 0.011727401726274681
-0.01775950705739787 0.03815941187727777 0.014727105987666174
-0.018821454871723205 0.03684839547229649 -0.005425442212267264
-0.01726760924180935 0.03831211349760977 0.014868493705880554
-0.016820123993626396 0.037852851996791934 0.013620053714718939
-0.0282077665870476 0.030231799528161074 0.0063628107127800685
-0.022777612148451316 0.03318024764641582 0.01406333680938544
-0.015775403856519866 0.03845651474944059 0.006997723711970945
-0.03090769173698498 0.027040826523265577 -0.010801336462838755
-0.017394121295882078 0.03744129734254283 0.012445878604028519
-0.028898021426544643 0.029305646260195113 0.0049460207090194375
-0.01571311470837213 0.038297367043611634 -0.0077544514739735036
-0.01255452632286304 0.03965177316577268 0.015820996639819975
-0.0274855928392296 0.030949870422790286 -0.004208625610191444
-0.025867366373648233 0.0321720042620121 0.009998441662347993
-0.019895304522049694 0.03617748501987391 -0.01255086243604816
-0.03303087406864561 0.019234128970557825 0.00031348830839122944
-0.023476565527428717 0.03399534719443512 -0.0020685594044112816
-0.02940966807450928 0.025601256816268993 0.0012771791329832488
-0.024038315843661694 0.03377557975426088 0.005312467591557814
-0.016279599898525603 0.03801175450417486 0.011630411494901897
-0.025708113287429838 0.03242610875822376 0.009202567467624642
-0.02565662451243518 0.03248354081599116 0.009118472389906547
-0.024343949216832934 0.03340600091926851 -0.005286212065658627
-0.026925144587904896 0.03146551025541979 -0.0003613510453224279
-0.02567216903430962 0.03222538945163111 -0.013309211715693305
-0.021871279194912295 0.03494989445531593 -0.00176968322362133
-0.02533933611018229 0.032651518934723026 -0.006281536149170425
-0.02300275932373453 0.03430338667355981 -0.001693195650993779
-0.022107513673789547 0.034809237442031245 -0.002063168196770798
-0.019668650889911654 0.036188555130825834 -0.011743209192112797
-0.030730186231443617 0.023111176549526727 0.002060536991933307
-0.013777430514024936 0.039000636746018454 -0.005953114109811426
-0.028130404578093512 0.03034823005268117 -0.004363037573324074
-0.027308788748015886 0.031075119677594465 -0.0022632869394409805
-0.021331473288267802 0.03532026952141333 -0.01152351036738014
-0.019084031770373953 0.03678245378282739 0.007024814081487393
-0.03168330216989833 0.026187951224479866 0.016373519022151777
-0.018526979775072 0.037071388996062805 0.007643995620363289
-0.023932767815052002 0.03371980688722951 -0.0014461425396251146
-0.017906721799272652 0.03724247582749607 0.012265187066735388
-0.032163473042720124 0.02614227922144315 -0.009195654936336228
-0.02179484131832903 0.03516211791398104 -0.003439578927269522
-0.035188713713384105 0.02082844341355737 -0.004416168822436475
-0.026032788225221634 0.03208139325924212 0.012870394392357334
-0.017080194432794626 0.03758993667554707 -0.007855436361043236
-0.01992506872655469 0.03621745642075347 -0.008320524003931068
-0.01657223621212686 0.03779294202580203 -0.0076897922276164205
-0.02617644007180868 0.03209518624280885 -0.010114749063775283
-0.029381774160366445 0.029881346656161597 0.01599494295912626
-0.02848461055569558 0.02993856240223733 -0.002662683729201009
-0.02751417522684106 0.02701560689159798 0.014108978856342512
-0.03139576304321242 0.02637037424630063 0.015527893693473736
-0.0188898779695767 0.036747359545500326 -0.008028437519167977
-0.025479307994932237 0.03271890936691238 0.0004901638833307287
-0.025180672470522643 0.032870014459785796 0.0019073946417584257
-0.024917602834279032 0.033186893402202725 0.0002447338097007305
-0.025326059720100796 0.032747606096853676 0.0015102486491848158
-0.02523934569752041 0.03294713160544903 0.00021745885104111723
-0.02553280421772604 0.032584107064221074 0.0016378500971310594
-0.025368636302956656 0.03267400916175741 0.0020283807409115975
-0.02574335911690466 0.032388454239395244 0.0021124623895184672
-0.029422634712737906 0.029662903852525405 0.01614105524902308
-0.020536782761851904 0.035867581239777034 -0.004368617050398809
-0.026824920675947335 0.02843497913109635 0.014234276084498766
-0.023416545202094727 0.034118092628379205 -0.0027348702867571744
-0.0207103680176835 0.03584229189207382 -0.0035729846266862016
-0.02090275016391685 0.0357398910915335 -0.003453510116370093
-0.02446919800800507 0.03307247823706016 0.011412068563358996
-0.022894845103647313 0.034458208379331105 0.002073988454140127
-0.028359292542632215 0.0307876286545662 0.015905985963633986
-0.033028296170686804 0.023976721018237102 0.011934287744142135
-0.02602761328305994 0.032264841420244966 -0.0029183500479541234
-0.02826162523937692 0.02727530678798041 0.014513201487838894
-0.023372013288191038 0.029946264207628227 0.014085713639660439
-0.02218618407725843 0.03488094882189294 -0.007306082293568677
-0.027389454254035616 0.030749370922228944 0.010648770727848485
-0.0280744176900878 0.03062563838410844 0.016253965828937303
-0.025322242438050195 0.032753190579391245 -0.003348560662912595
-0.01377797935131729 0.039034657945391626 -0.003924978060365489
-0.025999983151968824 0.03247493747110664 0.01613024262744701
-0.022768419101755616 0.03451041369639267 0.002293884799689524
-0.029693912203737547 0.028461335206369044 -0.010334616971774579
-0.02156698146839697 0.03527147594371522 -0.004348706932857973
-0.02845783075191064 0.030091897866491083 -0.004528168459123734
-0.027367725666608767 0.03139767593226583 0.01616944843779272
-0.02792769044897772 0.030230603517437213 0.010713576276797192
-0.03295899663630908 0.0239030031788224 0.005996035813554982
-0.026660156364191435 0.03255699312836177 0.015291513175222043
-0.02991543014911857 0.02858643674515319 -0.007034899726733082
-0.027882661831753273 0.030253949324477794 0.01082263114190211
-0.023515741629164318 0.033956149305775785 0.002232445064622269
-0.03200064515118045 0.025364741707905036 -0.0019094959971737956
-0.02461165701187639 0.033089051405463886 -0.012271340503902306
-0.031582230206772414 0.024432215226595347 0.005127349581293647
-0.017196795946941984 0.037525084715294664 -0.010246960987572105
-0.029614362581039777 0.028920757784513206 -0.007854432364183664
-0.03169295068477934 0.02777231395828948 0.014702926016003948
-0.02564612170618131 0.03244510358305745 -0.011962285961016879
-0.01870003118597896 0.036787552072318964 0.010737054062564656
-0.03269948435370779 0.023539131378239427 0.005911540299268146
-0.015426818487345312 0.03834515004119883 0.003059622321545278
-0.019967178886650346 0.0360814491860386 0.011463350049216916
-0.03170719444995781 0.025951422740137762 0.015606963086712538
-0.026991376147653727 0.031378152151379055 0.00757017011440444
-0.0310660177451289 0.027304286315473613 -0.005545912596092256
-0.016010215773435497 0.03810942446373193 -0.00612931862286794
-0.020152420317140273 0.036127521198930396 -0.006193841646165507
-0.02401796591063883 0.03364412266451724 -0.0019452005374800722
-0.029553947474229833 0.026774265409251416 -0.00041942039388911413
-0.023564645005766854 0.03373382061350555 -0.008766399997029809
-0.01636536611246649 0.03796947065771299 0.006175340652592351
-0.022293881122344268 0.03267857215713925 0.014194837485018071
-0.014396696985078328 0.03866620710868427 -0.0017635565900106366
-0.025938024543515993 0.03220425536037898 0.011460602656695969
-0.022449218670440425 0.03463900547669807 -0.0014158579831369735
-0.01511218190552175 0.0385389714578567 -0.004871026692424674
-0.03135809309945829 0.02423664569782797 0.004967711402436879
-0.02991793481182143 0.028912327768353417 -0.012919451250439837
-0.02942761285026407 0.029100269481835254 -0.0062410043111230575
-0.028665798795535644 0.02972887962874566 0.012758578339228461
-0.027459315050780475 0.027210033406033042 0.014016951767175255
-0.026439641886736972 0.027439343071921724 0.014109269067508022
-0.02858742890065799 0.02989991636202677 -0.006424249970691938
-0.02337218981651998 0.033981441170770545 -0.004145464864494761
-0.02376259341893601 0.03374089829770904 -0.004586728677141898
-0.020996798485203423 0.03555906106404372 -0.006257204974457846
-0.027823979056649163 0.027670590663319464 0.014350221137483549
-0.020856997295825637 0.03566741095639792 -0.006682565757265302
-0.026689617935493185 0.03161830593842551 -0.002984233171170088
-0.02104961363950701 0.035661536723339056 -0.005430269947613411
-0.019264152213351007 0.03648690113246723 0.012232493876810671
-0.017233968056525127 0.03752075496083381 -0.001463967936327313
-0.015588442478439268 0.03854413711104143 0.007268087651896514
-0.017448436016814745 0.037460357912188894 -0.002271407207027269
-0.029720429972629026 0.028795929152852083 -0.007006621723401087
-0.021613993387146018 0.035327640240868326 -0.005272820374744093
-0.02000594119352759 0.03604462977317436 -0.009466873037976027
-0.021565893924336835 0.03515026581069641 -0.007767874406716262
-0.02163725288296217 0.03505142362441584 -0.012363176104669346
-0.03297715555485817 0.02256524359381925 0.00783423434006848
-0.032975964555621795 0.02247870954824725 0.007200545046445253
-0.03435003501059894 0.022225660460731246 -0.0031511380759619064
-0.016492344153148326 0.03782278753220857 -0.00795853974632636
-0.02241527772849399 0.03455731218920731 -0.004696282362958107
-0.013052330125333784 0.03920012162118304 -0.0030348780566071386
-0.024043299489853433 0.03351205132338428 -0.004014193054655061
-0.01541057802119691 0.03854570491566934 0.008723538612856274
-0.022469613014704584 0.034526903525611205 -0.012935075184137803
-0.023195083882851405 0.03435129034946677 0.008042206912335401
-0.025799380560767842 0.03238793352366721 -0.0035104212663673307
-0.033147842666085295 0.022963423765071933 0.007404376331515068
-0.02641201127689119 0.031986000622994226 0.0018766551203547232
-0.029448821070187235 0.029090206433409864 -0.00527721333100423
-0.016744512537361825 0.03777679350280693 -0.012294727521793258
-0.027132238547113757 0.0312773844787607 -0.009648595084990446
-0.032760627502069664 0.02265290109946731 0.006148347652553544
-0.0172877571721112 0.03754644128859398 -0.0032330687427365706
-0.014174337617130318 0.03881385705847129 -0.0026220263089127035
-0.027238795335308173 0.02789745664046043 0.01404902424651937
-0.018607335918044622 0.03686178994308711 -0.004487461275708377
-0.015169936644198058 0.038702763300550655 0.015629472448870925
-0.026302142966435463 0.03194799550064708 -0.0034028216754017986
-0.0354451677040146 0.02185701351243171 -0.011953505253894412
-0.017507273505683034 0.03754132296132462 -0.0004920799678178468
-0.027798145365328483 0.028674777761489186 0.014160541018948442
-0.0310581335265381 0.0238865696218921 -0.016210144947997482
-0.032873404818594965 0.023387640293150148 -0.014494060540990271
-0.027756584418678513 0.025907373233947015 -0.016261351376892046
-0.030715711404187458 0.02393807241182104 -0.01620248574195249
-0.03673628449095834 0.018994204060122453 -0.007550541253621004
-0.03143437849776453 0.023466527120836446 -0.016326660371785297
-0.03138919304030068 0.021946216912776324 -0.016490826051158244
-0.031972563372569006 0.02478533688107939 -0.014151161815476803
-0.02767635639644158 0.022484732100533186 -0.015482271983383148
-0.03473207095735051 0.021507354158872716 -0.013677475465000201
-0.03704470754406357 0.018562333465677844 -0.012089179302605155
-0.03177779597539736 0.02150278903701435 -0.01640760355364151
-0.026603900055081148 0.027355374497251547 -0.016412160359547897
-0.03187029297319149 0.02157792099888222 -0.01640910411963501
-0.027170774953734354 0.022755233386018998 -0.015376298457999517
-0.033553231618396066 0.02211497690757474 -0.014835216761839359
-0.0272093745111483 0.027701876741027955 -0.016129038620200646
-0.02651173033713952 0.02658404826326796 -0.016273094937960645
-0.033630695940507514 0.022702402963202396 -0.014081414694416206
-0.030825726418042272 0.024941848430393022 -0.01632277329289437
-0.02708072574128404 0.0276297519877478 -0.01616981531279291
-0.034121034418467186 0.021445409896545514 -0.014696724760320532
-0.03171702768467358 0.022860356086521493 -0.016339683091760607
-0.031392334649145225 0.025473107880611617 -0.01427396078697897
-0.02894398658227262 0.026114499203656397 -0.016070636702149275
-0.03150711376218368 0.02384006472777044 -0.016380502984527628
-0.03140341288309761 0.02374928432932902 -0.01631692245458838
-0.0311649470521852 0.025042911766118718 -0.015799541474165776
-0.03278732979171247 0.023831314149124237 -0.014151234133867693
-0.02628517627857972 0.02719505091338643 -0.016421456254342784
-0.027360253438255412 0.02652591301663325 -0.016242200986307163
-0.03685274458317074 0.018738642249268984 -0.009300403753881182
-0.029308551362066615 0.02654859167697294 -0.016142822366435845
-0.033148957755992324 0.02220255467850512 -0.01575646786208449
-0.03046009544763578 0.025218045078251202 -0.016252256088331873
-0.030987575493066098 0.02517054531647917 -0.01595354061417827
-0.03441906651349907 0.022307825238767384 -0.0131868174332212
-0.032922834580119104 0.02148910448314412 -0.016215467438143047
-0.026662538958262486 0.027418744059712594 -0.01638251150818884
-0.028398852885925197 0.026454487650929365 -0.016099968368616036
-0.030864465411851887 0.025472887990570993 -0.01524065394899509
-0.028966643456801267 0.02376939413006872 -0.016384095207351665
-0.03277703573140592 0.02564146958811972 -0.013403694033612147
-0.027043620419888892 0.02371958300871348 -0.015661373934316714
-0.033225274387303494 0.022678075261116593 -0.014763663202964293
-0.031823409703512585 0.024211545669013606 -0.015864923561778536
-0.030544349778744616 0.025648773739603323 -0.015791529179939964
-0.032126031698947156 0.026315356648262057 -0.013423245630305931
-0.036266444870752104 0.019652267129532705 -0.007086654034279754
-0.030477012526806554 0.024061805058043815 -0.016221493576612206
-0.031158449233014154 0.021364361244052027 -0.016383420691020067
-0.03442355524896328 0.022477263386718356 -0.013242086383074456
-0.029602883765861294 0.02623431451767084 -0.016180744379428656
-0.03381701689158819 0.02310784243245787 -0.013489348884444722
-0.03419059088149596 0.02225438144732853 -0.013413424168024716
-0.03198848039189332 0.024440461271937216 -0.014578636922466841
-0.034811860180523374 0.022647866787880243 -0.013347744508157532
-0.03434181543916337 0.02255130254821275 -0.013246992175368486
-0.026748351785942065 0.02610159046790114 -0.016265969046544673
-0.032076536904027196 0.024104045781203245 -0.015048565841765942
-0.031001634004376933 0.02117724591514732 -0.016340524810621537
-0.0316922321194695 0.02511957875394318 -0.0142323474091701
-0.030494660667056108 0.021689873495265063 -0.01638264940206441
-0.030701404571120156 0.02236846923204323 -0.016433063784799345
-0.031192282700251605 0.021763336325974412 -0.01645372023220548
-0.03098057732112283 0.022539696759861873 -0.016450778156539256
-0.02909368480847131 0.02708422992563006 -0.0159276465935814
-0.029639928645454276 0.021937871027431007 -0.01619466038558944
-0.030396021571717637 0.022455725200894817 -0.01636776500317113
-0.028356428897031882 0.023586059387059415 -0.016223312681401775
-0.03570001896423102 0.021571577661683054 -0.013123311624476152
-0.03046425518366678 0.024789957224862155 -0.01613297338655943
-0.03355793488103216 0.02114991330027705 -0.015992859020375054
-0.029697992719757767 0.022716747256518274 -0.016206709860104945
-0.03010187522229442 0.02297792974648127 -0.01626900947146495
-0.029994110838747354 0.026617451505777726 -0.014868345735454118
-0.033085258280567 0.02189096406254146 -0.01602399702766625
-0.03300818217246547 0.025151803858579888 -0.013456032604050105
-0.02625013657062692 0.026136355938157444 -0.016275741752747836
-0.03018443724022262 0.025934918379666404 -0.01607143998346068
-0.02911418069766537 0.02276495098629805 -0.016237609905511152
-0.025969067991859593 0.026599428613239988 -0.016315161983090472
-0.03344313423844087 0.02192203086693613 -0.015457841510591302
-0.027129833975329982 0.025607852518846716 -0.016269572890620962
-0.03213240818516689 0.02398555557099328 -0.01552757165357722
-0.03634595607858113 0.01958548523261467 -0.007361119211198849
-0.030975335007092417 0.025203055855210505 -0.0159256955037769
-0.03242871409968176 0.02363901134052364 -0.015102227877143866
-0.0363369278223785 0.020431405342758727 -0.012731731773649837
-0.029092132221961168 0.023023804967191613 -0.016273112301023678
-0.030301745861028864 0.02339613016202387 -0.016272187935223698
-0.029543912225361558 0.02335942353653357 -0.016287086340628993
-0.02981094500694579 0.02357337268497574 -0.016278005310537576
-0.03614950728477923 0.020614275304789285 -0.01153924325853321
-0.028784895765319507 0.022978254556805904 -0.016241636108377203
-0.027029922741842884 0.025504109740217586 -0.01626014646154857
-0.028471834572235157 0.023990639217456904 -0.01634020751965322
-0.027804641923601558 0.02557496919849265 -0.016277946377398947
-0.03206866869728279 0.023245128234542545 -0.016362950109474875
-0.03705601341647105 0.01837316301931936 -0.008502423149345838
-0.0340212415383232 0.022554492277954828 -0.01341491201646105
-0.026287924967561008 0.02404922635695033 -0.015424357017754842
-0.027643498738226843 0.025323666243338247 -0.01625705279152423
-0.028977676821333655 0.025788395130916138 -0.01613332687186635
-0.033472574062653755 0.022066807484078063 -0.015136617332541881
-0.03176946294486355 0.024458874309360546 -0.015357368840060717
-0.029700105193694832 0.02544492983544376 -0.01608382093661569
-0.027540010380534205 0.024607449796398305 -0.016197011736850283
-0.02811544955138891 0.025156310630945703 -0.016326746526351344
-0.029483400852231896 0.025447512425844324 -0.016091362755730036
-0.0294880321014569 0.026559697385472678 -0.01609301421367368
-0.02948853267934325 0.025179003930080983 -0.016162141233592102
-0.030543998744203302 0.02588182977539403 -0.015100817304289915
-0.03565234819034863 0.021204469410794225 -0.010435244713300483
-0.028431859977175154 0.024555810061493454 -0.016403024576769412
-0.03367409368276027 0.021741133322321964 -0.015191186262755865
-0.029467979875729355 0.024809094322871234 -0.016310784838488884
-0.029485940923130904 0.024646954280748787 -0.01636610026486299
-0.029507156316573344 0.024355761180215894 -0.016453360497276977
-0.030694664079508042 0.026031008500599084 -0.014454542692291735
-0.031892075288533224 0.026047474716922814 -0.013424806045525513
-0.03208897241635407 0.024592474469009692 -0.014188065597361698
-0.03183751815787339 0.024557466051561373 -0.014784727163468379
-0.030445978568889382 0.026166327371830823 -0.01461996790470508
-0.027554348081001913 0.02277863408346796 -0.015508828049491878
-0.031686600384585054 0.024803683190636985 -0.014593441903402359
-0.03569481255809214 0.02127492362626343 -0.011186512696193546
-0.03597682094364381 0.020679098300096593 -0.010232667983979038
-0.031607546725408435 0.024376808383885513 -0.01605987535166374
-0.03738167605863413 0.01788351131874625 -0.011974277062238397
-0.032835019367198244 0.023173182073117717 -0.014761484109177457
-0.032450208967033795 0.023618705069692887 -0.014890251952034896
-0.03615725802400068 0.02085946750143127 -0.012862698043034438
-0.030116245685441943 0.02590929570404962 -0.016267348623447496
-0.037162251212414295 0.01818596440681654 -0.009428867882823115
-0.03368277049733978 0.02353451576292832 -0.013445367642653798
-0.03416934592639011 0.021910876024719736 -0.014078875239932169
-0.03507099089149768 0.021866463404348065 -0.01336947647304685
-0.03255388191571557 0.023178112328092002 -0.015979442791655352
-0.03668854807586493 0.019422287562386762 -0.012720871581480796
-0.03437323514016252 0.022198337797133597 -0.013240928615429418
-0.036442244346663814 0.01954583712583696 -0.008130348987587646
-0.0323213253467124 0.02589630135485395 -0.013491147168340815
-0.036223501840248896 0.020333945128013273 -0.013042813105592521
-0.03320241637058476 0.025190329924677922 -0.01333862137230208
-0.03689363008171895 0.018974583943027375 -0.012574679751940899
-0.033712365509869065 0.021487113263666844 -0.015499346427453906
-0.03160542843053994 0.024271088285652463 -0.016197137253352638
-0.03657760830699884 0.019296010092288002 -0.008179878542996524
-0.03368592112110037 0.02113343191860309 -0.015904288515963132
-0.02793334453358905 0.023485424805223868 -0.016081947667967722
-0.03576406305787481 0.02114609179388007 -0.011045877659453905
-0.027309201386500906 0.024291297070830862 -0.0161136309833018
-0.03732014886564863 0.018128618215395787 -0.012482237632643774
-0.03723173882040632 0.018074734645556825 -0.011498821560947042
-0.03691356096756297 0.0186309841562642 -0.01164130541672017
-0.03688783914560823 0.018624140976080793 -0.011421692633820682
-0.034062188903459224 0.021755452740920722 -0.014490788183263064
-0.03671883895153351 0.01934587789864527 -0.011972880971076478
-0.03326906724537851 0.025364540893555484 -0.012969996554586133
-0.03719586086729148 0.01810688672456364 -0.010923691344407398
-0.03650628282699568 0.019827931151529313 -0.011495758626505193
-0.036567123575631535 0.019405548839605387 -0.010742284287704176
-0.03697723591583283 0.018541103406571408 -0.010305111734125492
-0.029701035118537174 0.02639878574214388 -0.016024702263411354
-0.030157682900224532 0.02613226058079579 -0.015612037147571638
-0.028346525982197616 0.0226693628375097 -0.015915495183579417
-0.03568553217613068 0.0215360801318335 -0.012194082449496966
-0.035528623999844335 0.021831205553973408 -0.012975714356905916
-0.036345044807934 0.020117585457361538 -0.010912007053085194
-0.036524673149547604 0.019587119360929647 -0.009816255025342625
-0.03602919040631092 0.020786121494988527 -0.011423964959644942
-0.03629638922964918 0.020047308438204917 -0.009852568379730697
-0.033612660311895345 0.024448169071667573 -0.013454222067896671
-0.036281893181392535 0.01997402658696428 -0.009155254100106088
-0.03651637773634626 0.019505538092947142 -0.00906987448979653
-0.03643183465640184 0.019688644853875805 -0.009168299830241061
-0.03442579681986301 0.023483962587340066 -0.013328802854482095
-0.030932255168570382 0.024696728377850953 -0.016310492617097792
-0.031100145450047818 0.025384928854117646 -0.014688576031383373
-0.03622459398637053 0.019885339732203827 -0.008230269655528236
-0.036330341924956995 0.020381107320949755 -0.012071563442888286
-0.032557086887463685 0.021952440056643138 -0.016266358099987128
-0.0354840728770365 0.02186911824924181 -0.012231071697955396
-0.03776976242791525 0.017146892417323638 -0.01252709288653426
-0.03585227590559251 0.021192970658219457 -0.011891155712170207
-0.03610059753682675 0.020913503919291733 -0.012428561420247616
-0.030432371196720116 0.026359981312626492 -0.01443670148913112
-0.029860750744320944 0.026558630742799003 -0.015374316511742269
-0.03304330362883578 0.02325781558429328 -0.014378465951309233
-0.03681983390173392 0.018813872891018792 -0.010861130605399635
-0.03622625414466165 0.02020107260256233 -0.01020610051954355
-0.03248226894924248 0.02234581286570035 -0.016228910732210645
-0.036596424074838964 0.019465749227834155 -0.009740304965461325
-0.03225492791529388 0.02412446932638861 -0.014510950921260899
-0.032173310365870754 0.02569000888002463 -0.013405510152581478
0.011138330108877242 0.03907300150184015 0.008816911304258627
0.0021746167872734147 0.04093038385070811 0.006551629254490428
-0.006136441973132932 0.04089120101816444 0.00017092991820471783
0.022501036200576 0.034239730583736944 -0.0007993410518448502
-0.013918812326423113 0.03899137185289733 0.009498277353004677
-0.011608855779523553 0.039635382916108075 0.006211998740487449
-0.01249753066420575 0.039241979040430586 0.006042849012824546
-0.012382029985264215 0.03940227021178159 0.006487753996439076
-0.007760287143970342 0.04056446428893894 0.003769340330026196
0.017179227028195243 0.03727995744661207 0.0013353732659559373
-0.007800738888774769 0.040925268434101145 0.015120342877875354
-0.007829944813030882 0.04073032337096348 0.013152735516817757
-0.00500865574784177 0.040855038854951224 0.012641299267614621
-0.005647135989267801 0.04078613400401447 0.009704914535773282
-0.011370033855771787 0.04032803862829222 0.014269290227710318
-0.01116801160055537 0.03969809759067448 0.00811532456836209
-0.008522105040337971 0.04036535277161024 0.002266681498231628
-0.008245303448059177 0.04056418400655115 0.006838495336434575
-0.005599669729814002 0.040974942632083705 0.0007791971892265471
-0.007588226898104365 0.041226121875947944 0.014509400861797616
-0.01258258508144072 0.03931955389831629 0.005762281360378812
-0.005420796134852277 0.04096411565880992 0.005739378303675357
-0.012207439122165577 0.039793805330622975 0.01578444614064339
-0.006056705147605501 0.04069533968395993 0.009644550107449747
-0.011286946046091186 0.03981825616214312 0.007319799301099397
-0.012994339877765049 0.03923972257123808 0.002236000258867205
-0.0060634219755337886 0.040790315715863244 0.0049092522814633745
-0.00808146230597137 0.04058862818467934 0.0005580171567325301
-0.007013492805508638 0.04123510797920263 0.013837637346023612
-0.011587271187020083 0.039501000721778826 0.010678418311608293
0.021839656997652453 0.03474778081499033 0.002784599839282467
-0.012735368146880552 0.03992876109512817 0.014793957593476887
-0.010718401081777542 0.039826475699970575 0.00235364183810431
-0.012618673419862614 0.03934141838416694 0.005285326585500991
-0.003131807405293015 0.04116749200777047 -9.970785100064044e-05
-0.011892440651991463 0.03959033685336912 0.0048770677506489455
-0.014090466980409791 0.0389611799588863 0.008004380683782335
-0.01440659941764632 0.03886552369892599 0.007958852982518137
-0.00915397825941625 0.04019292204505941 0.0003986715180169035
-0.009380468403709173 0.040248236975913225 0.012153991467756175
-0.003459332921966515 0.04103743950042957 0.00730823211553188
-0.008643890255017706 0.04042842718088308 0.012288572607754157
-0.008665508964167833 0.04096805457652055 0.014660758531764798
-0.0024637784838782957 0.041223727355869925 0.00016014680305819078
-0.0077286939960894375 0.04048268684001108 0.00944875264314073
-0.008888110033084547 0.04033834969870864 0.012521448659148249
0.0078352755023764 0.04032400546416528 0.012578963127685285
-0.0030816397140127844 0.04166136115585363 0.013612706004266735
-0.0004668617467979005 0.04164926084593197 0.01355756391329218
-0.010093556111418496 0.03995564083685943 0.00906871108282057
-0.009274646656885382 0.040235070825258255 0.0009129618630104325
-0.00894945054307528 0.04029100909962452 0.0003404844874953553
-0.008636343184641394 0.04036652947692668 0.016095272712813316
-0.004324819442025401 0.041022404261797825 0.012001566793522848
-0.007428016660672207 0.04081071863636221 0.01321271604134156
-0.010459296343676181 0.03990866503697339 0.007068251060528861
-0.012063766603179055 0.03944489973690842 0.002191654017402351
-0.007256414880957435 0.04069256712741916 0.00026701173455453454
0.0014464383570032759 0.04093310334835238 0.01101259140558885
-0.007131147569186467 0.04076904202583899 0.012989525629014297
-0.007529734228927647 0.04063962650402508 0.006641241830680592
-0.01184343368462124 0.039590890068915044 0.007478021394809707
-0.014477595609893108 0.03873253903146188 0.005533797106517182
-0.008271395332779083 0.0405144245870775 0.000577971002280371
-0.005916683529957805 0.04086381140128506 0.012915996348851301
-0.004491716408861957 0.04178974786649887 0.014080204703151657
-0.0016569193124403555 0.04128866558752735 0.000401088871891553
0.00555630357471866 0.04035512873588755 0.009880497954403726
-0.007272172254931772 0.041030848112165355 0.015112248331325412
-0.013107849447624225 0.03907804417757219 0.0042631486891159445
-0.014012641446110422 0.03886227199078959 0.006494679874296727
-0.014064977387671132 0.038936890263805556 0.0052378307694833336
0.0040141600803342194 0.040379366689587776 0.008735051210168484
-0.0014827331870748786 0.0411614658093894 0.005395784823055063
0.01671254943592754 0.0375338634686368 0.007141992425696294
0.008467748943240809 0.04013011507286568 -0.0012056284420320566
-0.004327623231668711 0.04162062194654992 0.015184754218599897
-0.011561464074556755 0.03963519943336556 0.0015343698632599087
-0.009125635330526473 0.04024147744146822 0.007538231680692625
-0.013345396818901309 0.039133441909884395 0.0026162926667481746
-0.007220341746685913 0.04042117791217602 0.008848407011061906
-0.006004424599485908 0.041556421705538575 0.014313970275727995
-0.013699276114464566 0.0390085470967753 -0.0013565167971638806
-0.007814183793177255 0.04053342474524623 0.0033519860928870834
-0.009809842336033726 0.040143123756397704 0.01217918517829095
-0.008864697301917 0.04031040750280179 0.007737101783886414
-0.012577591213029746 0.03951457081898522 0.009445767113568574
-0.012117961366830245 0.03985657165819972 0.015438568544138869
-0.01242227627605372 0.039350632872115016 0.0021820155035253154
-0.007212998460551146 0.04050524043218477 0.0091196193753792
-0.006066919507971682 0.04073740829442002 0.004620661270723098
-0.009402478151632577 0.0405508980457715 0.015501927133446936
-0.0097681734337466 0.040096473691163426 0.007134923390919159
0.007120594733624462 0.040331730596546 -0.0005131426469423067
0.006440660001499935 0.04047206192514688 -0.0007776655907709585
0.003913547679930811 0.040842177210417066 0.005672172149352771
0.00376930219911621 0.040882335888691015 0.005689647692858751
-0.014059521410674953 0.03884120067868446 0.0043236941740300945
0.004214017501686651 0.04098977670617363 0.0022414643987226663
0.00555783469244163 0.040287180399102764 0.009104748122479184
0.004705904405470403 0.04035189475940881 0.008749160132373968
-0.011813972435458047 0.04014292091959893 0.015079994534601557
-0.003951034278249036 0.041030918205314564 0.00940041999844765
-0.01131832526821812 0.03960987718776102 0.011270812175201773
-0.009029968566574304 0.04022513927710826 0.009709904519746047
0.012583798805689377 0.03909667379540652 0.004920470901458577
0.012307145036720014 0.03924786821998657 0.005425120478513312
-0.005864806305055141 0.040913875053026495 -0.0007720475532698726
-0.01427493782210245 0.03878874837789997 0.004426587487277088
-0.009377639563445428 0.040179647765592755 0.007448140291832895
0.006153971524329638 0.04061112016554845 -0.001068577076852475
0.002053055431335375 0.0410914665595048 0.0008069068996254532
-0.008061212062954824 0.04042316611912093 0.001960150636931647
-0.004642797366066545 0.041169501291942114 -0.0003922818760625675
-0.005233285739055842 0.04082773978341622 0.012463041416180983
-0.010424524723246672 0.03988349633002078 -0.0018557007857092078
-0.009680549189066245 0.04018082402568289 -0.000630070954975154
-0.014385775486574586 0.038765872483179226 0.0019361321619022372
0.004493266290437272 0.04063038319191886 0.006716456188700518
0.0021351506283794927 0.041032427210433375 0.004954885349491418
0.014528447729837612 0.038432494839233174 0.0021419285205384227
-0.008980528167739369 0.04024014932840872 0.0035400688424488545
-0.006183417680950602 0.04134462849263651 0.015011741463308305
-0.010143961986762089 0.040071679023857526 0.006010416705848656
0.006984650979706516 0.040521009064460996 0.00013637017645822046
-0.012682506940972494 0.03940283236068476 0.0009009528886985167
-0.008321250604997383 0.04052996236271348 0.0009758484488656682
-0.011594826784427692 0.03999749889168837 0.01585306905330729
0.0019210754677381307 0.04189965941807252 0.013611130907146917
-0.007249588619608487 0.0406502384844851 0.011855883279753138
-0.0024422101943020473 0.04122757172797008 0.0007174360769426581
-0.00729445493124268 0.04062376264539503 0.012338125539664306
-0.004576226254214395 0.041864190285022466 0.0144097562276977
-0.013337396923335883 0.0391682827809038 -0.0011198313224412362
-0.011562675790485111 0.039729548707827855 0.00024462070568435413
-0.007385451139804452 0.04057816365228327 0.004667727625448145
0.014852361219841903 0.038238048936188665 -0.0012286350941520105
-0.0060778186474857235 0.04071354377771487 0.008611537414092494
-0.005096328881545381 0.04079553089593722 0.011425806530892282
-0.005823502606860988 0.04135808622884321 0.015112830635033497
-0.005748102947708584 0.04073821377579991 0.010965036051771272
-0.005519733966570986 0.040896790156326704 0.005029318619054648
-0.005591856643406151 0.041619214054118274 0.014551766477301047
-0.010857882083820512 0.039894608597547856 0.005448650693265519
0.014808167796368723 0.038212343530319215 0.010750351618294936
-0.012666035490797017 0.03940135452069349 0.007409863936791269
-0.01208215871333589 0.039574377850820214 -4.597150239435694e-05
-0.00631472258692356 0.040656175847334726 0.011265967274262803
0.002745103627314582 0.04089862632575024 0.006482366293186462
-0.010464148175241305 0.03987428387606488 0.007770833977258153
-0.007883825913624149 0.04108819436852007 0.013918327048370762
-0.01176143346936854 0.03953490837285204 -0.0015856192245090714
0.020157621580521173 0.03572426608492853 0.005573579824572404
-0.0054580431419309055 0.040716522591533036 0.010661237376258114
-0.014985949331961432 0.03870155365287281 0.007746085976223048
-0.015306279325780396 0.038630457882167867 0.007390218245826634
-0.005200007972949624 0.040998857729378384 -0.000862138369769968
-0.0018213185422086846 0.04111813071991689 0.01256076345502698
-0.001738805492047575 0.04098638265964087 0.008816855736374857
-0.006099240732071564 0.04110584755873783 0.01568018904596222
-0.004827628815089829 0.0410392639893567 0.009107588597727992
-0.013732451408508914 0.03904694529301046 0.007072257980491966
0.0004451708010626262 0.041143398148237795 2.4964002318516486e-05
0.02128469774963107 0.03503492379987415 0.0007657188252128748
0.022411995921513217 0.03427111877944085 -0.001457183619479131
0.0005243936680092511 0.041794910657846344 0.013868989296968273
-0.006371523731721203 0.040915378308190385 0.015963734831078977
-0.012378491152692947 0.039445152809093775 0.00033387023797337755
0.02008836938785931 0.035760993607403715 0.0009262707117247955
0.01907096169137069 0.036122737695717444 -0.0011384938082979535
0.02308610840632553 0.03383948032888294 0.0019563690562056707
-0.01138366416921847 0.03983589670829738 0.007116409010215824
0.0035839614348142906 0.04094102298786052 9.63988518406587e-05
0.0001487021594038966 0.0411723066787979 0.012291602054042679
-0.012366885746150809 0.03955760142595503 -0.0007549776834045596
-0.005478796961312419 0.04120558316309264 0.01567648854022909
-0.0039568711769203905 0.0416317026340141 0.015221421182389937
-0.0072705317001264536 0.040949885163750775 0.013503561523087326
-0.013726996672871266 0.03908625969308261 -0.00028301674902775863
-0.01257806672474861 0.03933643324275852 0.004714123469221215
0.016267065041448342 0.037712040140489615 0.004910486584044562
-0.009338088461424135 0.04019818369002148 0.007742750781231817
-0.014159314395476928 0.038737816487985924 0.011123796046061497
-0.006112155914962164 0.040611732681512 0.00783953546714316
-0.010293371278949814 0.04007846179041111 0.006770765903814157
-0.012795411891083127 0.039374690386367546 0.004991047733402428
0.020730657448983277 0.03528083292299726 -0.0014141431520795242
-0.005704799313436783 0.040697337666606374 0.010124091760872991
0.0038437625976766587 0.04070541001100071 0.006741632711889798
-0.010787874854853559 0.040372393577974675 0.015007311203392965
-0.008570475320014868 0.040460681782498606 0.004331993236389172
-0.00809509797539836 0.04045824680978677 0.009311022144942057
-0.0017444322380205874 0.040904632321776276 0.008407216861432207
-0.010160255861362528 0.04006421530412437 -0.0004180196223906221
-0.007490938216853291 0.04059206374206299 0.0034799593945489737
0.0027708466633506483 0.04200036039482202 0.014402882174137472
-0.012334746433062508 0.03948742145948031 0.006924760986457858
-0.007756848513691824 0.040527767905438425 0.0046295637338147205
-0.006557970646961158 0.040642121961009456 0.004814333265184132
-0.011486393991253334 0.0396812762543315 0.0037594463474352443
-0.011694254489320504 0.039664119058750134 0.00548788060432712
0.0020920256245785048 0.04092561394597538 0.006913108427828161
-0.010463644016105854 0.039906137066683764 0.002476058577294729
-0.014102324355283836 0.03891409247228246 -0.0005909932710921881
0.006100626918585945 0.040627306208938986 0.0034792621385474664
-0.004099878530545045 0.04198608440743596 0.014328561096012944
0.020650057865591286 0.035400777587651595 0.000837983367861276
0.010537834351237018 0.03988572799540693 0.012007011616688375
-0.004600319594235326 0.04105828667410797 0.005593728897513972
-0.013559930980451402 0.0391356078012452 0.003479608693725197
-0.00705144405824137 0.04056197207877466 0.0013437372446471938
0.019815673434043075 0.03597078009076087 0.006786717237585314
-0.01040213024573406 0.03986551428858881 0.007614474194301819
-0.006805058636115118 0.04056369232955246 0.007784388564325986
0.019572209607866393 0.03604056312778235 0.0027653237804371416
-0.010661789632977748 0.039829660455114366 0.011235098432172753
0.011695803752847928 0.039221340131434794 0.008985157417744149
-0.010507902647630823 0.03995291403499809 0.006244184314082546
-0.006787746805727092 0.04069389195989427 0.0036325119096954827
-0.014288894165387549 0.038761030000573876 0.0015932717789312462
0.013440951780607122 0.038998623664980914 0.007251637867019855
0.015988837554321584 0.037802851512872285 0.007247696906691712
0.02075689987481806 0.03529034431875521 0.001992369438271896
-0.007786767768247692 0.04041088294023669 0.01055659866885799
-0.013226784536227356 0.039685391591603385 0.015291820193303156
-0.01130172301289389 0.039861606679037806 0.0006258465192603851
0.018135304754828656 0.036806825424000246 0.003961293343830567
-0.006354208507836701 0.04069915925425578 0.007297000068068903
-0.001450044908376284 0.041311843546280785 0.00021347658806802195
0.0029714228161327842 0.04101464530140114 0.0009657617179994391
-0.0059641202836109315 0.04067117673469367 0.008297351575391507
