0.08201275259339075 -0.02175567968460734 0.05730924202677216
0.08232667877405081 -0.017220604327809242 0.05501560476719594
0.08221297167286705 -0.0019939862728893393 -0.0011782915825495485
0.08207386807330053 -0.027880150706170944 0.05260829024566679
0.08225859110436891 -0.0030160481836547072 -7.789335374700946e-05
0.08184523192069343 -0.024494370228182516 0.0610602558032531
0.08215109459757598 -0.026949326101764894 0.05273589444017816
0.08209446954910943 -0.010122916387599915 0.0629593121821208
0.08228618441916209 -0.024713032724391952 0.053282854329269186
0.08207264877273796 -0.026353303354642484 0.06250265602502908
0.08214583607223991 -0.02702312361472538 0.06323868781028556
0.08212348523070727 -0.007661354478054758 -0.0023369251423847543
0.0824845596116513 -0.010652091305013192 0.05370173948653524
0.08214136062494821 -0.023996424617506142 0.05451802385797231
0.08174764868745499 -0.01707171085236004 -0.0019283470849782132
0.08271906170293974 0.020583752553829274 0.049520488076378766
0.08128298714127 -0.019616606232448625 0.036404781805233655
0.08111590175282825 -0.019484150897677802 0.03527163237691143
0.08216136617429605 -0.01920862631263866 0.057958772515339964
0.08226241777575946 -0.02510159140579775 0.05510091227528174
0.08219235575877872 -0.026966218258169427 0.05565975388427371
0.08224050276612918 -0.003968476622143028 -0.002372929438148869
0.08196537966529513 -0.01637853681931955 -0.0005112064111997547
0.0820453831975231 -0.025829715524010012 0.06097807983332389
0.0821202570178601 -0.022022864098091642 0.05474302711678973
0.0821081370858099 -0.016814695214610535 0.05867340222902917
0.08191053786240458 -0.02845459052851298 0.056798729899276215
0.08205562138505682 -0.023251337440753 0.056549428530481685
0.08224548961096367 -0.026424297961225113 0.0560663713197309
0.08228909173468543 -0.004988170593595991 -0.0006377194707585701
0.08224009723580686 -0.0028108111592017636 -0.0025525420138316876
0.08221037748452631 -0.0049713544173794165 -0.002231525431893885
0.08263384027102677 -0.005229848705641709 0.05156319531527451
0.08215260815630374 -0.005597495258335157 -0.002680872546243746
0.08227301574470736 -0.024931370909141912 0.05719323522798428
0.08234720978372813 -0.014215279739502503 0.05369183177334083
0.08222990674027027 -0.001842101478129977 -0.0009517084909435857
0.08204765320526816 -0.01262783594825797 -0.0010604489209344212
0.08207170822659701 -0.023980984427102378 0.05772826209553081
0.08221366175538741 -0.016889931994653093 0.05242536681446762
0.08231410060369189 -0.025695523641519655 0.05774996109742889
0.08199851351655946 -0.023919405289032684 0.058354305782471534
0.08263307652378307 0.007304618449779787 0.05118275891557464
0.08195197091192546 -0.028572195697173695 0.05947116661638191
0.08239772353758806 -0.013227136059073566 0.05377722930123924
0.08243246764838552 -0.014448491418619914 0.0553519196568161
0.08213864102467673 -0.026019378580757015 0.06011279582470168
0.08224631538767566 -0.004339640510581261 -0.005546047166318658
0.08216355359587166 -0.004364055622179891 -0.004259728001066939
0.08201774536630398 -0.025627660925831637 0.062043032233467604
0.08204947842193278 -0.012039503486511524 -0.0012389219609528278
0.08257034480241397 -0.008709894965321497 0.056399123556287116
0.08237315735674308 0.01654991099358642 0.05181333848980056
0.08235426423761102 -0.00970365764255398 0.05161185717075499
0.08198164075978971 -0.01600410983361126 -0.000270512080701242
0.08200969435673651 -0.012309899540203097 -0.0015717640146614537
0.08161084850988962 -0.021723953841230437 0.05995490201589759
0.08215603117763569 -0.007689094740437261 -0.004917102208493966
0.0825711751672479 -0.00816976669683727 0.05942755307215046
0.08203845812071024 -0.0108568275300742 -0.0030126861537029233
0.0800445961325881 -0.030750613368605795 0.028163238840326336
0.08226252211741314 -0.010459831438338316 0.061999979344722116
0.08189508674193688 -0.015375642199567151 -0.002141874881599285
0.08189168379764016 0.022393414836612384 0.038370590095293054
0.08183728194455464 0.023043966367447304 0.03754416237532653
0.08207147537590696 -0.008774645060150162 -0.003218633086387158
0.07933919529596994 -0.031387700590654266 0.0292353863050804
0.08249900139858866 -0.009789954541949973 0.0605098553121189
0.082018281104489 -0.019735602765432108 0.05837033113216371
0.08168422655552579 -0.01528119779109911 0.06203873820045916
0.08169654817746522 -0.014951668853643478 0.06142564635192299
0.08213782023340659 -0.0011093641229726488 -0.0029183689872573004
0.08205009810083808 -0.00023057804820405368 -0.0038843474933428312
0.08201176003354178 -0.013281000326663218 -0.004762884260285668
0.08201456572370622 -0.01533466751629596 -0.0009914029872539303
0.08200713477674756 -0.011683971524114482 -0.0029536649089263456
0.08184775073094898 -0.01713051494433635 0.0003843309218211526
0.08201903860835326 -0.015507726847083332 0.03815417484812203
0.08193379189523364 -0.013895149376398516 0.03754739263436691
0.08211911035812477 0.014921918189880985 0.051021918170980084
0.08253380692760004 -0.009872921274505899 0.05943690449738839
0.08258000585175995 0.006349429040024626 0.05043872583885421
0.08233888261450228 -0.016828232006740294 0.05521182444102158
0.08217138213439573 -0.019529822120945957 0.054146462366510974
0.08217014784436187 0.016665867427758083 0.04794926416655033
0.08245187415953276 0.006592680415498567 0.04788208051491362
0.08217698116343264 -0.010373708726549958 0.06397710320348608
0.0825649075052271 -0.0005926361252028625 0.05357616927138388
0.08214170168739963 -0.020178262419962074 0.0548142181467781
0.0822021925321359 0.0011258971290255004 0.05162407254416388
0.08262852235467329 0.00022809896331805156 0.05455770287688384
0.08230737364640527 -0.01741423790558058 0.05653129105669211
0.08229724110772606 -0.016181742045606406 0.05290239920605324
0.08259912206462167 -0.002510888657853995 0.05771582636813345
0.08088784725216902 -0.030605846447472725 0.04883302618932747
0.08205164518992306 -0.007582091094493117 0.04061055857083537
0.08061374871557059 -0.030663406440188962 0.04392968298856445
0.08273173262026162 0.02141728079439649 0.0502761203503218
0.08237217111421274 -0.013397439947788909 0.05281209603934719
0.0807145511222982 -0.030588701555568865 0.042229061875017335
0.08263450795645118 0.021884211690909833 0.048533544289811284
0.08035189443842172 -0.030392598627057642 0.021026285375733002
0.08253383352297221 0.005890146888836699 0.046236604226708354
0.08224701035558815 0.014820976643134084 0.05194275344279757
0.08258588146374424 0.019385823780329197 0.04902661347087954
0.08212443795243643 -0.012202841212960919 0.060043309255654015
0.08232964505684265 0.009078664199942925 0.049135995099785015
0.08245130203678631 0.006995477215018833 0.048628742276422415
0.0824321303914877 0.006318653299033061 0.04859639672672456
0.08169428359877173 0.0001720540210334152 0.04785430057516367
0.08243535825148361 0.006312246479945962 0.04864835548602109
0.08258092765581024 0.008329674372997503 0.05120444020055934
0.0825607722133087 0.007980275131097132 0.05079398551334238
0.08212571196927838 -0.028228507681581035 0.06315371786251567
0.0825528168131523 -0.006036554932299308 0.056398049409859555
0.08243418478277419 0.011473074596036085 0.05236877931908377
0.08250978139587459 0.019627409186966205 0.048357831725129766
0.08060142859363172 -0.02505437339762119 0.025426453409970348
0.0828900160276222 0.01680930704580012 0.05394905264910504
0.08150608438121347 0.013791340606238852 0.04425005508559732
0.0820000881437966 0.002927301422627573 0.04720362586282406
0.08302675245493457 0.018512989714569973 0.05446958568045747
0.08320531219235949 0.00924505547199117 0.05413914452330193
0.07924919984643253 -0.031492879075616605 0.04031220403299717
0.08213464578617263 -0.001696119548075486 0.05092857811501968
0.08032343433216366 -0.030426865039578505 0.02299393594150499
0.08169601346471589 -0.016386447753089395 0.06106295036735821
0.08238607828991146 -0.007910197277399571 0.04982532977327108
0.0824312280942162 -0.006938940607059102 0.04970469552272626
0.08298748449417517 0.018162543653482886 0.05523621199840614
0.08251439103590952 0.0010463525093351743 0.05325213011486492
0.08244206903057463 -0.0029332429776565325 0.052323402805816
0.08238877337072509 -0.007977840898990693 0.04852481190846159
0.08204270873522233 -0.02925737719551856 0.04901105945117906
0.08230404246323472 -0.02892347335514666 0.06744319698306239
0.08182024892563688 -0.016372880494240186 0.0625258774835827
0.08261788237994291 0.003646049475873169 0.05218142660161995
0.08301719515935771 0.005440711821271122 0.05364814355479308
0.08219663228069439 -0.0027248329712796296 0.05015352259200845
0.0826099356111153 -0.003568850231877886 0.05508663277519363
0.08237322497371277 -0.007216880815897575 0.04750705429781963
0.08257365761029328 -0.005304345610452385 0.05427608034827537
0.08258004734731413 -0.0017858072810082984 0.05579958990450594
0.08260063852782817 -0.004349007045831854 0.055945234100502825
0.0807769344123077 -0.026742560778706893 0.03430225798548294
0.08238915504669671 0.004466183953111461 0.05027512607896568
0.08239534986232107 -0.007812454032511749 0.050244005933227635
0.08184748832322414 0.0013948031723471906 0.049472634727638486
0.08222266822668908 -0.015284006692712421 0.0402880302381656
0.08235932802049464 -0.015027248195842677 0.04154059212957597
0.0820867070245502 -0.005932571398177209 0.06166667472238554
0.08255021952491866 -0.008508578996164147 0.05894497416150722
0.08137054383536907 -0.028948759642672503 0.03487632502175075
0.08244440331853775 -0.013991494784632023 0.05175685488631343
0.0795821290080133 -0.031166983015618696 0.026325037411095514
0.08211211398584212 0.014841614024187547 0.04992014763847347
0.08211847162376686 -0.008742243219310669 0.06270675225087134
0.07968764216159754 -0.031265091722699784 0.042669198126050294
0.08096025274924212 -0.02598332982417864 0.03721005938217902
0.08256452164568566 -0.007712008206497765 0.05618492560018942
0.08070565463394291 -0.030677087622174977 0.046117793475102684
0.08245696126959495 -0.012466379695176999 0.050570045180251245
0.08248957240886876 -0.007013964753136872 0.050847824983098595
0.08240200525831448 -0.010713123181812695 0.060023765696467696
0.08147481496681414 -0.030070105359685774 0.05715944926422098
0.08185760774937928 -0.02444542219571926 0.06145114158125677
0.08234328662835425 -0.016877458414342933 0.05633488556410836
0.08226914589913564 -0.011359155208856192 0.05945068428901947
0.08232258802392695 -0.004208708683108581 0.04843941060877374
0.0821536899236065 -0.002739550121750139 0.04842920991110998
0.08182021543439466 -0.016880559507002846 0.062211278720028254
0.08169077791603066 -0.019098270477620388 0.06128982934554321
0.08270386608453717 0.006922165591484563 0.05160803673277713
0.07999927919209542 -0.03061432190960751 0.02099179991893911
0.08255286299762242 -0.004952951219451116 0.056425830599298815
0.0818629031343292 0.019013570487699086 0.03750817896952706
0.08189069608302096 0.019252193154058066 0.03699226664922241
0.08255006157883481 -0.0008065663339712452 0.05728307212483587
0.08294862439015571 0.009673409569236038 0.05339066989863471
0.082198441633752 -0.025753132790355626 0.06417664634082285
0.08242723065337354 -0.01168581598614557 0.04966826929914513
0.08240984280058547 -0.011207731131554698 0.05009379592502496
0.08221872363907538 -0.027737596093405436 0.06399670697138544
0.0824533364919298 -0.00951364122180733 0.024045010493483003
0.08255652897938304 -0.009401080260522072 0.056179876821070215
0.08270746814165972 0.010092097505225368 0.05267064952400289
0.08248711078923929 -0.006786446384958694 0.052377833720641226
0.08224783312301151 -0.008942689756464683 0.061959773766454423
0.08225388936848888 -0.01839966281025745 0.05718194552026755
0.08211585148323822 -0.02975339574617454 0.06445696203242374
0.08053105232905111 -0.02508118602990035 0.032796471466456416
0.08237766693659984 -0.012432947518584552 0.053576230066175456
0.08218035457322702 0.01733226303877161 0.04766589337675162
0.082253610920137 0.018456649804248475 0.047942725026704214
0.08228961311023592 0.0032498799907947733 0.05085172557369755
0.08173416284286728 -0.023537069179796425 0.013119117065908025
0.08169607335263787 0.013332061232343364 0.04801608515396612
0.08148534228397784 -0.022783171319921622 0.03931116360224982
0.0824121332027825 -0.01463063719190174 0.057743406790738756
0.0822037633810845 -0.016500065309404066 0.058321637715143246
0.0829501184423197 0.003502317587181566 0.05444711336917512
0.08184016745708603 0.02059511587691534 0.043735946777136145
0.08177781536195226 0.011683605987980678 0.048930783346876505
0.08239813969957731 -0.0066521290967677645 0.06056995450099356
0.08212753848708673 0.01800927863425167 0.03383218897942413
0.08213141025695109 0.018160671943320265 0.033557086483958096
0.08204352212880972 0.0033772585995990516 0.048978264391327825
0.08232340438954508 0.0016967010487967847 0.05201954628442559
0.08245971471060802 -0.011556059553365906 0.05560161022740312
0.08137911354815984 -0.028967617290033283 0.010566451495995152
0.08268254762936794 0.019105585288357117 0.05125794189457514
0.08258897396973891 0.018761247742825643 0.05061888874329367
0.08121583329206344 -0.030272433169537687 0.04561653550836636
0.082332057646686 -0.02817623459150967 0.06733198076835908
0.08194972067526413 0.021719287105803214 0.04018581130209944
0.08194812207188854 0.02118390579464814 0.04067399593567137
0.08135450094207511 0.014829572840154612 0.04038885274394106
0.0813525187829515 0.014823712914093092 0.040602809197634475
0.08177383437596702 -0.015673899664201737 0.06039251829490246
0.08175741206595828 -0.013035945436959386 0.06171185552944693
0.08137985973421695 -0.030179354926755213 0.044404179261388295
0.08252214268351252 0.020477987449594386 0.047997428951744074
0.07971989151934061 -0.03124484744305683 0.040829875037251176
0.08077270198192785 -0.022508175497311957 0.03131059990305636
0.08062391140636196 -0.023108232476474304 0.032127104112323925
0.08183621545086414 0.002012787661177988 0.04827939136883652
0.08132856554757414 -0.029824166607896344 0.020923766471062512
0.08197693741910547 0.017587250341556577 0.013753573877858262
0.08248333292688245 0.00379078297625004 0.02536793335896046
0.0824782067891838 0.0026449234284339996 0.024749176795437422
0.08218687760046005 0.008139405075038587 0.00019736250571782948
0.08231675279658568 0.0038311728083983577 0.005759279085077747
0.08220106926290849 0.00025376283583704236 0.0038536627660178705
0.08198093541045443 -0.01627596639831997 0.004209553267605758
0.08216831117312823 0.012078381780239547 0.011050720447077224
0.08193006536342529 0.013886789778054865 0.03621686887257698
0.08223419761133913 0.0028199944923261193 0.002198478662324766
0.08269082408889349 -0.0050825487986959576 0.033476585983676935
0.08243593713079136 0.009285632659014977 0.03415808144409631
0.08239039209365202 0.001108432537538497 0.016946437948885926
0.08261161822868418 0.006026134901402188 0.03160670512608792
0.08263516839941151 0.005062734055003142 0.04079319472173613
0.08216871028549874 0.015885259237272013 0.018536077706236893
0.082021914992121 0.015617036376157857 0.014475770283339373
0.08254681046140042 -0.0005305307772164095 0.024138545880217414
0.08216924852022506 0.017605763089616408 0.010091300456687402
0.08212528010870494 0.011488899881527173 0.006167200226055348
0.08257172183171875 0.006328094692037947 0.02699300690693851
0.08221655510211859 0.018277444637909437 0.0052144169698919675
0.08228076885727494 -0.015288822280119253 0.026776106822715348
0.08242183793533504 -0.013435399496934784 0.05464368092121749
0.08131564356561301 0.027606475847644932 0.03215799361734517
0.08238492021310315 0.012846611732566088 0.05276976611536628
0.08190475228947744 0.023349768942134662 0.024252676387205574
0.08202730273844544 0.016840096636166965 0.005571629685978462
0.08117691010814634 0.028279789643485 0.03439290414745158
0.0824265264166731 -0.011382334446497696 0.030732063225770028
0.0822918518916882 0.011879944784446962 0.03425432667531937
0.08183576003762796 -0.01770607020321016 0.006114356388961621
0.0826044386068917 0.005452555022387098 0.03695378221506664
0.08221530921995954 0.018830140746477056 0.0066593682006652905
0.08175792176415685 0.02454760639429739 0.00900253573151332
0.0824725710247377 0.007846645096216073 0.03761199592633355
0.08243368968707986 0.010290174738806883 0.03673932876707657
0.08198090653266703 0.014445704002002084 0.011895480784980254
0.08190121910786377 0.02208562330988018 0.007561706282402082
0.08209285761523627 0.018864994926176763 0.009556985574330056
0.08248675772519455 0.004135292197257326 0.03517482848336289
0.08198671328642464 0.017495827200043813 0.023274342591126318
0.08201926205734605 0.013404191999514923 0.011987355487006765
0.08123694948846269 0.025128335238200274 0.027892341692122426
0.08209579291728171 0.009180204764224993 -0.0017374351546805581
0.08179173372868051 0.01657995461288684 0.036752354324937925
0.08188302617218494 0.021744083946929896 0.01906677984784952
0.0820979782647141 -0.010331116881982887 0.0012244830882019732
0.08209865725382845 0.0176638613844446 0.007082352402236904
0.08204656535990057 0.02045497092591716 0.007107540714240826
0.08222278373902635 -0.000140723320176258 0.007824660755486197
0.08191875008957297 0.02292771572655463 0.009916643375247617
0.08202201075495101 0.01968542428333686 0.008315361214312296
0.08192573397518217 0.02343915268068308 0.01827151055399868
0.08251104966212616 -0.003040942105825406 0.025181735272752248
0.08231689233480877 -0.010810114610908913 0.00426575270418842
0.08226204147910023 0.0070750652645006585 0.008328115691516761
0.08216807929601876 0.011457174609454501 0.008269254697027401
0.08200941910039719 0.01397606182642981 0.0042157190971132295
0.0821852693874916 0.009099192859261545 -0.0035664832416184285
0.08256343877287681 0.0028517776693998864 0.032770599392174915
0.0824482725598572 0.0029487989064557836 0.034418486333587635
0.08207441486576367 0.01246524916815216 0.0033199014348515455
0.08175644489432052 0.025459992805922774 0.015492415430522561
0.08153019819336124 0.02258157854961068 0.03249412559612027
0.08221603476483333 0.00948884352529644 0.009279344463602323
0.0820365763730187 0.013542675143919202 0.0035621204672808006
0.08203277298500218 0.013546371158496195 0.005955444388118429
0.08229210158904116 0.004875618918939156 0.007708447201204239
0.08213456119145834 0.00726750772676256 -0.006943853616197279
0.08216641715184855 0.009249934447154716 0.0034895289671794407
0.08238355535801108 0.003843524466156166 0.015699063268482735
0.08229179516698579 0.016766425113029042 0.028118074869696714
0.08215871508857459 0.003379888829766154 -0.003070882519096874
0.0820472428150185 0.014015961535742598 0.006985548688014702
0.08254925463101237 0.003142145912008942 0.03101872831149563
0.0823252155973654 0.0029017488600353676 0.0076886803823897724
0.08243657576668517 -0.011534569540001528 0.02332252708413688
0.08218413310927451 0.003568621562319468 -0.005718919394844046
0.0817400645237852 0.02602906677214305 0.010493058856807819
0.082363150522516 0.002047740915144403 0.017677449354646175
0.08248228761767702 0.00588953027270354 0.016569276473601093
0.08219578661660007 0.004719454922664342 -0.0017144570904566443
0.08215363940559822 0.010614794506790235 0.009573877855729135
0.08239856580125911 0.00819315098861841 0.027254181351941853
0.08238015028826512 -0.00019941741587516535 0.019099978240690277
0.08216440632402622 0.011074656335727065 0.002658140592904471
0.08211662907913153 0.012288343037499094 0.006755245798578698
0.08243048295399948 0.005377773609526326 0.009757504132144056
0.08232946478991829 0.011654439332399083 0.0328052195308506
0.08231269478456724 0.0005757854582094527 0.008970956455197939
0.08200323178430607 0.014596535913603485 0.010122338099130268
0.08205208155724913 0.014352511907344628 0.002009825131285327
0.08214398458582386 -0.015191682974174637 0.004781417943420863
0.08244905251992773 0.000256020597067246 0.05289436688313331
0.08200516244826278 0.019568921550916052 0.010851537701531275
0.08211749844544079 0.016417206084403745 0.011518215648282142
0.0822161026580253 -0.006528902440790258 0.00489308010229321
0.08238036862290306 0.006781855470389335 0.034324741138218595
0.08254755312915282 0.0019377222459256301 0.03743116904014531
0.08227681900440426 0.00945140455635184 0.013537099894868522
0.08228602647583094 0.012456094730815966 0.02306621051886496
0.08215549649486267 0.01627898853350452 0.02123690405839309
0.08172186180243801 0.026495817580630222 0.018410400166964103
0.08221463660799486 0.005388816335423085 0.005025778116703038
0.08252948374721197 0.0013590221007206988 0.03343502360182818
0.08258217862993322 0.0011326770790732036 0.0323674502985379
0.0823484198989283 0.005902829003654393 0.013769006338111376
0.08184191249997463 0.025090638777449777 0.011829176281718309
0.08241836812130902 0.00540347975511263 0.01561021248349079
0.08253172440471156 0.0035267769815533656 0.02782676334368671
0.08236287012191079 0.007134001248249516 0.0158483058032548
0.08221143252006377 0.005726299817638173 -0.0060959209133197466
0.08225827424265349 -0.01075297776235637 0.013501798761222985
0.08237490383860317 0.008684796630701107 0.01829193557867704
0.08250188787061496 0.007388279811019993 0.018567393772621447
0.08190524591991075 0.02060092771722248 0.011831637354278817
0.08215550916925853 0.009512707886446491 0.0013241301769405453
0.08232857602628069 0.0122809061614968 0.024867012039600678
0.081855743582432 0.027513121857276418 0.04159679512325301
0.08185282187117757 0.023057320674830132 0.020010210190344862
0.08226882591935228 -0.004439871276208961 0.008793871466804803
0.08226114544443226 0.0026594607193632064 -0.004593746494530814
0.08217491222817849 0.009309195474943919 0.002857391524024848
0.08206316696680527 0.021096022287147284 0.024046126457293336
0.08210245798202442 0.004108757058013593 -0.006840363891224676
0.0822177489815438 -0.013331151066572367 0.04783813124950692
0.08267916398300855 -0.005243962998090642 0.03280710347622469
0.08268612369754018 -0.005615052675873108 0.03241813050583045
0.08229243812977946 0.009102278257061907 0.004509343608555834
0.08213179048399093 0.012199710185684623 0.020381666457293696
0.08224372574822146 0.0031284568953581335 -0.005121789002818113
0.08096270059063998 -0.02666513636090609 0.036009782175276346
0.0825554451218486 0.008480864244654392 0.03209097754463899
0.0824022809487712 -0.00022157942463381562 0.011046620364775692
0.08238680161217338 -0.01258851887677496 0.049949025304409776
0.08221819756951705 -0.008860453422558371 0.013152738404583631
0.08227872390275205 0.008205686435360435 0.0024379359562309985
0.08275356514501181 -0.007896570346682308 0.030970651047061926
0.08202887696508364 0.019164707976911027 0.021449323122571674
0.08222225540100558 0.0077814810714266144 0.00023278044225483717
0.08198294850209788 0.018924662907557725 0.015260207615358809
0.0819021392528967 -0.017225910704665743 0.04819696700895156
0.08219380667564609 0.0074203934935765025 -0.0051551952088537975
0.08251008620067135 -0.008688442481483875 0.01664301678729938
0.08195293423217373 -0.016769438787613365 0.04886163751082956
0.08230080698163539 -0.009552721041030372 0.019455385555445542
0.08207966282546997 0.015708480432915548 0.022229331122188327
0.08191837121720615 0.022453028873852764 0.018716738978037502
0.08212192142791462 -0.02030458013148152 0.05468665637890785
0.08247095164319462 0.008492071654987821 0.03734463629397956
0.08228313329762618 0.012413836865502558 0.008239468722248199
0.08193384540177903 0.023384602587936995 0.02180412932278709
0.08213854108670346 0.011512678212631066 0.011554678730176824
0.08225387688458684 -0.017704541894399413 0.0512477975624777
0.08235234381587737 -0.012403287266705898 0.021061376310113032
0.08176222852260825 0.026101274741486866 0.015338488496507222
0.07883052128472728 -0.031651473933439665 0.03084935005935846
0.08187694234762348 0.020383176036631916 0.04118865629420468
0.08183980990599968 0.019846427624345457 0.04054010355684361
0.08195929230065378 0.01763923697533039 0.015017204074822476
0.0820698673650436 -0.008321420773213892 -0.0006063105773524335
0.08206665118492659 0.013529913046199772 0.013693689197062707
0.0822407945257368 -0.018264227077119614 0.05354453820456155
0.08266494931466795 -0.006344611278763408 0.033630494690011774
0.08213438570973536 -0.014767150737667857 0.021165874156692393
0.08225200588369741 -0.017685650669584697 0.05181784025028255
0.08214568889028566 0.016410366542729024 0.004223284410401497
0.0823002285616124 0.007291610188174539 0.005108293071514209
0.08169561598051525 0.011805593581033846 0.046869219479240005
0.0822679951051506 0.004637588430123603 -0.0049773200581846215
0.08207243823206539 -0.014134205845432287 0.047416240072218584
0.08211132415738485 -0.021107755307571842 0.05240023691074502
0.08238626725723097 -0.015649446354298407 0.05132785388203328
0.08230110452019168 -0.012578583967306422 0.024151912902868274
0.08205935997173353 0.014929352940596791 0.01645334703981894
0.08213685191637096 0.012500064543412112 0.017287008555761887
0.08176024060352992 0.020835494794354103 0.035916846643498285
0.08218667401133625 0.011729904480155817 0.016233442947154453
0.08247372093624242 0.006430916121485342 0.0230828628848379
0.08189085444482522 -0.01610567641970556 0.04787898435992789
0.08204852929003012 0.019593696742272404 0.010035847271145265
0.0825661433458017 0.003974887745284813 0.038232300426110304
0.08218071363145509 0.007389108255204481 0.006432010976640965
0.08225301481748608 0.006872263372042655 0.0006402459045314352
0.08201245142151822 0.02103607473177342 0.01773590500405172
0.08206388353060695 0.026643503029931407 0.04181640734390881
0.08204923262575253 0.020030869426486346 0.01720053419558798
0.08178454692129439 -0.015026920489503383 0.03518305742956229
0.08245856830117876 0.008126536388750046 0.019319362159469382
0.0823499640838545 0.009324382966229493 0.01928915768128563
0.08205323249306437 0.016062136463307685 0.016448705893339313
0.08230807398710069 -0.018788179335261734 0.05142234414489635
0.08231173666429555 -0.01499939802637748 0.05049673193060251
0.08251387807026676 -0.0198566606449529 0.050280620650922425
0.08236149452027029 -0.015865621910435976 0.05379040145571054
0.08227202344344682 -0.01822695282902261 0.05161410688513578
0.08217767877493125 -0.01655878235761389 0.05026053015722351
0.0819472331846651 0.02205655963839282 0.010861481723212794
0.08181145225810765 -0.01875396800549007 0.05997224582245892
0.08189287221613838 0.021823973926818816 0.016500242398765335
0.08233451245446688 0.008128804625261724 0.011366834157109002
0.08221309938021552 0.006651066455253936 -0.00456464278846947
0.08207533997528241 0.005537510851648095 0.003476645465261058
0.08217264473778008 0.0056896666311644865 0.001254039958230352
0.08215688563875209 0.011769628294731589 0.01769694806604923
0.08267688511269283 -0.0007056721834418132 0.038126897258785514
0.08220739721115335 0.001836922694877359 0.0062262503984840505
0.08222349885536785 -0.012803985244655074 0.01826155066162874
0.0823009005579551 0.008752352274310985 0.013956540064581866
0.08224133264319783 0.004368920495037927 -0.00043605166985438595
0.08225562586147928 0.004610438187971544 -0.00031812427115791294
0.0822417985799749 0.002251145950601879 0.00963050431267783
0.08264394271389189 0.0030926523049013693 0.05290338145884313
0.0824340965031332 0.008555414049041875 0.020749398390721777
0.08218366197896912 0.0037271365816141477 0.002500980915172389
0.08184332562522656 -0.020986075032401328 0.014621453162412881
0.08224826987734209 -0.0026204382421561906 5.326937827436058e-05
0.08223984260663225 -0.0016689278779604142 0.0009243873540357886
0.08223537711480745 0.006982706138005419 -0.003719652621195003
0.0824566846632651 -0.012469558221717197 0.026890521571905288
0.08243241801174145 0.010331400426770021 0.03303053786226682
0.08149603063539024 0.028200284846007104 0.016400693148171126
0.0820693911309144 0.018521462153716597 0.017637010217422155
0.08219747083305688 0.0015537154746902454 -0.0017737309988253547
0.08160506598440719 -0.021883653496694345 0.003901420839670221
0.08250613393644964 0.005838003638977741 0.016949976718375632
0.08150314009904351 -0.02529353324133979 0.01123106102152167
0.08140527250215349 0.015165613359096927 0.03921906471784905
0.08229285495864348 0.012550558138178295 0.009031129350461124
0.0824738139087125 0.004006689999637731 0.03385513577899867
0.0822918608498641 0.008406110236010093 0.02324314641485151
0.08153100502645658 0.02770307562729974 0.021796566741672116
0.08281004959861069 0.020193494274949507 0.052995725949128575
0.08188252743923213 0.027236212440698692 0.04481764598946252
0.08218691505570497 -0.011698047194030654 0.00866445506724181
0.08231084211339362 -0.009206095979620495 0.014505095330188372
0.0823855108690429 0.00657788503136185 0.014454610567088627
0.0823062419349928 0.0027752766084439178 0.01341354112285786
0.08206265575535074 -0.0005239736223822818 -0.004308499121133806
0.08226214589125161 0.003190839852604985 0.0018995348638557008
0.08186977754981331 0.02415712997113484 0.019227188293337076
0.082562521079491 0.005282225512425155 0.019623576221763098
0.0823390720974007 -0.00947210705100109 0.01567543845858244
0.08160558858004362 -0.02403559811266727 0.008247588770998699
0.0815112852066098 -0.025115283889068342 0.008684446831399958
0.08218091941400268 0.0026151327563867233 -0.003560728466798597
0.0816080049312212 0.024330665024326067 0.02658142799970517
0.08256648561213134 -0.0028053309382582462 0.05945647813068212
0.08197153752136659 -0.015908252039025163 0.003464507644523607
0.08224307115815233 -0.006794455335266928 0.0050732559027837475
0.08203697781225523 0.018473313644454693 0.026778023214682388
0.08232955685103073 0.009899487217662295 0.020673531983187284
0.08223042531901101 0.01088676253382104 0.010440725815286963
0.08156505386763305 0.014032629314173282 0.03880955186641686
0.08221461242015676 -0.0013448533410936147 0.007583171229699361
0.08210480754196328 0.017856297942344716 0.01948603394896963
0.08228272676782648 0.003071724817260639 0.009128478208345267
0.08136842097379478 0.027482626628418383 0.03578502972349543
0.08202139597469131 0.018821853412130933 0.02004322779555601
0.08233605744945638 0.004667207397324956 0.013718600118438982
0.08206890452829299 0.02659491684228056 0.04546552535933728
0.08194097951646231 0.023218275198265657 0.021922893318385553
0.082089153317117 -0.01273035697907016 -0.00041505505248209886
0.0821470477396517 0.0018212484955906691 0.003000185647347332
0.08226796882470422 0.023215930170377253 0.04593811766656032
0.08235184274657736 0.02313087440678261 0.0471130475486566
0.08217833201141937 0.010279961779005916 0.017114031007965734
0.08159929103527004 -0.02465099135658795 0.014001962811588844
0.08202996514107576 0.0161039453267421 0.013765415684781445
0.0823591147885214 0.005314281531520796 0.014504375583025546
0.08231550766879434 0.0029348440035098485 0.008045870420008623
0.0821908715004541 0.0017244348414362349 0.0047277990209421954
0.08233168808235058 0.0012286877703879063 0.0003044392456589184
0.08232831493963036 0.0013039899631299549 0.00013486988768291746
0.08217638228750779 0.0020068799129752306 0.005001771379346003
0.0815469603315377 0.025699942532433233 0.025211393174886767
0.08207758259463308 0.015220047480552081 0.00907117606990437
0.08243391118075795 -0.000719710045970426 0.01638898503734135
0.08254115926133224 -0.002260934618709705 0.01556401771682795
0.08252444471510986 0.011718329823592078 0.03075141515955539
0.0818875200505621 0.020867552967161408 0.03864679266711516
0.08219498536959419 0.011829708110684978 0.018839561249362115
0.08234558745269376 -0.008072690661600088 0.019841970148724204
0.08206538434986622 0.01879138638872757 0.022644430055065955
0.08246621200730855 -0.005423844132135327 0.020965925842605346
0.0821551704088683 0.011533283005606212 0.02055564672776855
0.08180833734110067 0.022997125979663573 0.02074068999129743
0.08261547970981613 -0.003110810603909056 0.032131097495600856
0.08243556746229705 0.004535873969737719 0.017536647035349847
0.07953021154753837 -0.031121227063115528 0.02167219529118651
0.08231280472955638 -0.0025298560216253548 0.005452663074532299
0.08162108530096945 0.027216348247437912 0.020484921247852415
0.08150566251779261 -0.02519421979965051 0.010292741941633543
0.0820657317622993 0.01550686051292497 0.004738263878287274
0.08240570006090872 -0.0036577796709611502 0.015153097932916509
0.08203489044064077 -0.016376423828635304 0.016481088092590454
0.08201522627849188 0.020391241346889834 0.022299118752664757
0.08199439337352549 0.022703245585860465 0.014600250274774615
0.08262620625219587 -0.00952420940647099 0.03027370859617276
0.0821002702359285 0.01697695722479691 0.021626023526814076
0.08241624797059378 0.0002620256586365184 0.010316985226427064
0.08218860339241017 0.0016264947591286328 0.0055083950370414065
0.0820619119807601 -0.01279179568387486 0.0017938876482689633
0.08256025290461592 -0.007727251721951323 0.03442492664286842
0.0820253188288542 0.02514614444390523 0.02143853546257365
0.08263148708533954 -0.0022863254695345775 0.032662024786744036
0.08238990241314535 0.0034689338456600233 0.017707511719132915
0.08184104913965261 0.024906873518488994 0.03796561396631241
0.08228631939833189 -0.0011457299440488567 0.004459374653241906
0.0825927203609739 -0.005324062062163299 0.055408091987104335
0.08228400261342302 -0.0012932584392576125 -0.00037116371578184984
0.0824033520511746 -0.014310938300004253 0.05704407562002363
0.08176893812716116 0.025375987510022454 0.01866894240268303
0.08206366288128336 0.013551613762308783 0.0025941050757904227
0.08258955667262635 0.001897222073099929 0.03066114314433177
0.08265985581039545 -0.002281970587947809 0.037580687021691477
0.0826153603685532 -0.0030556800898372074 0.0362451956223329
0.08114322393831219 0.026246342504952183 0.029026523466139213
0.08238655904743136 -0.01183921025674979 0.028645205680036635
0.082432749527859 0.001417848455863008 0.01278579085944612
0.08221487417847356 -0.0013863187365993315 0.0026486221916411537
0.08223170842742263 0.010232104275539087 0.0046447652505821535
0.08223580347458938 -0.004582925774882137 0.00034576719759776337
0.0820633455756734 -0.0004984749161851675 -0.00505735556760598
0.08243700558087097 0.01402563664728734 0.026888721226658214
0.08233354326080444 -0.027089349632734867 0.06606645034763856
0.08256393325296893 0.005454447106811549 0.021920904655395278
0.08233404827455183 -0.014988662732472059 0.052481095466328204
0.08256676972943196 0.00209338416775958 0.036821127928540316
0.08255406374171795 0.0007001645649812993 0.03700686697627938
0.08214010099703137 0.01857710325103849 0.01120724843494365
0.08220319080884533 -0.0015467506221136867 0.0028837850946690584
0.08259540062940221 0.005556630151229087 0.026058758476122074
0.08190700842167824 -0.01748604078481863 0.0070218679658707326
0.08211832536526059 0.0007295062503939063 -0.0028336294100367036
0.08164004357781374 0.02723999388592417 0.013656466121294598
0.08271284539703394 0.00398020014439531 0.05236142855873485
0.08208330312058897 0.01970605122109733 0.02449618210648806
0.08234476033039735 0.00039456399600286906 0.014820876522283616
0.08238734640220223 -0.0020391783243747727 0.010844456987677178
0.08231203295703313 -0.002707307384385144 0.009500319545677656
0.08234663350491686 0.006349926431502191 0.012582683150054352
0.08219404628202069 -0.008603692856375928 0.012613397585221321
0.08223773091215504 0.014789165050814597 0.025237488180412104
0.0820323251765308 0.02044091946886726 0.016877955079272436
0.08238699157379112 -0.0014320940881362265 0.011061520951444916
0.08186100051989671 -0.02214775136101991 0.016186037509360006
0.08209703631221797 0.016130099109004262 0.010064183231224905
0.08224424315064974 -0.0009273934807109832 0.008304270139485785
0.08218157836984398 -0.010684939143948682 0.011239978839947934
0.08212745993657058 -0.017452030494922027 0.02661650639383316
0.08237425852965241 0.006998783905232831 0.02462836760379612
0.08205726273295566 -0.01849643002274396 0.02513865549833154
0.0788779940868742 -0.031465424721170906 0.026126029966959046
0.0823780880149236 -0.00305281266667843 0.051342330347069344
0.08237199481201717 -0.003058606377706891 0.051267277848976125
0.08201811660218407 0.010453265081573557 0.04719237154592416
0.08244382762060255 0.009428810858199898 0.02383638132898205
0.08246668436249947 0.0056852536693272684 0.023666059702184584
0.08253863150799863 0.0028731096723154208 0.019206544317922056
0.08204355864200827 0.005221984858885267 0.0029933580552658073
0.0824854972567948 0.005124571453927677 0.029140737261391342
0.08224256907272223 -0.002077337776598699 0.008235881472925043
0.08208389369133512 0.0023539253294589937 -0.006633902709577217
0.0818756562602625 0.024311480292762 0.013582837246413322
0.08239252357358517 -0.0027783968590631993 0.01024382529852489
0.08212649713096724 -0.003489346373346974 0.003578272963846772
0.0822013977561469 -0.00467067732196348 0.0006765680463765929
0.08204359369156367 0.0004801695351276678 -0.003936302048044111
0.0814325174023313 -0.029741481389946034 0.0366122398197915
0.082173321089582 0.0034367221924848377 0.003474455952763556
0.08213089767905506 -0.021692591673977753 0.05573880760984253
0.08179411549515486 -0.0004846215577979749 0.04919289166753672
0.08199442077936987 -0.01812372585242736 0.01629069646383194
0.08211010372291647 -0.004049359359575919 0.0011481216993619442
0.08223184206581063 0.006670099500056476 -0.0019036260026884552
0.08230961340362043 -0.0006546974840102388 0.014235675693884139
0.08213648959842479 0.0066252541427995314 -0.007111337051707631
0.08207868463473258 -0.01291852080480936 0.009818286731604127
0.08206386585449711 0.01936295873814816 0.01842227089057259
0.08176824890561653 0.02441631617674088 0.02358306424941898
0.08182911483434341 0.010644613453669315 0.04253156431649641
0.0822267738173889 0.009658483517540225 0.014332523448494398
0.08226264304018607 -0.017376893071024278 0.053377873476050865
0.08246559858458075 0.0011999811641716328 0.02368014417621365
0.08237964537795413 0.009444913403412258 0.025031541661322355
0.08221659637228387 0.02543307312304929 0.042606226827088554
0.08209642866510938 0.02339103121713356 0.0401175677199363
0.08242086989706793 0.014318690946744721 0.026309060282394943
0.08245740152172358 0.0013006930366968304 0.018787272783127463
0.08254723808994875 -0.0038647765976722913 0.05306274071407474
0.08221522150193453 -0.003235635545733752 0.048889443018628964
0.08239055955134511 -0.0036342019569207255 0.02649033292688697
0.0824026381058435 0.0007299608434910529 0.01676055308975034
0.08234319109517342 -0.0033930754372415305 0.010345277966787218
0.08116122871371656 0.028584448374791273 0.024220307386995224
0.08181379448910718 0.024091083381442377 0.02426782846265933
0.0823630936489424 0.0104900865182905 0.025043855693509594
0.08131357844519153 0.028313227804072055 0.014018242530682932
0.0825341068590645 -0.0011142540683023278 0.03110241759899617
0.08239079921144213 -0.011760241192971824 0.02165590615581621
0.08210720042342434 -0.01612447235712419 0.020787727285973355
0.08220490729665411 0.0084054529895479 -0.003576415532608725
0.08048449510857442 -0.030568119306012154 0.03379603218863574
0.08161351063858795 -0.03012795763672035 0.051300066237862416
0.08206583875720339 0.0158801089607968 0.016564125165346784
0.08114321718337643 -0.02998400310561724 0.024948104437881664
0.0822076468783908 -0.004774903304110041 0.010346896489967929
0.08222872995112349 -0.028790104135948947 0.06938765274708047
0.08212348800163427 0.0145419424651535 0.020886134590578486
0.08139049923666758 -0.030236930713794352 0.05015803234451425
0.0814116145003064 0.025494876331600053 0.026385741536711707
0.08117805210817967 -0.018732005965098778 0.03479298263160316
0.08111806680020868 -0.018947564950936167 0.034655145786284196
0.08202637222346208 -0.013669949494509772 0.0016441704551410292
0.08216960390999076 -0.008939809743333754 0.008975443954673461
0.08249295577099455 0.003957726249893619 0.02421351803205657
0.08139326313973856 -0.030169385869392443 0.047549869281737905
0.08173583555962884 -0.029377452813945146 0.05450722484236992
0.07825530795236837 -0.03162251249510126 0.026762257947076686
0.08257716115791532 -0.004475580156676061 0.05421053837928261
0.08200059060114649 0.020331681328692855 0.01576149368019377
0.08178208688168297 -0.022113623304719977 0.018750742234201877
0.08206274073859336 -0.01411894362027515 0.016259887326481107
0.08210508488679623 -0.013781714262643258 0.012619652367194216
0.08202832518065878 0.018521143926607524 0.02601483634451379
0.08213588204870263 0.010315918495211277 0.01873294038972323
0.08254315883489882 0.007054083729398277 0.027001005557720843
0.08213913685002318 -0.015079357226375528 0.013336249378580058
0.08233342975267155 0.012170369707577327 0.026454974296353836
0.08239670737170114 0.0003300898139253118 0.020034442755451617
0.08219529931999078 -0.015443656793973762 0.025575090280314253
0.08236611915310305 0.008076588395275893 0.012510975984848023
0.08238615430430779 -0.001851472289457686 0.01971331839042101
0.08226824386475709 -0.004718857944818642 0.009503977842289965
0.08220461267172643 -0.006529122946597462 0.0004011200404254487
0.0822145610131324 -0.0045680418454517625 0.0048988682592085294
0.0825371655976495 -0.00455037270129084 0.01284025899529974
0.08221370533103001 -0.006962723525622667 0.002060802851173614
0.08266581885628274 -0.002768053262757722 0.016986841917840157
0.08198898864022788 -0.017361601462899383 0.03878913375565159
0.08196545735247232 -0.018380594213085768 0.03918944581538979
0.08232562996247669 -0.0025008180079839175 0.00516172763584973
0.08230566186526042 -0.014634311179726522 0.02784910980858156
0.0813450552794274 0.027174483764743615 0.032020066120205457
0.08170430819137964 0.013738830356175529 0.045860516842446075
0.08176288706185031 0.011535237249946885 0.0454481973666903
0.08232453160752586 -0.013616026719438155 0.02564705686541211
0.08250522543785772 0.0025534037019458392 0.0357021832447007
0.08245144143902738 0.006584961659644246 0.024965479774065595
0.08211271164412172 0.019464397743357467 0.028057288719948715
0.08234756054121627 0.010269275486433282 0.028265790315093648
0.08219744212693733 -0.00722020135709294 0.0034999467599871755
0.08244852527521525 0.012612908729370095 0.028232835986408
0.08194438972270711 0.02256359326108447 0.02583821808634806
0.08251149186327685 -0.004403930216596137 0.029461326558167092
0.08258664821150657 -0.0031580085502595136 0.03448049774719272
0.08252479434255458 0.0043777317590764555 0.027492262995877776
0.0826077107019541 -0.002048380955415734 0.016348861702429638
0.08220523501790578 -0.007575564734664584 0.006830223502797822
0.08221241979221408 -0.006527322945817006 0.007081808239346477
0.08220264258894656 0.0023959781001536367 0.00548242696358532
0.08237512896781264 0.015615046378143094 0.02783725979263386
0.08219776048283972 0.02517008052014917 0.041774889858251535
0.08253106472644489 0.0040961941465254515 0.027359890068513547
0.0824610858565504 0.006128115187940679 0.0285097790048389
0.08240489982960045 0.011274635069096036 0.028207543153832122
0.0820483865174862 -0.01295334333259272 0.004377816821233367
0.08270832060000356 -0.007701447209265598 0.032768139331908974
0.08221302393778236 -0.007058676786341525 0.010723127770152045
0.08222698133243914 -0.012327064948906716 0.007738719356460092
0.08223448927353962 -0.006530259413356621 0.010760607096416033
0.08253914633689957 -0.004885339826097188 0.013768168227352329
0.08219619653102543 0.00133370061545904 -0.005277181237435561
0.08210362628500836 -0.007814407260359695 0.0003241306189961005
0.08209256790550121 -0.009487317444637891 0.0010499229563124236
0.08255382374319606 -0.010095117619232267 0.03161874635002363
0.08154665007388945 -0.030043131007564033 0.055403249699659596
0.0820873689466042 0.018092204582779988 0.00866171372437874
0.0818742024375266 -0.02063732943203358 0.019815820341818613
0.08246147844727046 0.008526418032309746 0.029019495920740546
0.08240254508093037 0.008198284367195968 0.02839849027684271
0.08203045175715051 0.0267989460028104 0.04498488017486939
0.0818941018073634 -0.020259965195073667 0.02326704304366744
0.08211232802820151 -0.016195402713071037 0.012871490409510973
0.08225229004682053 0.017066896715997988 0.027998697806118647
0.08027169520460004 -0.030722112608207536 0.034949227707517364
0.0820640312484697 0.017117248368546355 0.01744365650385001
0.08231813782336853 -0.007212246466265759 0.014023291087374674
0.08189009738297397 0.011733681969192784 0.040684341636012464
0.08173947227974013 0.026671239970686787 0.010969930939491598
0.08116043252433781 0.02616228870241288 0.029412778239343604
0.08208042722048929 0.019853470874044616 0.031037018387784297
0.08225362041210768 0.015280045921355007 0.02900258877246962
0.0819493574497557 -0.018189926649084403 0.012187140918815955
0.08259386254777268 0.007702422678496637 0.03032565052431264
0.08147989038201552 -0.025892795365887677 0.014253109172228055
0.08250939047780176 0.0023418043140397875 0.028163973345655603
0.08250261286875499 -0.001869391787504817 0.022842314408459314
0.08253602403181101 -0.001887316506258566 0.024041313948702868
0.08213842961397116 -0.0073669954499834735 0.009649992941254465
0.08211795406889608 -0.011966907970139074 0.0022965915232036034
0.08199758560789581 0.014326654168679514 0.0046345540972020744
0.08232969930690727 -0.010141242149790255 0.004931586268636952
0.0824209433598094 -0.003958348030336133 0.018834658014457953
0.08163336124400132 -0.025003406045410445 0.01591330545319171
0.08163917365245954 -0.024473739924072483 0.015719083306701055
0.08232921932899444 -0.006328868014924288 0.01564603781016203
0.0824357877833118 -0.00036980371965418107 0.017372551140598953
0.08113732051779582 0.02757226990599994 0.02999069166760119
0.08247533961937042 -0.007710481231105417 0.024894070126332674
0.08218359820136725 -0.008330117327924652 0.011096191305995724
0.08220614508909231 -0.007831087958237226 0.004601173364472028
0.08201324899997606 0.02077971718492534 0.028935655313830327
0.0826567767351553 0.018447500036414488 0.05189769863558912
0.08252122338286146 -0.000183350622727398 0.04159731022292837
0.08260612676896348 0.0008558661569849777 0.03861688968174508
0.08238774833322168 0.0038942585596507353 0.016521540026615968
0.08254231037908155 -0.009240860442620139 0.054678414990594594
0.08255287740779597 -0.005952155424821884 0.052306696706912556
0.08215613997138671 0.01158742293812491 0.020951821048126443
0.08200038063083116 0.020588687375130497 0.014725182440732364
0.08217124894615882 0.016347849130616973 0.01898854452393513
0.08209950360271542 -0.012195933787888014 0.016229897866719252
0.08086570434144233 -0.03049046374734527 0.042013560328645796
0.08225211799036158 0.007190880950486554 0.04320877538421039
0.08085506079252164 -0.030509103463318803 0.04268014493571702
0.08250516499729349 0.004549766863743965 0.02357790775872433
0.08132709532779084 0.027534431224137193 0.03645840192885069
0.08188828491683253 0.024949570599225375 0.012852329565383416
0.08246968106201803 0.0009943746497567685 0.019648193569640395
0.08220917679553072 0.0077478461061115745 -0.00476521828516914
0.0818137833363672 0.01890895609119767 0.038389058135070285
0.08045490597708574 -0.030703360132855247 0.03768046076363764
0.08178014334732198 -0.019169478191503067 0.06240276981869286
0.08230090510523538 -0.008056472107341502 0.01479811117237751
0.08087413384304008 -0.02367788237283592 0.02657582445266488
0.0822621971085721 -0.009834296034251514 0.006565926087194548
0.08190736250685839 -0.01641511168163174 0.010660846698100572
0.0820054363939236 -0.01518297666956061 0.01053547658026352
0.08204715327407248 0.020134730806536064 0.013597731502664395
0.08180601950574375 0.024849037544368027 0.03763167942696388
0.08241461312078305 -0.009099039720246931 0.023606053511793405
0.08223200024029859 0.016807394082058783 0.03139004336007929
0.08102791444012539 0.028529444745581643 0.03729325175413556
0.08216275181265764 -0.012591665066509411 0.014113289023032244
