0.0021768315569312743 -0.004927796897917068 0.11146702783840658
0.05039367570517197 -0.033088702043391434 0.02332274218737632
0.003756239395333795 -0.005854726803868256 0.11148278650328614
0.08129229579448924 -0.031060241432649724 0.09659188897596546
0.0445319327359674 -0.033238530539309474 0.04904663800203659
0.0023152166590437334 -0.005835788101208028 0.11156359322520316
-0.027416446627026515 0.02088090992284184 0.110001366631508
-0.01931542840116747 0.017553557100201667 0.11028334734797277
-0.01612075119185696 0.0064062940693848484 0.11075557351684133
-0.008138897246978376 0.011751626686422413 0.11054732382498576
-0.005453112987997109 -0.005262743538945458 0.11149259164092346
-0.029934681100600713 0.011265233680862694 0.11041700828269421
0.03445600462502908 -0.033296236629145784 0.0520444248803371
0.035028428003644946 -0.03327232196679235 0.053259192739829896
0.0033110568552890164 -0.004956270773868203 0.1114695730900606
0.0034701101996346922 -0.006314729432276714 0.11136565259697602
-0.0063426456202215035 -0.004357971520203851 0.11141585470255433
-0.026244207479651976 0.011316009226134245 0.1105792057418852
-0.006937412206155684 -0.003951447136044277 0.11130411541600613
-0.022747219038128062 0.010450620393084548 0.11059216383968411
0.07795054570159521 -0.031770544555526394 0.03211821625009306
0.08005401561205756 -0.03149211871131651 0.06440500349292752
0.004715844962968816 -0.0069395901144105165 0.11096345806332758
0.05409406850190178 -0.009040281534295263 0.10950322532268653
-0.013129920767665722 0.01123925010548428 0.1105857228467603
0.0036446145177524997 -0.030905386275853642 0.0936856256778154
0.0024637880886635047 -0.030921033656167336 0.09350170085415857
0.07898859072373848 -0.03140859137043533 0.02185279250160803
-0.035546556517491855 0.007199525370338257 0.11076233668189303
0.005211480886744261 -0.0035369487498154296 0.11133361908067853
-0.027284569483169867 0.007566101072342407 0.11072411875347943
0.016541359609084528 -0.033391179101513443 0.04779490334538663
-0.04182154243472446 0.017868698448194845 0.11007927216602395
0.014010557847395182 -0.03202547827325083 0.08564476938773165
-0.025325962258079898 0.02109058100415224 0.11007054317353557
0.03953235473742417 0.008745223668702748 0.11040703871264748
0.01831770933491774 0.01857797976583594 0.10989178229901955
0.03646104153940397 0.007578095497603774 0.1104482291076316
-0.013716763688558984 -0.03302907481659065 0.04492794417566531
0.03303906106173961 0.008290950837220899 0.11031352980812256
0.003974112391856616 -0.0334765845058377 0.04451957709615276
-0.012191693582923102 0.00433413769307315 0.11102417240076945
0.03250485478669582 -0.03337175055020819 0.04607325630499603
0.033732937779976456 -0.03341002402817624 0.04506016236792196
0.03765939978992818 0.00781594287301263 0.11033133943804009
0.03482079820349817 -0.033205771847307566 0.061168469278551525
0.03461306029888387 -0.02001608329998706 0.10896407881953556
0.034034784850698 -0.015236895079670907 0.10969442739988952
0.029054090503178476 -0.03329545665826243 0.053281916567795934
0.004604705991475872 -0.03342757003960513 0.04409387726645041
0.03220597025321667 -0.03222585498407708 0.08358082822622467
-0.0322643602800964 -0.017940516204913094 0.11010155785387554
-0.01972081949194223 -0.03312547609779651 0.028033798447664793
-0.007311900927406525 0.0015997712086361316 0.11129499740018316
-0.018744123300360856 -0.033092901939117576 0.03281250409348071
0.0072323438310587865 0.029066932004788187 0.10855240535016392
-0.012286124415033168 -0.0032031408216919716 0.1115712620393232
-0.01009499965567542 -0.0024658280338708807 0.1114789883099121
-0.00016254386446884012 0.018588030270260646 0.11000988584262543
0.03630533715336577 -0.033361130848677124 0.049754732351869294
-0.0005857338144861769 -0.031062466612335353 0.09245417519315954
0.007453575489870742 -0.03127245001874519 0.09195661897663357
-0.03186879993276742 -0.02240296382865811 0.109747661122436
-0.01052500366291792 -0.0028629108594441133 0.11157757910642116
0.0266332472349447 -0.03258840458117981 0.07963965099006814
0.0017902541019969463 -0.03087441092001502 0.09349753890423185
-0.005235037814181996 -0.03081304279814994 0.0931042638938336
0.04056838963249513 -0.03331780080878478 0.04324989716841368
0.04349245687000855 -0.033234947735462116 0.04601889100915456
0.008900207305001113 -0.03246359667855209 0.07678884977961029
-4.682393573462082e-05 -0.03394717464432926 0.010924684840594855
0.039707687369442045 -0.03325438754308032 0.041382554250741506
0.0034281013768614186 -0.03373333523953159 0.025663822771606448
-0.026863448616647294 0.03089749626021743 0.10791258806884362
-0.00239054689362493 -0.03390300067224008 0.008726618157467232
-0.0063396258588725015 -0.03149549271080211 0.08822720894015604
-0.006169284440669717 -0.031625373779544566 0.0862664081969993
0.025117301046226184 -0.028927730268813123 0.1074818092444913
0.0379577059057616 -0.03133168432876586 0.10011155262516755
0.014182574690878462 -0.031004396016389813 0.09478006099472144
0.07506816746871196 -0.032040813276617515 0.03739302831095863
0.03379156148633535 -0.021841692557663363 0.10902304156488737
0.06717958522713548 -0.03255067623587391 0.05337644453201042
0.043917383333366915 -0.033232965691519616 0.04551351199383317
0.006191910999988457 -0.03190231454336597 0.08445293015100402
0.04802426976460548 -0.03311546919703348 0.03658149203744217
0.05676724482529252 -0.03282582271981075 0.03797128241641425
0.02449151465176911 -0.033539899079671885 0.0409366441894016
-0.0028839031235586374 -0.030615731366034748 0.09698320509839313
0.030250269028055367 -0.02421558756855014 0.10914194127796448
-0.011960424537220939 -0.008819887402282262 0.11024612808765476
0.06343298785533628 -0.031828209804307867 0.09797196294593075
-0.01458555359252829 0.005944200026047847 0.11089675183124252
0.05890117191872696 -0.013687550881018043 0.1085398427788066
0.031447589315215824 -0.03230058053964371 0.08284759822890193
-0.0035180930751913158 -0.03364082577871449 0.02345282742598393
0.0570459074490388 -0.03282013959539087 0.04426076543694188
0.001261724978360953 -0.03379015266137362 0.020281461501679574
0.0015825833228710435 -0.03381305993746958 0.019362478935888286
0.048574436909653615 -0.03178630212455878 0.09462229846056991
0.048021865145472485 -0.03176447113229841 0.0946732038859236
0.045799594528606935 -0.01131788796008198 0.10956757300405923
0.057940243406130826 -0.03267578744813658 0.032016223142722164
-0.021012039605809954 0.0245616846505425 0.10926068898321882
0.05897827997183235 -0.03268337823647173 0.090543457044376
-0.025104219261134274 -0.015162532215295513 0.11037842873214926
0.043266473178102435 -0.03374037621997294 0.03917674164149019
-0.02001041119859311 -0.007793516680535475 0.11076653717135584
0.044167985231642296 -0.008569815172266945 0.10973643262709633
0.017638716767693213 -0.03351348840539878 0.042643409257145
0.00672126359793302 0.026260002787257996 0.1090979320495933
-0.022034862697448927 0.02483002622837624 0.1092675886772316
-0.005069237857702863 -0.030692077387722193 0.09395630493060896
0.06132283566165838 -0.03262915789369516 0.022329773107222756
0.06328311289434123 -0.03254287240892438 0.02363225339066336
-4.098694408633557e-05 -0.030827533974444998 0.0948081855400598
0.0008648597354007806 -0.030839567038500215 0.0939512035351746
0.07328060794311578 -0.03181716425796333 0.02745528342051634
-0.003448150457718803 -0.03095022049778815 0.0933731966469662
0.06606495426313448 -0.032359762883491246 0.03129901700651514
-0.0031710221928650632 -0.030769664582360128 0.09511928828033302
-0.006056607282824614 -0.0303845325266826 0.09630972491767359
-0.006196203100519295 -0.030302967689807763 0.09719785147534049
-0.005845733374868597 -0.030548423250686685 0.09514870039865182
0.027155752079335668 -0.031039286917945386 0.09831830506649983
-0.001789853066851699 -0.030848079263124432 0.09399829742678037
0.011615715917480327 0.0052905899502473375 0.11082945845962447
0.04170431883144955 7.39650121948214e-05 0.11008937192060474
-0.0012638707263337404 -0.030857063509800112 0.09482664196878207
-0.002943290781593809 -0.031028049463468443 0.0928955124248232
0.040345467341988454 -0.03345513747571592 0.023229337850082882
0.05082431526225865 -0.03311956987932934 0.046326021594414145
-0.017871969572826805 -0.032961768034339416 0.04388438138907488
0.041921262600251946 -0.033256907379455 0.04272461842230232
-0.02765069531060072 0.004640482914241592 0.11110904707965226
-0.004700030809830785 -0.030488604055380633 0.09613229726920386
-0.0035976673412696646 -0.030536874389070247 0.09682627880531855
0.06265408660061264 -0.03258594383186347 0.02519274237360094
0.06396752332001424 -0.03251397061480223 0.024399145449204126
-0.001723111043147787 -0.030714902848915378 0.09613640375355108
0.05188031318648657 -0.030767123571271402 0.1051021310679618
0.029964849420701014 -0.03354022505685877 0.03475027295158826
-0.020157948833975505 -0.010772325684805562 0.1105744828892618
0.06858306282740682 -0.03241098179491986 0.04692367648441323
0.06753591577090094 -0.032470208884803856 0.04723692694440428
0.02569163677877201 -0.032234817808053755 0.08516010936037507
0.04523411055360167 -0.026501871064769388 0.1091362236863896
0.06115139427220511 -0.013545224389611513 0.10849445462692833
0.00859413034674742 0.010789874455537102 0.11107699883936797
-0.002224174311841335 -0.030817842438247704 0.09421555553314538
0.020347143205338942 -0.03173419649364617 0.09147997730871307
-0.017981993381697852 0.03039546388333846 0.1080514382324197
0.029595587381823343 -0.017206592650466056 0.11025166895625302
-0.035155426184011886 -0.01646248576567593 0.11011791613547928
-0.013550676708472797 -0.03325787795876594 0.02809524721335585
0.03798502970740029 0.006051287551961043 0.1106144732653375
0.01929851721691969 -0.03130365453390534 0.09715040257802311
-0.032939652332462314 -0.01505408256953916 0.11035156525745975
0.011853525311348251 -0.005817394979099166 0.1116516605292511
0.021753736529580556 0.005229877557166753 0.11051592546453778
0.06495154278105006 -0.014703224408328773 0.1086183075268687
-0.024415587010121215 -0.02960228679604301 0.09842860623034344
0.05997712350539218 -0.021919792221767754 0.10886383167988684
0.06211216754412637 -0.021657437768217054 0.10893131576084082
0.02635660008111932 -0.031802651265436965 0.09219585290878654
0.026950587175304123 -0.03182594952213909 0.09252632853570816
0.0002324218828987731 -0.033940217331547826 0.015685290945431102
0.005102140684881929 -0.007306627783842286 0.11048576137160987
-0.014592619560419254 0.011548532924208772 0.11066491056482379
0.0008273589023723578 0.0166791599618445 0.11026522115029477
0.009973314272068844 -0.0318959252263823 0.08580394389179509
0.071550472288629 -0.031986582592803486 0.044353937730736294
0.07172006501699628 -0.031954771462086556 0.04556249216923906
0.07703738739341293 -0.032139448471242026 0.08024005643289467
-0.011544607176833848 -0.033003708111311786 0.047099748014635325
0.009136898995263066 -0.0074694823014072684 0.11041251134903451
0.01748356516166889 -0.03216389207520742 0.08194026136779446
0.05267207524457365 -0.0330115714541606 0.06548880786516645
0.04660371631739332 0.005755991888566859 0.11025179788513105
0.006003988811290145 -0.007331151132705741 0.11041205138793943
0.07755971217261817 -0.031876549366998956 0.09720384146755576
0.0037619806934272248 -0.00827804216699498 0.10990276886883005
-0.009950863228639304 0.001465958321320876 0.11127662930735208
0.019252772156250375 -0.032752700253004766 0.07892179025613123
0.0033343794519984024 -0.007946267156175364 0.11012467852508386
0.024702039337385302 -0.029501585614727613 0.10571153396160465
-0.0013591991755646043 0.013992897740753671 0.11033194750755385
0.02047506257675725 -0.03187466856492876 0.089639277108225
0.05655181737599438 -0.03279116297120924 0.0299858052841472
0.048725688505790885 -0.03308923726762084 0.06350126398362921
0.0031742805022006906 -0.03303358513833016 0.05708103544721337
0.003936244080095398 -0.03296594380914174 0.05850124602804353
0.017423145635350926 -0.032970865971755775 0.06793624935198626
0.05046131477042137 -0.03296721255138232 0.06950831456217417
-0.0022336864232737202 -0.03388923596379469 0.01411636651184524
0.047160728352054045 -0.033019309824294886 0.07187804291296115
0.008038248568187288 0.0022191143367494347 0.11118363126259923
0.032432293555562465 -0.03232343877681292 0.08879086042515365
0.006671772612541085 0.00015365424579366765 0.11111109867301808
-0.009313092527309465 0.007557494862817753 0.11108498874366943
-0.037168753144521324 0.0013669393060333304 0.11093397664372127
0.003512485947584644 0.018375185438221548 0.11017464946175004
0.006790489642171504 -0.033316619049172685 0.047340069402182806
0.057060845466471125 -0.03228477163778622 0.09404319192730837
0.0220121196371623 -0.032948803942784745 0.06615787636598927
0.022096301570331652 -0.03289699213146028 0.06706120150779862
0.03997449129901129 -0.024528656114787325 0.10843003218847122
0.031827293233091386 -0.0022481065799694316 0.11117138533392751
0.02947309319933304 -0.033292543860445056 0.05629518124963334
0.04472106881602802 -0.008343330690829957 0.10993608647941841
0.02889035144437035 -0.03186345185099011 0.09261865107675371
0.0641755701800276 -0.03248882207889669 0.029955820909275992
0.005149301893525703 -0.0013480649392043984 0.11117209417568946
0.050960168106569934 -0.03277510687035289 0.08815996434441901
0.05539151331882407 -0.03265942581865323 0.08975030292834656
0.018189076861915874 -0.028932226777597235 0.10710127534653942
0.036852994216333916 -0.028761476114009414 0.10773292754721805
0.03251391056381953 -0.029310598847217727 0.10689070767678782
0.02028091957481482 -0.03289079607394489 0.06977288186781594
0.027315113958013643 -0.03303336276738107 0.0759761963998972
0.00476346312171513 -0.033291435987518124 0.048854158755708366
0.015402965105585312 -0.030418170751337265 0.09995101351450912
-0.024879649394646552 -0.012888925645315696 0.11026391762818569
0.06188610503218485 -0.013601895632467895 0.10856430538823283
0.02636332841751647 0.006999387972522886 0.11077581846565636
0.0330617470888034 0.005481230716976605 0.11065009586679393
0.030205865858933895 -0.0006787661156697003 0.11068455750980402
0.006199558289961748 0.005981998421189399 0.1109217418573375
0.019608567092587046 -0.031355590265278815 0.09702902272322517
0.07316145417284843 -0.03170037240459916 0.04569497891275204
0.02827803994638071 -0.03049422399675328 0.10075921230320299
-0.023204756829744242 0.0006989149999130136 0.1109697169692535
0.02515765126351885 -0.03176306833354994 0.09150212753446124
0.025675333808468877 -0.03203506827995027 0.09020779253461529
0.006168069143777791 -0.032083195405778316 0.08203395344319374
-0.011919009377827711 -0.01223240851846923 0.11047161225831964
-0.004769226981718247 -0.02984628836119712 0.10258581919586465
0.026007874386306674 -0.027285188252261325 0.1085100041977302
0.06287245021510104 -0.03273922609759028 0.05744006492438473
0.007485586828767322 -0.0317517283815296 0.08698354299825334
0.07483717172629413 -0.031856035003010555 0.04731696736893651
-0.004929670605204417 -0.02882190467847691 0.10711725204464322
-0.004391348245421336 -0.03206999467754923 0.07976099881419069
-0.004317015616681874 -0.032078570682377315 0.0789639106730968
-0.030917001467421643 0.012028290483241742 0.11053183741624362
0.026774794580277005 -0.031514249090515284 0.09416252433645772
0.027076530526022564 -0.031262151207726394 0.09548451832400995
0.07850461022185508 -0.032034626998846794 0.09305548269777704
0.07023023410376102 -0.03208053112612976 0.08520823433668566
-0.0265023840361211 0.008629953959644363 0.11081515722274868
0.004934002992479123 0.008701195878133297 0.11092298915864791
-0.03308827685420994 0.010058263622157797 0.11059471678932424
0.031056086696559744 0.01367915232500609 0.11019552277386596
0.062353956872262487 -0.015105061442491984 0.10861083914219152
0.06974634224874285 -0.0331802654906488 0.06531283419435983
0.056828310784942646 -0.010621107415158206 0.10896380007450313
0.027301100992515093 -4.744450523978577e-06 0.11059992467714004
0.07721129358024739 -0.03209779122011313 0.055144651022790175
0.07710669052461651 -0.032109441858214016 0.05412217833004325
0.040276323406395656 -0.005873452211878256 0.11092968265574873
0.053906214009604575 -0.03300733314014667 0.036125518900957464
0.014909589862110722 -0.030107224314878722 0.10400826355112103
0.05485126085652918 0.0021415194623657426 0.11018354756603707
0.03185144999749587 -0.03224898881669606 0.08501969977380844
0.04429200107703681 -0.023136986605337896 0.10893512242444073
-0.004730773655881119 0.009291504975162974 0.11061862608527126
0.029002403454343517 -0.03238849130015614 0.08296820562761985
0.07790741746686555 -0.03204015207991038 0.09267619597246765
0.04396238259776676 -0.033246493469504396 0.024806519701154987
0.0351503350357564 -0.03295226553028543 0.06927063931777452
0.0340477869100518 -0.03286392312599036 0.07537424285670027
0.06617971914844525 -0.03260657862217296 0.056175673119671934
0.025869070002843976 -0.03225108638657634 0.08344992755957661
0.009726305105338933 -0.033217465963265115 0.05319633042830259
0.03465049923629275 -0.02766269055726726 0.10804359081979316
0.02042926607748722 -0.03221465347065077 0.08208344479634697
-0.018551453073707178 -0.011527759864520995 0.11048249572815638
0.011672041311908948 -0.030851806342277414 0.0969358728690139
0.0685575141162267 -0.03216463787148275 0.08138901742953401
0.061241614117531214 -0.03272762167269913 0.054481791610156025
-0.038395677677548076 -0.002814953769852358 0.11119890404796771
0.030652495458315446 -0.02689344995448647 0.10828090858309461
-0.02091804710833892 0.02658922804477547 0.10903764982918886
-0.0061454794600845145 0.012741874624137445 0.1104429676675147
0.031087420731879627 -0.029050433259007753 0.10704644248473488
0.04460465562362989 -0.03296505734069456 0.07437707185527805
0.044741364052327405 -0.033340543862750885 0.0358375129982585
-0.021031344345890643 -0.012156174420146503 0.11035839779613987
-0.023673571359830434 -0.010793200260213487 0.11062656098094979
0.06400637109707928 -0.03245143434046785 0.03535753400283217
0.02975386070248153 -0.030346457362633826 0.10265911140591238
0.025299583263114066 -0.029745512855651367 0.10490143371488678
-0.020219455165495538 -0.031936507228386465 0.07582379103911581
-0.02035679211025737 -0.031925341542945455 0.07614876136253705
0.04723985152317643 -0.0219449287785819 0.10904100990993802
0.045406968646157266 -0.03175908143903213 0.09432969233560282
0.04493390446042134 -0.03182410040140635 0.09398431713917531
0.06026308943855374 -0.031825521101942686 0.09974874982948678
0.023145479535901535 -0.0321863166661359 0.08556694553653854
0.017396544225969375 -0.032470848293574425 0.07605223844785514
0.03325996840174977 -0.03113868685884605 0.10151181160658587
-0.02118243581789368 0.02631678987993969 0.1090891507886178
0.048406922177266595 -0.03290196446762402 0.07985766941400232
0.04459425310611325 -0.012982251321968823 0.10948342957395758
0.05629150521819441 -0.008399388239736297 0.10998468481957241
-0.021932673091879854 0.027935340153237523 0.10866701440200163
0.026300986679696763 -0.030169916308141483 0.10382216255094905
0.029231738762303817 -0.031381027497973474 0.09818735967719516
0.03722722155988829 0.007734513902936439 0.11038674471357714
0.02141498741147706 -0.027741253538042597 0.10858273348358276
-0.027545715654746693 -0.028512965956249095 0.10671263127551482
0.003898895636455779 -0.03294928151630418 0.059543509278652686
0.0039061338959629666 -0.032943253496247535 0.05977415288530146
-0.015102487910957075 -0.012944518591139969 0.11028137683004209
-0.022888628223707266 -0.014512058311026484 0.1103168303086044
0.0414428311689091 -0.033141223829149746 0.06643988839640104
0.06713607817724203 -0.03218133320622372 0.08919685764971187
0.033167001562014534 -0.03283301366486022 0.07632985009894745
-0.02168195387016405 0.0275751414378526 0.10885022694696292
0.028542292218658026 -0.03226523029786976 0.09036952788288748
-0.028863434044238807 -0.0022743937356591365 0.11115493178638367
-0.021540408378741303 -0.0007463779259595448 0.11021801630701072
0.04183555397595063 -0.03319821378001526 0.06993171024623196
0.02961848547376452 0.010134289065781194 0.11048122097648039
0.034192057626488616 0.004085063768616164 0.11046680057970817
0.008607946269870591 -0.0003580852659607414 0.11110100893383422
0.011816379398663177 -0.03186299112876606 0.08562298917505826
0.06450495190034006 -0.03175217634997518 0.09880566518000213
0.04346659691679097 -0.03145618558262388 0.10179913150323594
-0.01994596189109373 0.0008169152040385685 0.11095605074604639
0.011335839996623121 -0.03333525776791928 0.048927811767884535
-0.02055927046417602 0.0013230619975181037 0.11119371118734078
0.02272513394413892 -0.032384003994366035 0.081330278243071
0.02991853876770102 -0.033067876230528204 0.06968723710435916
0.051549975790151095 -0.013250271207101032 0.1093863351082088
0.014285427109532473 -0.03311449299338686 0.07572033412299317
0.05200613132195988 -0.000977894729787696 0.11040558848546458
0.014437042979317338 -0.031467708682624176 0.09143874007017368
0.051386065783070534 -0.015232324769252618 0.1095155454014979
0.05022206915688193 -0.014293893059569884 0.10958382982754822
0.03561127108146547 -0.033764446962296184 0.03597477274865542
-0.0055886015614956975 -0.012304963786561401 0.11025148564578371
0.016711608750807044 -0.02940323864381088 0.10623848674410175
0.04975838590827291 -0.033160976383339154 0.04036979214733196
-0.025818822286454754 -0.011567521299851282 0.1102777504600887
-0.02080013961818367 -0.010995435012196492 0.11055404959508766
-0.019716816744772492 0.0010305723204713183 0.11106064767332936
0.02341294583437989 -0.031861157825570016 0.08960874035704706
-0.009667232869219345 -0.01054099019554867 0.1105091828060419
-0.023164110895458324 -0.014222731048783221 0.11030963820338
-0.01668532656399706 -0.02864257473174709 0.10624889821396699
0.07696303198055487 -0.03167207782346063 0.045794021713219314
0.05521733072159067 -0.003062449690329108 0.11018679763899772
0.022302227718055914 -0.03282965866087533 0.07730879860195077
0.005843685518429584 -0.03391132351560274 0.014925025803361275
0.03513249195622547 -0.033195835068563044 0.06433334379955369
-0.01829020290251228 -0.016372872796024042 0.10995950020629848
-0.019667268833957162 -0.028255774489302547 0.1078308752787065
0.06435667595726291 -0.01590986625399348 0.10861180542922512
-0.01931875962731548 -0.028457427711343856 0.10719571791995444
0.05473366509949164 -0.032684381177753415 0.08581388191849426
0.05433445106543539 -0.03271390319120353 0.08627989481610224
-0.005550010411357891 -0.03271611327713963 0.06405935805283795
0.05146166940734183 -0.03306529784743399 0.0536689903695668
-0.020592272428344823 6.656172836929977e-05 0.11057161712961178
0.030280335554706606 -0.0067020906023266096 0.11121970054514323
0.01671095268625564 -0.032621674755305294 0.07704709945162769
0.005237139608320645 -0.03316189430308492 0.05315156087768094
0.004641992380319554 -0.033137996730064304 0.05454651899510597
0.019627303657734362 -0.03148670961921882 0.09290267550207992
-0.006742769972298985 -0.033626991161618 0.018880841289066454
-0.017793893838749738 -0.03284718162279827 0.04891687334185203
0.05939249264116141 -0.03236294701349109 0.09265287559278401
0.038516269156579075 -0.004235149571204333 0.1108740950849437
0.006052002347046461 0.025319255066538274 0.10931645143512053
0.05055979819332771 -0.033087336355826724 0.036571773116958084
0.045772761589484325 -0.009088711141618418 0.10938129091264145
0.07009217719001277 -0.032325672196313986 0.054963473649319125
-0.002278880638612714 -0.033771314115091676 0.012524902793433107
0.03839251173526084 -0.03355145846031294 0.023316164940698797
0.03203559276945956 -0.03376095405657827 0.035607899912166445
0.05609548540572845 -0.03305868327278248 0.056037923212606075
-0.0022855554683189265 0.025863272008868544 0.1092571802140047
0.014363008716293719 0.0022616612879958506 0.11087188723832134
0.03962083162620811 -0.033352040080658535 0.034512194227123025
0.0343579961478756 0.0002515129576209019 0.11056308139442264
-0.01716548215232475 -0.033303979426948835 0.024109016866539303
-0.018216800711132766 -0.03326929458360833 0.023372182303135227
0.05384966988725837 -0.032913731486540074 0.04313716896146577
0.053067935258883855 -0.03297422047768467 0.04356192481940617
0.012222188795534463 -0.03064167561598112 0.09927134225565004
-0.020720996872846897 -0.028669133169815182 0.10622109975256222
-0.03739930162874483 0.015511635959422617 0.11056500925592139
-0.023398023319090522 -0.02882205272144139 0.10629879438777967
0.04459486674731441 -0.010853838599649532 0.10964649609330218
-0.013401547340382352 -0.03353122013283409 0.0171866366775576
-0.013528861529212167 -0.03352438132469354 0.017891339701299747
0.04971956537137876 -0.010177759655809578 0.10910044712263664
0.053224118868172424 0.0011984338314196606 0.10982105387639643
0.04318453313069036 -0.03290209620009014 0.08101150133901551
0.025165026781725962 0.010588236051432866 0.11087683643078312
0.07624256351317119 -0.03164559055633397 0.03384259647369477
0.047043998870111 -0.030627632365989026 0.10502522172133671
-0.01479581879700073 -0.03297312518824499 0.04627791144445586
0.044488482823126306 -0.03334450987874379 0.040400113663703545
-0.01697171461125691 -0.03314627406971591 0.03576665530746966
-0.005235898169257376 -0.02872936319567014 0.10796485139819437
-0.00436273165552485 -0.03363474350974893 0.024979711406444467
-0.021701927599478206 -0.028277146736329438 0.10741473600142529
-0.0063642923624812235 -0.033446010640813685 0.031086697863105854
0.008480619766834247 0.024112513183984087 0.10957686583657499
0.05031205763025599 0.0018488513281237212 0.11021371635765817
0.07855580224208475 -0.03154008387673975 0.03427455395520816
0.07530310312246011 -0.032161881734372816 0.056132213102193906
0.07518678196740029 -0.032183217933057694 0.05474895660138904
-0.021256340747023896 -0.0019090060018607858 0.11027805859177779
0.055625017918873775 -0.032861516641582725 0.029684564940249833
0.04583390406782512 -0.0014573955216423025 0.11018308072873949
-0.005190809766805115 -0.03344896353056426 0.037047545891206374
0.0574018749885075 -0.032829665607907184 0.02738320372538208
0.0562244838374521 -0.032866475490082814 0.02713842977160877
0.0425835660608098 -0.032438329224971287 0.08347866253240127
-0.03263772542717998 -0.017003561786580662 0.11021271250762091
0.009761641544405918 0.014575775391940406 0.11032619296058359
-0.018627252227262664 -0.03298044094189055 0.04144779802783452
-0.019620765929187035 -0.032925582099239424 0.04039322784481799
0.05753170948700466 -0.03281701296873332 0.05038386368278881
0.019183089525809348 0.015540338763907858 0.11045795694266007
0.0706573889780008 -0.0326385736714525 0.06076850436859593
-0.02175135569864763 -0.012372620645320557 0.11031392747686847
0.011438840439062334 0.015133732883557027 0.11026549869766503
0.010011047841917598 -0.000446964231326363 0.11104424050099308
0.05458519095971848 -0.032988171919648056 0.019964325824345167
0.02950183416214766 -0.033133959083051834 0.0617752157277312
0.009298495454574217 0.013759711745255813 0.11050480791076207
0.03268567129363499 0.02281929243259211 0.10905221674611747
0.009722444186145571 -0.03344378404649855 0.04326013988112791
0.01042181932183907 -0.033427736841682806 0.043664855363931
0.04927190120375399 -0.033146961071003275 0.03844757164470397
0.0486713070417205 -0.03320330496943561 0.039313682993989726
0.00813022174105798 0.012610757032964435 0.11072081675377046
-0.000282148295291831 -0.03335180260234571 0.051239503272993384
0.0272778236282495 0.015590186139602077 0.11003580887307596
-0.015078443620066955 -0.03291332053998161 0.04702626292313376
-0.02589857232503352 -0.028722973220900012 0.10657208173243787
0.06729561625885558 -0.021227246878054582 0.10865426711666207
0.05164739203270559 -0.004879770932940963 0.11040985794749276
0.01854089713034292 -0.032814560421423306 0.07035572935212903
0.033821753329574086 -0.03314381132566036 0.06690003096085845
0.04171659317154748 -0.01985154971919076 0.10849882786264875
-0.01303003301641071 0.0061870454012018525 0.11092790114541998
0.07169444250659107 -0.03236806740425335 0.05577202248088831
-0.02032195344811742 -0.001221718475020683 0.11037141657209851
0.028893778919610705 -0.03310417320571944 0.06653606833174266
0.005061526713224008 -0.03285878301265795 0.05973454526642836
0.044159684471143636 0.005043328033485191 0.11028005286003183
0.06799771841566951 -0.032299172817888265 0.030203803206544956
0.023284428275913743 -0.03130297503217925 0.0964511898185777
0.07246083289174529 -0.03236139311120435 0.04943440883474008
0.07158260206093449 -0.032511083936740424 0.050145769902722515
0.019363986623339602 -0.028866374430276624 0.10740967859234225
0.03481237438117975 0.008493146965067491 0.11047490297409882
0.04510263947803973 -0.03323579604450043 0.03276929648239685
0.003206323276823973 0.0044201585887418985 0.11075260346394547
0.019002832800780585 0.019526353103477966 0.10980369375111979
0.028844634028720582 0.0059750112697196395 0.11063728689886085
0.021681917455067284 0.010965497240333948 0.11043608883091621
-0.03801517055842372 0.013136778875266895 0.11041148379605892
0.040681940166203696 -0.03342106263419472 0.026641455690488706
0.050906426369432295 -0.03310036086583426 0.028942304363882232
-0.019264519258714252 -0.028802270282807643 0.1060625087972139
0.035606293277946385 -0.031987369098688795 0.09617823441216271
0.0683822144872738 -0.032230426701115485 0.083358885541952
0.08165797479916646 -0.03075166021839766 0.09533247876109746
-0.00297369350714886 -0.03371448575717649 0.017037125199762568
0.060461523368418306 -0.03272358761668619 0.04969737869103823
0.04572590587322928 -0.004902448791637044 0.11107145095521335
-0.010244976656129747 -0.03365258799918901 0.013261351418980107
0.07012451628310892 -0.032821215860836944 0.061752150274515076
0.036212327664610654 -0.03363990669621695 0.02382366203849285
0.035338599811532735 -0.03361397693393446 0.024751724286092597
0.008324780941089141 -0.03331194068991834 0.04801858469405128
-0.003837683874983242 -0.03370836055785537 0.02162100937185963
0.031508731521953326 -0.0030522919883269285 0.11129030229217086
0.04567790646168549 -0.03326569079048612 0.02894865513476051
0.03002352079144122 0.0022390763143124593 0.11069444116168875
0.04547340355882064 -0.033244923144706964 0.04304955806041236
0.07286029345617344 -0.032250958573549836 0.058078509064466786
0.04502972804755773 -0.03331980893797444 0.036248435114266515
0.022636986241366615 0.01147300000434065 0.11035326685115347
0.05027417871143239 0.0021376414493105853 0.11029711520680084
-0.020379355455853374 -0.03182369483895113 0.07944317569147619
0.05760719970976077 -0.03246223251983143 0.0853046032546908
0.026767952717609973 -0.03088582713907142 0.0996528112577511
0.029621321700968515 -0.033202668778121266 0.05917806975597066
0.06801536969933683 -0.03228775462408733 0.028134358061697756
0.06660501670282334 -0.032372407040241274 0.028355700841889823
0.012970772060937236 -0.033688590307624666 0.025472124050446122
-0.019427898109149074 -0.02881637252957158 0.1060143548764922
-0.021345095104851407 -0.028672175635598728 0.10614095015236752
0.042436931015957954 -0.033231912886005466 0.03287804570486602
0.06992771652605087 -0.032207410451266 0.044128814206044295
0.07038192949603808 -0.03218195709878188 0.04385085143063862
-0.006357135645018308 -0.033557518394715324 0.023472606802686962
0.04540126342059953 -0.03332391149647011 0.021864421943946687
-0.019299590064893263 -0.03312491717335565 0.027331091865779977
-0.01912491122032051 -0.033159563163064676 0.027992148903599266
0.03049720402883282 -0.03363614474415824 0.030861256473055234
0.058837063498551515 -0.03283644842567793 0.03928888391561294
0.04641956265044549 -0.03323812828099712 0.03736990124578202
-0.02166895112183637 8.539577637259367e-05 0.11043758983763392
0.037533786379262954 -0.0332362567115301 0.06343308315926763
0.07455998594177574 -0.032106609883277924 0.057620799891312725
0.07412952439037437 -0.03208599573948408 0.05809324152866843
0.014484589198793911 -0.0328313314564647 0.06888444741230187
0.04153755706403178 -0.033165761461909415 0.03378144199675712
0.0384136506341186 -0.012291807484181053 0.10943371053049115
0.07963780315971733 -0.03192547046713951 0.09380003486165406
-0.0032462635366863244 -0.03373064654407487 0.01952965466564123
0.034011123370934856 -0.033888548007980045 0.03407792233012787
0.023622643794639527 0.010839092851077762 0.11034741961763912
0.05132937409246903 -0.006250069082843563 0.11037155897991216
0.05430284438660683 -0.03294053943268603 0.02736258813302328
0.0032327684004639793 0.016387198311796913 0.1100873893453419
-0.00841026151150863 -0.03372766211777545 0.014165301351501819
-0.00914953657147358 -0.03367623636964961 0.014182420218868596
0.03420419124480814 0.005282080329408926 0.11045349473151826
0.05570298273011453 -0.032933244677816595 0.06643990908000233
0.07021759424967587 -0.03205389232587938 0.024461510037500758
0.06969391463044326 -0.032096586500849775 0.024031405233172275
0.03769899071607351 -0.03084859416782259 0.10207178048516721
0.027380021300046825 0.007414422621652695 0.1104708252375326
-0.013452943474778989 0.028958627400042312 0.10872157389484306
-0.010762718251664269 -0.03356596068765008 0.02022802856445026
0.04209944064230536 -0.03351121526011215 0.021038114555077005
-0.014478981447730216 -0.03273464532071978 0.05424400493291185
-0.03264132335033981 -0.011829042065319812 0.1105396144913294
0.04696975631968727 -0.033149786113294756 0.04700278799401409
0.03956499792367678 -0.005718705941392009 0.11093843154167427
-0.039810806169232764 0.016937465348219743 0.11016906926021286
0.05487223652114745 -0.031886181789213444 0.09712369641097032
-0.021646197553043735 0.008320035687054693 0.11060239618999888
0.06853302613637974 -0.032319190197191275 0.07985676791684744
0.05296865034599408 -0.03303308083767792 0.02041830837761538
-0.020790068577611544 -0.0056607168400776755 0.11066507197572209
0.014869820019436266 0.02652574243381858 0.10878147582502652
0.02620912229562002 0.008482668866808686 0.11064620149780148
0.028845712164443333 -0.030409407391716013 0.10098405580293796
0.0679824943647267 -0.032223700824917816 0.022274243449392384
-0.026624812863674706 0.016555520908083945 0.11024398788259855
0.03551960044048684 0.001763952707358954 0.11031367142338108
0.01890464391509652 0.013904993580596738 0.1105523316678939
0.06891362174462305 -0.032253142775378864 0.042351687888542086
0.06848386611578328 -0.03226488701524392 0.042499678910601676
0.0786561807230357 -0.0319833522052953 0.05868126579961605
0.036445441426316755 -0.033454057497879025 0.038225822567370886
0.04541353590343335 -0.03159535483158054 0.1024480344640878
-0.0283221182745442 0.01771732339029994 0.11011172194044946
0.028808101467047126 -0.033580403332023986 0.03436546509733007
0.02618316031908178 0.004351804914795496 0.11077543495047788
0.026031848472950217 -0.03086385280611531 0.10082289700444041
-0.02056343698729386 -0.02413413299278997 0.10935360554515637
0.050159225757542496 -0.03312600386027738 0.022576430688130616
0.013183726965843336 -0.03272947766811949 0.07714682002264817
0.007951348541834307 0.006831025802273091 0.11084233079807754
0.06387449989491097 -0.03241390640149171 0.037244088209474925
0.052920479551135595 -0.03304802862920987 0.036345999577124935
0.04873109527880894 -0.031155591837319953 0.10386104503412488
0.06714189505774085 -0.032304780629128504 0.04352565671879184
0.00023528150886263606 0.004751423201893124 0.11093202654635216
0.06341847204385982 -0.030413773767271515 0.10500105346582422
0.03227869767822904 -0.03369890913149197 0.0336628999313777
0.04377946010108236 0.005336093207364552 0.11039340842292755
-0.005938509887114951 -0.03172302602263029 0.08494680458335059
0.05451810206514574 -0.03304215162918748 0.041673150629863556
0.053845669067937314 -0.03305675883448704 0.041608008017284724
0.07150464235221544 -0.03233195044581688 0.036911612793689694
0.05217496902504987 -0.004766067153406374 0.11046710740531512
0.01332350200478757 -0.030087668950561912 0.10409962525469993
-0.006065052051957708 -0.03378367817752457 0.011540839165718467
0.031922047477187514 0.007430719713040122 0.11043596071180406
0.036400020884654244 -0.03206250432306773 0.09545948512287503
0.02844283094952807 0.02317319536601741 0.10915238162146304
-0.01537737476256567 -0.03342654617398181 0.02102809163419122
0.061676482904183004 -0.03276148611747724 0.058409230878605986
0.06131489018279539 -0.03276500031781866 0.05901351265137033
0.057343334875516745 -0.032807563655626676 0.04780558862343044
0.04026944488529448 -0.031063422548400586 0.10290211509435448
0.05813494218271113 -0.03281383827728014 0.0494161545725604
0.08104928013621482 -0.030785590641278015 0.06935580907918576
0.05889958980334614 -0.03278272464810691 0.05002416162026861
0.05442098584229146 -0.0015015855155544764 0.11028478279533122
0.054078646978287515 -0.03297953641815616 0.03431021311127971
0.05409136919431241 -0.032965533728925675 0.033274899194309523
0.036669360638964074 -0.03277672710334049 0.08095625473115207
0.03966474931722472 0.0046501699192830976 0.11020660802092858
0.05278636193242875 -0.000280636597323663 0.11021544105158466
0.020228127610655195 0.0006793234133902197 0.11086946469102188
0.038749724110967165 -0.03091265192392497 0.10234192003231381
-0.01407027655966464 -0.0335126272904141 0.016064328532136088
-0.014840820320982882 -0.03348522127776466 0.016162676050869768
0.02477274126633388 0.007721044709935463 0.11067084464830476
0.029151383245007108 0.02099000945158736 0.10944041379693567
0.05167978069293424 -0.033157201605604945 0.04677556781090216
0.04610753731090862 -0.03329315871428727 0.02235443965026192
0.06297980246151898 -0.03278774632137255 0.04462925566834266
-0.015397030820464295 0.007853783558252413 0.11076082664800276
0.04658490472186577 -0.007379348782105017 0.11079057004386418
0.023569309551939373 0.012647077091312374 0.11023731637465181
0.022265854530381983 -0.028792850117993516 0.10760707379325202
0.008156423053529697 -0.033304317432035144 0.04635500712526496
0.06301068214148788 -0.03279508203862275 0.04286406385661392
0.020622466208226414 0.007458455772795163 0.11088247036634198
0.05111402851419276 -0.03298727949667416 0.044786482162201394
0.04495004627059238 -0.033186854946396685 0.02461843627766233
0.0440669198683301 -0.03329962929441628 0.030299947272927195
0.02792672914568354 -0.033242502211705535 0.07179327608497243
0.012142228631357279 -0.03158518943207293 0.0896826859120586
0.012819992588049318 -0.03159548614341557 0.08977876746435877
0.07058661141747574 -0.03226646908225467 0.035261175091042325
0.008822874082169058 -0.030921869081627515 0.09436988585542366
0.07764269363116658 -0.031992677664403946 0.09172255598336941
-0.005203024509027055 -0.033598127717476466 0.022068145186265337
0.0798937633216633 -0.03166733371213938 0.07497832101385363
0.053830163401951424 -0.031624956692223455 0.09989113180886233
0.04786199806464263 -0.033133510380145705 0.04291981225728623
0.0229047117968 0.024653997223957037 0.1089214400493998
-0.02181240011325529 -0.0023022661480609045 0.11025367832669783
0.044114884091114984 -0.03005239189313593 0.1064788409061379
0.03230611142163227 -0.03167197266111232 0.09641775229319395
0.033449171882889026 -0.03069209908746644 0.1027917789054257
0.026340990026399107 0.009476750905766248 0.11055699147797071
-0.0016562073017497474 0.025987928862462463 0.1092136740198259
-0.010272916947070707 -0.03348932935895223 0.023344002002585802
-0.009785160671010203 -0.03351731354463369 0.022654902795614117
0.02211834107946074 0.02553947436856982 0.10869728065936286
-0.02425140829668468 -0.00992536587597705 0.11066136781903432
0.04194136895547386 -0.014361992520306977 0.10927495881620797
0.06349489498668406 -0.03272364657664304 0.04866104542238593
-0.01140974580686488 -0.03342282559306838 0.026597545424410687
-0.010223814858575861 -0.03340798009358868 0.02768787855666481
-0.02974753807062586 -0.00609986193643859 0.11112660373722016
0.030237147343673602 -0.033396687462453875 0.04094951176220765
0.02063077745816394 -0.02824211457434655 0.10819404905255439
0.015755233447863455 -0.030161553993235172 0.10298255481134679
0.0339782753344153 -0.03207562790296483 0.08938794964151116
0.003782109107963275 0.029055339657472666 0.10865702565929333
0.032367138142276125 0.007089585254123956 0.11059121891960771
-0.02637238700961835 -0.0035761961832317135 0.11082486211327491
0.06744929021986659 -0.03224419452952358 0.08458543052720718
0.056211409754133024 -0.03285525220498346 0.044778180142224455
-0.010454091718302453 -0.03345065504603187 0.03717558671895117
-0.02875318618213584 -0.005166265997954653 0.11130157283692667
0.03248932413312984 0.010454875220992787 0.11029523337518063
0.03418311705367262 -0.03261173472983618 0.0797977683638045
-0.023799808164242438 -0.00828138664826789 0.11104923807126683
0.045384787726782144 -0.03328693338017915 0.02631614320915539
-0.018370983032605905 -0.03232527390398603 0.06635494183589742
-0.0221567250559567 -0.030798002771020044 0.09079431567321362
-0.013868879760570938 0.011343169640862802 0.11067797574242251
-0.005917520399421494 0.02105685151983109 0.10979425355567896
0.06226554650854016 -0.03269432986665689 0.06016958240880912
0.03905890135673783 -0.03150803626295316 0.09919617087388828
0.040768047262579536 -0.03173026272015836 0.09757630312320369
0.04106790759339879 -0.031761936095514955 0.09732903330331473
0.060601667700843936 -0.03273069065765788 0.04753364057344255
0.03187477653108794 0.010371831173970295 0.11038085830323921
-0.02030427965223147 0.029229966810911327 0.10866558615021807
0.07364089997259873 -0.031787002713914235 0.09976704692774885
0.028813867750678426 0.009774641353304664 0.11045079576961186
0.026492493291582694 -0.002507551180651894 0.11117875860103173
0.013531399552374666 0.004294049183921343 0.11094260237129491
0.0518978539172701 -0.03296857374310649 0.045415157367094
0.07509175643889071 -0.03211223378813894 0.07135597319652681
0.06621273393708028 -0.03243295063113097 0.04429019831201529
0.04019423760180685 0.004851285746917199 0.11026547305066076
0.04855710664783844 -0.031382067627057114 0.10312632327003778
-0.004724158807852607 -0.03369172812163558 0.01931739522580682
0.0034634585990818948 -0.011119035283783805 0.11003682959674346
0.010445584152869891 -0.029110670306681553 0.1067177772250533
0.06063594742868578 -0.021297354187572642 0.10882491204242149
-0.016933903569010963 -0.0162431308822605 0.1100649180055627
-0.016471252907345225 0.012644198930628578 0.11044733781389768
0.05059962980821975 -0.03143917990080802 0.0982975514756744
0.05415630685538051 -0.031146213653997227 0.10268743948701906
0.05450996410363372 -0.03110900050259452 0.10269184373986287
0.013164862085633784 -0.032139862751688696 0.08026790830040238
0.01587088003346682 -0.00421314911459842 0.11127000847267343
0.010149009958098481 0.02663432988210932 0.1090517253162439
0.04578917353855483 -0.033259730974959295 0.047135909378117104
0.023245870488503215 -0.03215652106432881 0.08748369616748161
-0.017062675456667918 -0.03306673983591772 0.03819614478452142
-0.01766027500643901 -0.032990491126781464 0.03917811958919913
0.06045374240919011 -0.032571435393865686 0.09024833623798749
0.05703148187903554 -0.013015056546510662 0.10884725234126398
0.061332742413587486 -0.03275554612859117 0.04696338729718006
-0.0026326035136814926 0.012917253843382236 0.11047560330445753
0.052739932867986075 -0.03167955558710024 0.09723475585238414
0.02738675521948092 0.009438914445003777 0.11037837493477615
0.0029690022788855888 -0.032633073586071884 0.07442590051250142
0.004094455332588073 -0.03269612200330801 0.074653025728645
0.05808521399801139 -0.0328032365989657 0.026906615435591134
0.060208838863172756 -0.03271294707323705 0.02548069562174601
0.062184286869764224 -0.032774772609438514 0.043488002671478204
-0.025047168217869377 -0.002528054591331327 0.11089295939467723
0.05211557345804458 -0.005512582038838432 0.1102584306807335
0.018042185774552823 0.027411318626905577 0.10889587129114134
0.02915835863936912 -0.03134514879888845 0.09766392708712565
0.06551492845046233 -0.03239640052684789 0.030869254129121504
0.0074908233652459 -0.029934237544507636 0.1051770643847189
0.06723942493025424 -0.031642926758790275 0.10016898032403247
0.030556682020331013 -0.03349447684300342 0.0350933398090915
0.04187151086647508 -0.033607915291880966 0.03984820807206118
0.008525141667350434 -0.02911037554119157 0.10663749820429404
-0.019770318316866646 -0.03282737337996328 0.04892059660896074
0.056346364520987326 -0.03287143025347508 0.03319848743628364
0.03274870608297967 -0.03184968282534115 0.09865289591781462
0.009435580711717056 -0.02885702189731206 0.10700827969431072
0.0299719309079887 -0.031394636337288756 0.09925865435140926
-0.013582728163935607 0.01865399259873002 0.11011037739749743
0.07122325080888678 -0.023590273166967508 0.10849612394748698
0.05655171252332853 -0.03279770905407804 0.04353571847459691
0.043103613898048634 0.004598685153681785 0.11011072394792662
0.014074439041577581 -0.03336928774967788 0.0462024686010745
0.009187839192186522 -0.03005569657381255 0.10187675913626743
0.02666633105754052 -0.030799568175303695 0.10036297977478587
0.005378863083194676 0.0011058166146913943 0.11115604900404011
0.01711907382424182 -0.031407452791141 0.09442602085594122
0.010252109305430555 0.023245871858991102 0.10935105980936755
0.06746814341312343 -0.032481243947542794 0.056011830416147185
0.03788600767191408 -0.03342299918239244 0.04503364398985735
0.013041237998492484 -0.031132464482400483 0.09408270214094398
0.0763514596815394 -0.03182043950576581 0.023540814261932035
0.05988404613230689 -0.014900267897049749 0.1084362149146881
-0.018531368689315597 -0.0321804743114393 0.07557354156787227
0.014549182990029122 -0.03220953103959015 0.08085286084589574
-0.028644799975403944 -0.006008052690268655 0.11113278760858772
0.003417751552863408 -0.03228401785850628 0.08140532382774654
0.013578290856642127 -0.030769611566360874 0.09722730371989151
0.009461565755281828 -0.02803518679240006 0.10830893726043637
0.028267401928133824 -0.030743737532583852 0.099847092858735
0.05536014219856903 -0.0005330067631122107 0.10986716363733963
0.036489897799783656 -0.03336560869990874 0.05288502847340988
-0.002979418531851197 -0.03363333882144457 0.02718647261471328
0.07754675246078149 -0.032076278000494673 0.07956476464443693
0.008087813489174022 -0.027963897371830596 0.1082775102165915
0.013585459486982965 -0.030634727737493962 0.0987087487063664
0.04351307653258166 -0.008573223189162215 0.10969189779340784
0.028166024194246443 0.022543818555377126 0.10928587144184611
0.023187148719622026 -0.03301255894401479 0.06373380580835723
0.02439118257037799 -0.03307740566818647 0.06361772011528548
-0.02724288418781052 -0.00431037664853727 0.11105231755744038
0.03353346952071668 -0.03367548971059596 0.03138157091445883
0.04791594627133586 -0.03319480410067296 0.038272622412048714
0.04562732440388444 -0.03301496967569806 0.07080050911235132
0.061514283738598914 -0.032749241846988866 0.04615168347696916
0.06378117100679062 -0.032704232157937704 0.04523825727223384
-0.007869434829817796 0.008566674175391887 0.1108287357442648
0.007181460553529746 -0.029273297223434136 0.10631931152904611
0.05781885157863849 -0.032952161943930094 0.04102665329669122
0.06108014072451054 -0.032641174887529316 0.022234165192659607
0.06079838194381412 -0.03265048223783522 0.02257850148443061
-0.017782749568765188 -0.02861745894408141 0.10643009415373214
0.06392842676373157 -0.031011805751208366 0.104189997307116
0.07796916678812475 -0.031700963969680536 0.044201331199633286
0.0037678174285582272 -0.03245490487264989 0.0774295684187034
0.003661644629353913 -0.027094684463277962 0.10872006353201309
0.049636450204539107 -0.005591346544700951 0.11049183318479398
0.059403328771861816 -0.032982428501892515 0.07195576767302013
0.056049222553995116 -0.0328253247380534 0.043021921021718715
0.03692107552520634 0.009245327790278174 0.11036398528719586
