0.08196259364103808 -0.0027987761653301816 -0.0474901808819922
0.08205357780849044 -0.004731304616138375 -0.048876457761511345
0.08193733967128686 -0.005503115180033932 -0.045607325911888597
0.08213580515324709 0.010448063455998274 -0.04380567906386742
0.08225103392677545 0.00656759634124741 -0.02964941864528302
0.08123880874848484 -0.018036287864477727 -0.05868058449161651
0.08225406143501596 0.004309756223717785 -0.04711810963199205
0.08211453547445655 0.006665177966629684 -0.039714541735723634
0.08176620837680827 -0.008778085349812044 -0.06240677657501739
0.08198230857827861 -6.503364444455023e-05 -0.045374045111350306
0.08206681766193094 0.012517683741842225 -0.03979376541480191
0.08121577037853134 -0.019903382531030918 -0.05931835553867342
0.08210406798178277 0.01050143542205842 -0.04808560446993026
0.08177648174663478 -0.011165718813451537 -0.056846094770780224
0.08209683793586109 0.010467017837583564 -0.04082251040417771
0.08139804709939705 -0.016788465030085884 -0.05757238939905002
0.08237702577733697 0.005967667065551162 -0.04216210892554231
0.08187667882907837 -0.00888230850138244 -0.04785798071353162
0.08212780086456742 0.0017193180384053302 -0.04546145815707532
0.08179272011938246 -0.009223748228301435 -0.05048841253594415
0.08151018151826116 -0.015148981503475514 -0.05342695876655135
0.08210433001672499 0.00175794631054674 -0.05915847482775004
0.08196009662316701 0.011369574886727725 -0.04213173229064439
0.08195278316818137 0.0005543192588482965 -0.054563783661399155
0.08223411216885054 0.008844474334453794 -0.04294026355819843
0.08208743548827566 -0.0006618422550988671 -0.053070198952252345
0.08204463486378835 0.00410041618578287 -0.04452214915459472
0.08161085831542654 -0.00999433211615492 -0.05988508396015067
0.08223730899657704 0.011045463264994415 -0.03319088774720752
0.08217709474793493 0.014831746219931307 -0.03949468194077955
0.08210339131410462 0.003099772047410413 -0.048753354145122024
0.08209453227124874 -0.006632239554490898 -0.05127433864505446
0.08203610011088347 -0.002234464136741495 -0.05078464710202431
0.08179992019345222 -0.010914813437883827 -0.049698073681319344
0.08203740099193985 -0.004062205982558787 -0.052184316560452595
0.08204321154991712 -0.0032189446511767007 -0.057233579794710415
0.08152277767265426 -0.01471171998841386 -0.057305547502164954
0.08186293280853225 -0.008985087578476905 -0.05397855710608143
0.08157021595095709 -0.013792771315516513 -0.059100689588817444
0.08224657078571601 0.008256755281286459 -0.029905524733189505
0.08125968523558387 -0.02149641548337393 -0.0564883379029761
0.08180091549165033 -0.011051758407209511 -0.04996249632657331
0.08157935003308939 -0.008358821908464376 -0.05859161798780391
0.08199715467331654 0.0012878278589367924 -0.04675518271249443
0.08096367734550619 -0.02234306829859198 -0.060049368370370566
0.08179619141005179 -0.005773521829337505 -0.06541396623989627
0.08227829451064078 0.0026735647703435683 -0.04330951376574427
0.08228182337548583 0.009382448602998372 -0.036091103191442
0.08226439794668075 0.010377318191081557 -0.03659325125722064
0.08194949636331819 0.0031507436759139105 -0.05040723524398627
0.08203760779980762 0.0016953491864531412 -0.04699583275945042
0.08123794266592373 -0.02132467218141363 -0.05543166219609995
0.08201420601574579 -0.006373311667763013 -0.0483525012306268
0.08198178990049387 0.012478094771727453 -0.0414991890357569
0.08235737600724244 0.006333970888422058 -0.042478245495393335
0.08068124288475254 -0.023623412253571664 -0.05790423421405863
0.08191454063647591 -0.007920145898675733 -0.057581636229477984
0.0819777380401419 -0.004630184797368256 -0.06201692791208359
0.0806968653899295 -0.023768794811471795 -0.059397502451990436
0.08092937263146735 -0.02439227603479049 -0.05438005662896669
0.08209825710218557 0.007648391973904237 -0.0365838484719853
0.08191208934842187 -0.009260740565405063 -0.052018692183246035
0.08098110645445387 -0.022758593506674744 -0.05706700518669038
0.08219046574614025 0.0055283237135705515 -0.04067809836196051
0.08144389087823227 -0.014074820712284757 -0.06484212644609817
0.08236288226245661 0.00590513339406054 -0.03524479595671002
0.08195056507597032 0.014382661729824029 -0.049407843121550915
0.08214874565608063 0.00880262140209848 -0.03223299376766951
0.08199338499810387 -0.0076028997327745925 -0.055403527235886665
0.08227422355445349 0.010848069859902222 -0.03534456170291053
0.08166924153276853 -0.014092016206425357 -0.0528920193153083
0.08212391207010974 0.01464325213535618 -0.04114733992292201
0.08144025715250786 -0.014236140246017584 -0.06062871192643237
0.08184749515660783 -0.011188087471817779 -0.047435856001737636
0.08188163553168605 -0.008300879851785174 -0.057567884351367456
0.0813656125100714 -0.016708243567522135 -0.05620784043863908
0.08207052449743264 0.007681590711228489 -0.052194267867969595
0.08219666635129719 0.007150433948433026 -0.046256619535820304
0.08181032489902039 -0.006447577663431304 -0.054016147206507444
0.08228998525631881 0.01015126822484191 -0.028441751989860393
0.08206384944186534 0.004428259810918811 -0.03932785472616799
0.08181378781090579 0.013003545016769187 -0.046976789894224685
0.08209202616204408 -0.0013604075276355812 -0.04438339663519167
0.0821299091016098 0.004221479117554673 -0.04828992677713096
0.08190192781924185 -0.00881839870506843 -0.05226742937281734
0.08164999689863897 -0.014942627296122186 -0.04998386579435303
0.08216471884681918 0.013070636393174066 -0.03253641307195895
0.08158287744178788 -0.00904101922278352 -0.058755201973276765
0.08136021153177557 -0.016753314518548335 -0.05594020809883157
0.08224909585125693 0.007427466171658724 -0.04106442866675596
0.08177468255371464 -0.012059263903730858 -0.047859407744555424
0.08196694960627988 -0.007158645984171739 -0.057693673220697295
0.08132528750694232 -0.01615156881305432 -0.06737086900662566
0.08226079357803798 0.01102162333934643 -0.03147910822633461
0.08197397455540659 -0.0025231944241498197 -0.0634482594869742
0.08167441141740626 -0.009224202894219711 -0.06640087100856953
0.08190420254617879 -0.005616251353019043 -0.05260791597941116
0.08187478386178988 -0.008873855463015015 -0.04879143645976298
0.08180617403459517 -0.0064305032846998286 -0.05390925857524703
0.08190375742082158 -0.0039431079371082 -0.06276702559867678
0.08253352952129316 0.010245497004394836 -0.029476245648255718
0.08201070132653546 -0.0015622998589780738 -0.057300236794593604
0.08203328581891679 -0.001380448498337027 -0.03776628531832846
0.08208703902876972 -0.0018765470323970552 -0.05179838678487247
0.08207974392109103 -0.005281060777107344 -0.0436102533738983
0.08202320118180578 0.0076734587807143675 -0.038413690350441065
0.08199675592195445 -0.0037055311195112934 -0.05097719703890269
0.08111961426065852 -0.02160410566043543 -0.058836495109999845
0.081910091440774 -0.004421118585696366 -0.04564598989338418
0.08209185003088518 0.0011567333320743414 -0.038338698109740554
0.08223995753792537 0.012120106726623897 -0.036297538670158176
0.08213989900327412 0.00250075932742189 -0.057274932098038175
0.08173594787017179 -0.006442938565036731 -0.05971384042372926
0.08146409742248038 -0.016735156360691644 -0.06259525125364085
0.08181965374561037 0.014291198386704942 -0.048212882966966644
0.0808957680650539 -0.017762523444650267 -0.08460127598711716
0.0735853250874716 -0.0313386780363004 -0.06624003927316932
0.08121306214124382 -0.014113297544632902 -0.08025990681369409
0.07147646977031004 -0.03150762663553556 -0.0669096774642501
0.06982256798572667 -0.03162885254274193 -0.06701712905750641
0.08107265741026741 -0.02060138732165203 -0.0691174709240048
0.08124723379750709 -0.015103114598823636 -0.07605645670235922
0.08053725157422242 -0.02479946101742378 -0.0743599107929439
0.08126328428726867 -0.01907123784301578 -0.0641989676327335
0.0805921537694556 -0.024472649432436856 -0.0708556637788671
0.08103431004782506 -0.019580470028948985 -0.07413948388286408
0.0672826741680894 -0.03191173866631872 -0.06989737539848336
0.080565847080753 -0.02420374144124069 -0.07353233201726442
0.08134611444896585 -0.015455896179416737 -0.07231004630956854
0.08065557832701023 -0.023340942824825104 -0.0718915918971871
0.0803763755522496 -0.02301660379844524 -0.08728828538500966
0.06695842173653511 -0.031921646567236305 -0.07193115251749113
0.08087521096493752 -0.01852039723431506 -0.08174148216522548
0.08158859678940447 -0.012357031494296731 -0.07398200997094914
0.06855114575694923 -0.03173819827013595 -0.0747994571269242
0.0807338801529046 -0.02325693367733015 -0.0763461636274217
0.08057067545280275 -0.02482609370824908 -0.07197388473985136
0.0810656930282829 -0.021328169887280354 -0.06684618487134592
0.08107911371344725 -0.022272599232621152 -0.06468245117296662
0.07790792785409903 -0.03088229448322422 -0.07456958704702957
0.08098122393746432 -0.018444894666641603 -0.07781657159456004
0.07347959495346813 -0.0313138923031756 -0.07152296599324345
0.07466875625918927 -0.031185373284171446 -0.07218330388412769
0.07716102142481152 -0.031052236933185103 -0.07766947534996228
0.08119503879201377 -0.01759705855880266 -0.07054242755993964
0.08077069047295946 -0.02157958238777562 -0.07294414115006426
0.08019148118002073 -0.02285052571939715 -0.08912611716705568
0.0805030938783378 -0.026004174087841916 -0.07262404186979071
0.08078533127523521 -0.01753285561671588 -0.08348160812426308
0.0689894858860285 -0.0316937870255871 -0.07429355560383935
0.08131249529122259 -0.017359151295902507 -0.07342464137199788
0.08047902567610082 -0.025805847046691525 -0.07444182914188766
0.0810018184802604 -0.019584492000179015 -0.07055608133797517
0.08121316280346892 -0.014458458660102487 -0.07656294329291256
0.08147425403899702 -0.011763160758624568 -0.07544631814978472
0.06703393618225369 -0.03183630426964384 -0.06869363905846693
0.08150191275029595 -0.012450017047465092 -0.07476725509918039
0.06722358785847446 -0.03189488409662219 -0.07309636297445049
0.07701200349421301 -0.03103090658175514 -0.07102056232066055
0.08136949869736117 -0.012183787935129746 -0.07602757453399066
0.07691827568079856 -0.03114756808695596 -0.08058761004731532
0.08111610533732963 -0.01665078362659684 -0.07971731436601845
0.08044681127310715 -0.023527643369953014 -0.08654576870394343
0.08060517528686469 -0.018236475218768637 -0.09068247844542636
0.06801744874001166 -0.03185919917149137 -0.07128604795766383
0.06713652338187863 -0.03189002089494658 -0.07437933606893748
0.080288803993837 -0.024705392395958092 -0.08846827504186908
0.08112529148443161 -0.01737145113657569 -0.07207305021772561
0.08080268462235118 -0.02113350351610307 -0.0809969068434146
0.08060560340811604 -0.020783256916855928 -0.083742852280072
0.08121091970371351 -0.019882696089669354 -0.06504840703666442
0.08066037676110162 -0.02325659271589041 -0.0748521296990014
0.0811420559597077 -0.020906395529093215 -0.062268710227408056
0.08092464364228485 -0.01537321756620174 -0.08628839860970415
0.08072457527375357 -0.01726656690065245 -0.08961680181634296
0.08092891651520832 -0.022419664397267024 -0.06585246062027941
0.07751631293524971 -0.030995217344919508 -0.07314932707484856
0.08074386330273796 -0.01975891860729478 -0.08548842778871374
0.08072827011913312 -0.01708551730761345 -0.08824324942100288
0.08099503722192486 -0.013259131116769908 -0.08974259156106307
0.0803393948439546 -0.026351335228789335 -0.08889058189035104
0.0807933351705333 -0.016335344294082097 -0.08966183515460052
0.08061683081232937 -0.024132390449677178 -0.08501198941689327
0.08109041828969722 -0.01917276791789626 -0.06978150839614711
0.08084801952026072 -0.016215804874286373 -0.08368032173826079
0.08088232581805246 -0.018875441928481097 -0.08403891854689927
0.08095623530953652 -0.014970384713295343 -0.08367189793691929
0.08090112817045234 -0.01921365281816335 -0.085051944621704
0.0685188117538579 -0.03175193129288932 -0.07402760016890475
0.08054222669647298 -0.021078793787564654 -0.08570668229628389
0.08103389834310247 -0.014004023891589923 -0.08902284807800237
0.08125851144378425 -0.016810084698457992 -0.06699149227442301
0.08063660004212148 -0.02122708899147031 -0.08278090349808824
0.08081847052862488 -0.020156864167320765 -0.0810266465565517
0.08135221847911202 -0.016227543385572998 -0.07401243248020932
0.07803285189119122 -0.030729563335431222 -0.07599665001158742
0.07415242021178096 -0.03131315795310715 -0.07453605804959082
0.08013142040081256 -0.02422614904619231 -0.08950316136016724
0.0807555537218689 -0.02180265623340906 -0.07343495089288393
0.0806928954956484 -0.017630821494278196 -0.0886320886878066
0.06614685704681428 -0.03191506531819711 -0.0742616535422205
0.08134838483820538 -0.015767476845024705 -0.07523975621816764
0.08140705606103203 -0.015074727104808294 -0.07083362222367806
0.08100921327932435 -0.01615214846716894 -0.08810591044480671
0.0687967879102357 -0.03176093202610869 -0.07574027467481645
0.08107276593236244 -0.01698484344120904 -0.07810902849210735
0.06559889768106951 -0.03205678029163627 -0.07228845040427984
0.07448174252208448 -0.031230183346547615 -0.07677824534857469
0.07002348920386467 -0.03165547555203211 -0.07556391577272145
0.06995575023407617 -0.03164226279891557 -0.0752659109009771
0.06537711825896006 -0.03204627731579884 -0.07079794027892065
0.08107840019479104 -0.021161834536276125 -0.0678017801955743
0.08155082852013959 -0.012870701820200428 -0.07163514700337027
0.08053329908675066 -0.019375706034476123 -0.0884634028397698
0.07645677425507116 -0.031117310866731546 -0.0723387478054009
0.08067090117921644 -0.022713254051051984 -0.0798684513163249
0.08122266510636195 -0.013554929549505655 -0.07994698345173532
0.08100494017368316 -0.022212401610608442 -0.06254944555308511
0.08099316585420316 -0.01456622177167534 -0.085204879002683
0.08096650114327476 -0.014873487437229993 -0.08474218168468892
0.08078703883288907 -0.018467152321240504 -0.08681131503338926
0.08053974884222276 -0.025221696565574284 -0.07121927554659083
0.07840579068036983 -0.030588532872212974 -0.07882938516415171
0.08083016105762192 -0.015299826958687368 -0.09086031562384701
0.08101639364943576 -0.017372290311916113 -0.08041536548439371
0.08095430603252962 -0.014092048556075872 -0.08800783338925496
0.0801188077980712 -0.02200259469091143 -0.09014229079407089
0.08119948574807387 -0.019590770593876046 -0.06755676476488834
0.0809750371151132 -0.018346098602030417 -0.07858716683343224
0.08131508667895249 -0.012604083489659051 -0.07670063843662075
0.08118904854998674 -0.02054747655667711 -0.06815301798966092
0.0770439648057718 -0.03109755872094972 -0.07572192139556161
0.08072818946934493 -0.02372294972456897 -0.07603912748131758
0.0806195737428257 -0.02420747830874112 -0.07780929876073002
0.08150158461156508 -0.010742096206171965 -0.0756575317212942
0.07754737172619264 -0.03097968027570404 -0.07189155553009471
0.06962312948113435 -0.031658430495084 -0.0729338223641375
0.07863920076131342 -0.0306570274587585 -0.06501967277873755
0.08049052418519108 -0.027225373986177116 -0.06334158653400307
0.07299476608639141 -0.03138189931647368 -0.0684804923376511
0.07841833445118912 -0.030736524453271727 -0.07263426158446172
0.08085257197283918 -0.022809077095636586 -0.06892869432518202
0.07840932921071406 -0.030622554687115507 -0.08122418372175068
0.08119218753943462 -0.014615391723267774 -0.08077888551224166
0.08115620616537475 -0.01865879655899424 -0.0730340409296269
0.06900493340261601 -0.031843312172659385 -0.06896445341863364
0.07829159450119967 -0.030794671282158168 -0.06460074655624229
0.06706211567098466 -0.031948244091934856 -0.07710384016626266
0.08034524895729907 -0.020948709274810302 -0.08863242129907542
0.08035377355372031 -0.02092219166617197 -0.08855098804172809
0.07910501759661767 -0.030132240310072726 -0.0719263478459311
0.0806133075237413 -0.027394296712694374 -0.06654985672606563
0.07968195290917884 -0.02967129951757533 -0.06929513118236727
0.08073164333932109 -0.017102868949949855 -0.08916884863054297
0.0809161227558269 -0.020090581698718243 -0.07556530583669059
0.07928192963817923 -0.030018848333378173 -0.06777642223431847
0.08062291076072244 -0.01831425626154396 -0.08946109229504465
0.07922355596714277 -0.03003362316499159 -0.06961905816421815
0.07889200735763335 -0.03031822277765769 -0.06725667169338673
0.0805443967932908 -0.021130199871300104 -0.08447038396686563
0.07648852202649657 -0.031102721623694752 -0.07782495491576687
0.07377201655491182 -0.031643717447682275 -0.08061560232820876
0.08067636553800457 -0.026368800074017963 -0.06804273393236729
0.07099364727336269 -0.03182500518581731 -0.07978749116992279
0.07005284019760069 -0.03178541800112206 -0.07798386145632108
0.07976928137174444 -0.029451962684022358 -0.08506613282848706
0.08090766578189837 -0.02148615078241098 -0.06991173694038597
0.0808463105234723 -0.018774207001296277 -0.08008955394566337
0.08069584549915922 -0.020953394882678087 -0.08257124413349733
0.07280314429368771 -0.03145342507534481 -0.07822378399468506
0.06565657824755401 -0.03195116344936634 -0.06905664328879121
0.06463028982768931 -0.032057207770181326 -0.07127672973532859
0.08083321686938015 -0.016325339795427274 -0.08923735355482493
0.07654338131127505 -0.0312386746420533 -0.08152482171780066
0.07353747526539886 -0.03150235175405381 -0.0792257241668405
0.08037291039470315 -0.028762079887874513 -0.08241819683572113
0.08068089647822915 -0.027663628661002398 -0.07809685698094355
0.08124628154277083 -0.019769029531504098 -0.06227287157404018
0.07531991108736133 -0.031139714013311004 -0.0663938742569454
0.08045111917030152 -0.025804378176188678 -0.08256143528568965
0.07037431667184658 -0.03163343962501389 -0.0686189174096996
0.08057996510923887 -0.02806907103245526 -0.08603186987243461
0.08096231462018096 -0.019604387962189374 -0.07216298440460908
0.08025071777229778 -0.028388644610362657 -0.07456827165875923
0.08058538530792578 -0.023113458466501764 -0.08413579466771644
0.08036443002585095 -0.02719852819373737 -0.0882983377718679
0.08069367362596713 -0.02698697467108068 -0.08511698063085665
0.07935301828645754 -0.029918363071055023 -0.07032794652824488
0.08069884522843172 -0.02758237412665121 -0.08461739436802644
0.08043966035169775 -0.02603820074689965 -0.08728380167735436
0.07884588156452954 -0.030328368865976632 -0.0817012011479651
0.08082063573250643 -0.023218446404447337 -0.06749253276326522
0.08086687697803782 -0.02253724795763473 -0.0675308771126363
0.0805617925391229 -0.02775120108486 -0.08282826494971468
0.0781873566596077 -0.030821354245911398 -0.06952451493856536
0.07559739120780798 -0.03119491247228029 -0.06820882323736772
0.08045961901671145 -0.024247388739761438 -0.08029877983862847
0.07590903934411004 -0.031103777423581825 -0.07837830215638614
0.08015504815053524 -0.029032591000440575 -0.08302170428746301
0.08030313615423879 -0.02555796846821988 -0.07989195794736739
0.08005735040199385 -0.029455333885564698 -0.06399100862668289
0.08034916113993246 -0.028301485236192886 -0.08797503927719841
0.07996270143388798 -0.02945111719378523 -0.06558272987846483
0.0793888266900531 -0.02988937682952151 -0.07063054833159346
0.08024041773120477 -0.02896986348056822 -0.0718827258041353
0.07170800253555039 -0.031485191541464994 -0.07278033670070544
0.07796111919291411 -0.030935605165695386 -0.0819566211114169
0.08060126281904606 -0.027837613648053823 -0.06762312385056651
0.08026813266131629 -0.026504799852711772 -0.08068150911772679
0.08103305970115342 -0.022219987536559814 -0.06522891208927334
0.08056621121561627 -0.022729127397865218 -0.08233362507240571
0.08057281501975662 -0.023421228025301617 -0.08304468048167532
0.07708446079997178 -0.03114497162967882 -0.08425867586740332
0.07975989834696307 -0.029453028521441486 -0.08246428078337886
0.07910972888251887 -0.03011204072686659 -0.08182483267297382
0.07745630003006046 -0.031008261803390995 -0.06871144141817823
0.07557846703173994 -0.03115216598029391 -0.07597987835269
0.0701028588277114 -0.031586498376353 -0.07135591442914532
0.08042372288855291 -0.028594847152743155 -0.06865196770526932
0.07861496417632649 -0.030453462008927748 -0.08679986172672148
0.08030980056579672 -0.026763526008572965 -0.08058467243865347
0.08056719302139437 -0.027942639547803957 -0.06504897871818717
0.07942257155970879 -0.02991161622569115 -0.06556798956209006
0.07246377823449641 -0.03144176660250526 -0.0699946874229855
0.07181344761153188 -0.03148684635262272 -0.06974115474966576
0.08017495897319063 -0.029304738420111862 -0.06668885024047098
0.08060297182319395 -0.025676938939197078 -0.08412648336536976
0.08059259736297239 -0.02553172602354889 -0.08371095421210104
0.08052146268095971 -0.024920902873262863 -0.08225722607725094
0.0804142556530677 -0.027626161672903812 -0.07634823192742603
0.08047693969866603 -0.027425764381055227 -0.07988155730457935
0.07871167060175571 -0.03035392943405848 -0.07515395853068838
0.0686955409965616 -0.03172782547364286 -0.06730679063793725
0.07604821202718301 -0.031089571549145163 -0.07920376327132012
0.08058993632315484 -0.0257038324872944 -0.08541476869645741
0.08007621400829225 -0.029100325237784483 -0.08711432624681992
0.07187725375826073 -0.03156125368299922 -0.07728800454512089
0.08034413040825877 -0.028049381329962927 -0.07517650772185558
0.07895629888038641 -0.030175410197527903 -0.07418071452142791
0.07593626915284778 -0.031170290418807357 -0.06848940079327626
0.07697952559927762 -0.031212458192381054 -0.08276216547157993
0.08040335921161304 -0.02557945828305396 -0.07888710201576428
0.08007383013790488 -0.029308506128425265 -0.07639291341027936
0.07994133191858163 -0.029309699885760786 -0.0797722814256744
0.07540211256695793 -0.03135972188392453 -0.08026749747114778
0.08049670860597045 -0.025695385092208096 -0.07383877761350277
0.07407945386574892 -0.03127231150989104 -0.07070875214656609
0.0790883849835476 -0.030103112174414404 -0.08058798228015776
0.07976490744707587 -0.02969354912766672 -0.06412618889501458
0.07998388079936702 -0.029383734337572884 -0.07183839396437793
0.08035213601934034 -0.0278937172003051 -0.07369849316735141
0.08036900226123744 -0.027640150539044665 -0.07571676307468242
0.07494287188926997 -0.031442878446167145 -0.0812257009036859
0.07274570919291035 -0.031409594288096844 -0.07401763687642647
0.0801915897421094 -0.028539732813325253 -0.08860846223140253
0.07319799067686239 -0.031335370601589134 -0.07790449837613875
0.07242637405045284 -0.031435819778852715 -0.06601186990805968
0.081292941199329 -0.016043336383379025 -0.06962810904827763
0.0812554791962595 -0.013233638893757602 -0.08313697592887682
0.08048027353059577 -0.026003214716634165 -0.07509108780172578
0.08128392491114358 -0.013154703245396599 -0.07734546703803101
0.07902611465829466 -0.030132570686895725 -0.07753371267674569
0.08117808107599167 -0.016898594705734453 -0.07180717886797151
0.07920679499292248 -0.02995686099610856 -0.0844107224134493
0.07348055489905705 -0.03131868415661643 -0.07734648677231648
0.07155324461221167 -0.031705900724735524 -0.07851742199716218
0.08019761552000912 -0.02458779296512774 -0.08935923542761828
0.07129305185880436 -0.03156629764530825 -0.07502497033752749
0.08024726148773105 -0.02664645130791664 -0.09049991552334086
0.08028071259428121 -0.025862145202014387 -0.08965473190806925
0.07768069578375449 -0.030932128378616364 -0.08470153997580279
0.07330088736616844 -0.03167412568238566 -0.07983007867305317
0.07095973262378039 -0.03152930405303765 -0.06958517980725344
0.06592841149960854 -0.03200995626092037 -0.07256262928931743
0.08115064114384686 -0.014364444174273308 -0.0818737697748608
0.08083910794387987 -0.014982219206831314 -0.09111703906200154
0.08068786791594217 -0.024146477956924848 -0.06988014329032954
0.08073878279227878 -0.024983279944591784 -0.06750757149041346
0.07303058443018254 -0.031456232842700944 -0.07658373895175963
0.06586655421893828 -0.03201358165704485 -0.07129239487000233
0.08078501019241993 -0.02166188223229491 -0.07573652166947598
0.08102043430594996 -0.019251428819256677 -0.0729826900646363
0.0785555614148892 -0.030491727156211304 -0.08468030747710517
0.08084900940827992 -0.019542091684363147 -0.08247978937172125
0.08061277533428929 -0.025997512672677598 -0.06917756818377843
0.08121316604278392 -0.019726038830949928 -0.06553683846332124
0.08057175537422379 -0.025534435258898692 -0.0754455192762593
0.07268984358057817 -0.03139168530354381 -0.06675865743297257
0.08057114809139004 -0.024957928965163613 -0.07693331285894764
0.07495447203397874 -0.031212001813847375 -0.06965601873170463
0.07726334603141002 -0.031092032658944738 -0.08676663954417863
0.07418786806753651 -0.031260527933000284 -0.07299049514225817
0.0754378848036228 -0.031227887285955915 -0.07338226376559114
0.08121472695490857 -0.01874064441797247 -0.06812520294940236
0.08161816243189325 -0.012118996574083279 -0.0731773077948772
0.08094256973126385 -0.02212419413176276 -0.06915420457083685
0.08077855943322798 -0.02159568477333064 -0.08038625751720194
0.08066483318138655 -0.020504176844183417 -0.07932020103592122
0.08068985039023287 -0.02536537644296108 -0.0650751355105667
0.08132859911429677 -0.013599846216635361 -0.07515257895493652
0.08125707624756107 -0.01696382708166814 -0.06949258037221778
0.08131553443233654 -0.014220870551488827 -0.07384946618522636
0.08073805636510215 -0.02472193430360602 -0.06763820836300437
0.08086753487031698 -0.019472500867748765 -0.07725197709424965
0.08107645514591574 -0.019345613352708166 -0.07458857629886548
0.08080180138880111 -0.02454935660837946 -0.06401954037212158
0.08032914051418694 -0.021944609913102358 -0.08826577631436866
0.07455155053353092 -0.03126555615256439 -0.06869686730745274
0.07687889978171474 -0.031086368780044893 -0.06600187238530747
0.08082343467345357 -0.022615612773899025 -0.07004311526453552
0.07563230288655702 -0.031124686808992517 -0.06710904397357134
0.08117603702080921 -0.017065138698913525 -0.07728871432687742
0.07518818642798772 -0.03123171703012156 -0.07438062651469306
0.0806183417734161 -0.021353493012889406 -0.08284736048215845
0.07471956448243737 -0.031179004846575417 -0.06486197185948966
0.08058997518973018 -0.02342501559085851 -0.07919678609097619
0.081123179797743 -0.015234726119481285 -0.07777621955397088
0.08124910069379729 -0.019155262078290464 -0.06591588630282966
0.08097866115289123 -0.016779526769218116 -0.08149438143957036
0.06859437620820294 -0.031854084937510616 -0.07855834255923345
0.08089312898951789 -0.018363455696375836 -0.08410614892663129
0.028019969583773972 -0.021819330559381164 -0.10967215943029686
0.03938995095725837 -0.01707810265205042 -0.1100924055093983
0.037169992787638904 -0.024740821633624416 -0.10957543714521469
0.036606068382006716 -0.018406144421469643 -0.10994288333403605
0.041638661710391364 -0.024955508237905082 -0.10976040971973339
0.03711043439488131 -0.02401017245599659 -0.10961702211657032
0.039317912719642495 -0.017942131308887777 -0.10991669332602418
0.026364231242761466 -0.02445252707805068 -0.10939802901652465
0.04202457898402767 -0.022942729772522888 -0.10969379828522346
0.02925305160787211 -0.021016049051871558 -0.10970469638681396
0.0317244118001055 -0.029295934232903845 -0.10861862342930811
0.028778443742486004 -0.023924450361310724 -0.10949704804125601
0.040332641385404044 -0.019637389470310636 -0.10981861400560775
0.04544918655449307 -0.009966314227385272 -0.11004024134229702
0.034702263918294673 -0.02624428874088825 -0.1093131458194748
0.0465300843438681 -0.011607806521669557 -0.10993238216306706
0.03078900976894331 -0.02444114865302434 -0.10944011265022804
0.03765068955622493 -0.025030677583307515 -0.10938890178921358
0.037905264158326464 -0.013699854696440835 -0.11020117352363544
0.02688014820774504 -0.026565981203458194 -0.10912784337441711
0.032098979044047724 -0.021912680983412473 -0.10967921883366603
0.028961474653905812 -0.02548463985761972 -0.1093302069767021
0.028629524138029785 -0.023314299180061396 -0.10957097769064245
0.034006107745542476 -0.02337604602753223 -0.10956351063892958
0.02664357426339908 -0.022662077620510257 -0.10957574131003528
0.046535375198036 -0.010828673573261314 -0.1099291644824529
0.039143967611130856 -0.0104749953999088 -0.11003710799938742
0.031946258304150564 -0.02758106651675596 -0.10908274065804206
0.02743737719382336 -0.02609148524160267 -0.10924769101828198
0.03841993945853352 -0.02916292784563394 -0.1088285319570671
0.03490540844594836 -0.02409519443304981 -0.10964690876147153
0.03898877529813792 -0.012413569448249446 -0.11018045887394559
0.024042017656114432 -0.026631411322504756 -0.10906974774034642
0.030926647289584695 -0.02021149303234833 -0.10973184759193412
0.030464809154383238 -0.018358788450492304 -0.10981837043784326
0.03156802101767729 -0.02187755120415573 -0.10963362620196423
0.025479158017286944 -0.02591262099993293 -0.10927071619196684
0.02370377302589962 -0.027615967252193306 -0.10887985849558399
0.0283055214388937 -0.025125143570828026 -0.10938116366910472
0.02929400457272849 -0.026938063414918525 -0.10918149805865963
0.024954811121021804 -0.02766416270350163 -0.10896431954901639
0.04834634111311656 -0.014539147065863404 -0.11006851570232425
0.04384014252850839 -0.022469051741332083 -0.10958684043720608
0.029649522370223995 -0.026303579030632133 -0.10924256717325823
0.04552866378391408 -0.01831271926611652 -0.10985127899728929
0.026522814103058345 -0.028442677871854127 -0.1087795810525748
0.029703023562212785 -0.019094924788170865 -0.10984370393123985
0.04143711604596756 -0.029497262342188895 -0.10876040404613604
0.027835018966030477 -0.0301328387817332 -0.10797605672766186
0.028135749848641166 -0.019023030062715728 -0.10999330677230988
0.030717770614180483 -0.025235281927782308 -0.10934361016033536
0.033991196357073934 -0.025515903291971568 -0.10957304705076414
0.03458288348058864 -0.03029639151221937 -0.10806684739694547
0.025470214913108566 -0.024876180681609072 -0.10937933606252308
0.04261064025246981 -0.02438939125219168 -0.10977229163461134
0.03578771059194813 -0.029355298953850938 -0.10873881934869148
0.02808459600093742 -0.028287775225552016 -0.10886927223151219
0.02870794517350035 -0.028557886858848372 -0.10879161485448963
0.02378209493912661 -0.029863870283482113 -0.10810917882944332
0.03918369711505798 -0.025503513380604383 -0.10931893964070315
0.03315539007063333 -0.027154513491506247 -0.1091585652215639
0.03325878532430756 -0.025484847493488574 -0.10941877717972767
0.0351464939164272 -0.022247697100684177 -0.10959269404356324
0.036202451973211605 -0.02150587306513413 -0.10979138878541607
0.033643925015726106 -0.028237950191808345 -0.10898035227244554
0.0346679489878437 -0.026946331844977058 -0.10912643184418624
0.026373256813801906 -0.028703624991155884 -0.10868403537894045
0.03583037018697256 -0.019979662717720788 -0.10973347642985673
0.03700135615749948 -0.02317960245142468 -0.10952059208889788
0.036792206150365395 -0.024576453061438186 -0.10959262620849819
0.03832063597853251 -0.026237963157680663 -0.10933928502580056
0.03717791856581758 -0.01934561657501261 -0.10975044672822441
0.03639489296075252 -0.028173255275523695 -0.10909303895633002
0.03820067449355445 -0.02532606468066921 -0.10926270037666097
0.03829249985521915 -0.020749459596753565 -0.10971847064902959
0.03687987580393107 -0.02934205607959003 -0.10874881947210874
0.03633720047600589 -0.01886608366721134 -0.10979355014652534
0.03996401384444536 -0.027143803978793596 -0.10918654898331145
0.04017916574203853 -0.025165795822854616 -0.1094020507100298
0.040341844139438254 -0.024534825554034606 -0.10936559689149643
0.03710341226562582 -0.017237062764675404 -0.11003843497152471
0.03822780449952952 -0.015675766072834992 -0.10998719664295627
0.04108791617747534 -0.02140294488821759 -0.10966676808637356
0.03967459717337734 -0.029498374353696795 -0.10877646974293938
0.048545399380238795 -0.009998415781314308 -0.11003178335823127
0.04979785274246478 -0.011703546746654823 -0.10993053611904939
0.03857497401475931 -0.016537690119419822 -0.11008657789887183
0.041236565956601134 -0.01919646294455126 -0.10976436002032737
0.042066874375762196 -0.020508836095142383 -0.10969443215346358
0.05075715162481989 -0.012729467105049116 -0.10998120806480086
0.04965013071488729 -0.012943769050467105 -0.11009578330992896
0.04364382575091674 -0.021989204300430172 -0.10961624153856792
0.044384305299319575 -0.02165825979272339 -0.10961552568220316
0.04415742230350077 -0.01952172380673763 -0.10984563273432305
0.03829344146936087 -0.013049977660097474 -0.1101606220919743
0.04558895962948229 -0.02108510337419324 -0.10973583254715448
0.04554489205018246 -0.019837158737949407 -0.10972242137115809
0.046584131079344324 -0.0220988355351499 -0.10968629609232645
0.03879973410426492 -0.011612503245124332 -0.11000884471129085
0.04702428035043232 -0.0123990900822972 -0.11006479652010512
0.04623278332153674 -0.021114733590452392 -0.10979062653573261
0.026251200709508052 -0.02975906793448784 -0.10825211839300648
0.041790340174689064 -0.011504987947042087 -0.11006557884146699
0.03537641647862116 -0.01237339846974773 -0.1100984439414244
0.04106350578306761 -0.009555692413707885 -0.11018961164875028
0.04318470042303933 -0.01058937456404594 -0.11004030079133668
0.023888088343910284 -0.02635416359588981 -0.10911852927011714
0.0316068121450525 -0.02014673982600758 -0.10979143736798588
0.02490902453300751 -0.0211934670237575 -0.10965083514220109
0.04623903353946756 -0.012587654825685411 -0.10999327812393607
0.04782358686420202 -0.011021356550296676 -0.11005010454239843
0.05052642918353236 -0.011016004143980419 -0.10996337416041774
0.04806370834225957 -0.013411547723637262 -0.11018534744711089
0.0486331365411528 -0.012540802350061789 -0.11007058656589841
0.030185516946342 -0.020659139044937536 -0.10986196525181141
0.03680075881679461 -0.025528555879253186 -0.10931314319372154
0.05160332649477667 -0.012869120398339814 -0.11000813098377092
0.045093784561271395 -0.010692069065221561 -0.1100433825832339
0.050714489673143806 -0.013613483142546977 -0.11003057499751125
0.0357095191065536 -0.029805976115084187 -0.10846937796422963
0.04805810729887081 -0.015044048110780844 -0.11005541516574965
0.0279730188557719 -0.023201615244005526 -0.10955979291851486
0.025963860217055216 -0.030536142053792473 -0.10759775660563783
0.039853883152862306 -0.016165546437426983 -0.11007865852288191
0.027562904154962663 -0.025451057462400666 -0.10933576649756309
0.031246038533479993 -0.026390684448441157 -0.10918208623216027
0.045176204404159016 -0.024587619209582096 -0.10952613328896599
0.041486357765186124 -0.025392908788479343 -0.10967752223939833
0.032265944122317244 -0.030319807092789745 -0.10767124001330308
0.03050086135223761 -0.030644535823922223 -0.10725584712710304
0.03071405206616574 -0.03030273610697543 -0.10765600891676609
0.023615865601100523 -0.02934251085803576 -0.10836938108483246
0.03080280523708683 -0.019360770300325632 -0.10976521603670483
0.045657596181706867 -0.022395682924986622 -0.10961982675338737
0.04712258039852635 -0.01906504136446983 -0.10971094253001863
0.040158782720424745 -0.015430991303920477 -0.11007408648066072
0.04552934059538899 -0.015326479999807865 -0.10990608916856412
0.04640656725620766 -0.023675859647373457 -0.10958329314121226
0.04649130054121485 -0.01301530944659714 -0.11002546192943471
0.043220038009876977 -0.015893152400489663 -0.10989288826150627
0.04893706712858388 -0.015335159388059957 -0.11003358692094531
0.033095573336880416 -0.03005718199841963 -0.10810476909312844
0.04967336787040897 -0.016801220779689492 -0.11006407138325958
0.04313298770448155 -0.027834795987342648 -0.10911496829967957
0.04189287422559068 -0.02641815925621529 -0.10950002149103122
0.045861494477621965 -0.014535279733516926 -0.10997958503807283
0.04447899852158951 -0.023811234147436935 -0.1095736157180177
0.04642395658944592 -0.016691156008331542 -0.11000691791525187
0.04464899585889731 -0.013523256678389021 -0.11012725602488804
0.041115451817768475 -0.014364779821253018 -0.11010201944226036
0.04369074678827047 -0.014940840606308152 -0.10992213071496855
0.04316246042166168 -0.013270614745095461 -0.11018210539452482
0.02696474593594425 -0.019922692560777756 -0.10970839958436937
0.04776936835638538 -0.012434251503135147 -0.11000274314143767
0.02873918740326661 -0.02285565756728842 -0.10961450578635093
0.043196946887450266 -0.013631749141895503 -0.11009814202911634
0.026448725076018528 -0.030117854303389747 -0.10801782482120988
0.04374310936266844 -0.01582824526525118 -0.10989479069613954
0.023756295753934717 -0.024598860413733804 -0.10934104404953461
0.02678384877733235 -0.017567252375486276 -0.10990753007386475
0.02718564217618041 -0.018424194344497373 -0.10990732181466299
0.03660548896241053 -0.01419500954008263 -0.11015900943739293
0.04193675958576012 -0.015083434647933675 -0.11017866068594864
0.052700624494847706 -0.012266009447789212 -0.1099871740396019
0.03741871532021238 -0.021812596156955515 -0.10966863926778182
0.029074866795070743 -0.016179969329142466 -0.10993657067292606
0.03502643917953349 -0.01562269596592134 -0.10999607078248708
0.03335500610759228 -0.017418118245752356 -0.10988686964671902
0.032050470165398116 -0.01683598069990911 -0.10994629775075916
0.03399358685803195 -0.01571448851329496 -0.11007734236538544
0.033152221215276376 -0.018154966415205927 -0.10984760766946723
0.040367113659234066 -0.023603256151189855 -0.10935322222638062
0.034096376656982674 -0.012183778176728699 -0.11019114345821344
0.037286422033638335 -0.013287281932742949 -0.11020670966087083
0.042723672373524535 -0.029573373246752892 -0.10869021190982132
0.04278871032928633 -0.015778121931554923 -0.11001530365402401
0.04188466782373388 -0.014323301461796181 -0.11010914830856466
0.041710330240968596 -0.013840317575136972 -0.11006642587164565
0.04228118812436224 -0.025856390549602454 -0.10984274410087638
0.03402465629461953 -0.02059243561518774 -0.10976781012544343
0.04273767892887798 -0.02847494730499152 -0.10899068779216538
0.03303536032921122 -0.021544600021359203 -0.10977756090452143
0.025886389796051755 -0.018897205818842713 -0.10985464478206784
0.0323852025893048 -0.01982910592207089 -0.10979135628911557
0.029079885254711862 -0.017497583051975053 -0.10986758898209562
0.04677776526384811 -0.023006620132543884 -0.10969686028609699
0.04847570423976179 -0.01778363329212067 -0.11001363151972661
0.03417555573398282 -0.0178482822550704 -0.1098897277034393
0.049224551084872975 -0.01574393559755846 -0.11003857834769123
0.033577274431586895 -0.016589081445946084 -0.10996395808099224
0.04560178522273375 -0.024753787753369585 -0.10950486306147994
0.030584993633298356 -0.01462802906430866 -0.11035090776466006
0.03058350425640541 -0.014084932960005682 -0.1103850945112034
0.04238520692316083 -0.012576403835892282 -0.11016163483102044
0.03426962984230827 -0.01512621612297652 -0.11019707702311822
0.03503288570802911 -0.013831898404368229 -0.1102252548638229
0.04612263993054738 -0.015722463005836365 -0.1099774116920394
0.04556436114201938 -0.02404251863013926 -0.10955633031072201
0.046297685906994956 -0.02334522226998513 -0.10960286854140994
0.04950931498668345 -0.014191837718685367 -0.11000455095277022
0.03980138214053842 -0.017766517391943955 -0.10994446833142671
0.031885308682756276 -0.019668606408586465 -0.10983030752090167
0.03869141176858715 -0.03329836214920306 -0.08200329438262766
0.040593668543520686 -0.032678380923027876 -0.0913148774068298
0.04137127295026913 -0.0329162716511421 -0.08761945378493197
0.04243548419792482 -0.03260445072577807 -0.0923053300799645
0.046585037197657844 -0.03288968746619215 -0.08386958067997913
0.046718732184474365 -0.032881560648255065 -0.08486750108905913
0.0335058194322876 -0.033012524643718615 -0.08934422923360973
0.03091063090293735 -0.033189720412395145 -0.0836467527430229
0.032465921606257775 -0.03325735967516269 -0.08429978205397617
0.04342023941060895 -0.032821660285313706 -0.08777973921471048
0.039465230691450276 -0.033183325017237114 -0.0820159013528555
0.03796608543521669 -0.03302994186302101 -0.08743498326130494
0.03920527301461518 -0.03288990155587461 -0.08835199203782773
0.04252675843734694 -0.032596699693095504 -0.09310655269934708
0.0335664440833747 -0.03272517647798333 -0.09320219359800694
0.03552218589547299 -0.03258298377109374 -0.09530517432710045
0.04227308817184623 -0.03083276653215837 -0.10579371944722499
0.03681939975578306 -0.032435657031908136 -0.09609400520506456
0.042590943054818836 -0.032663384514288824 -0.09106555159742784
0.04362961189159684 -0.032693702168909246 -0.09152332634546134
0.038884424700288626 -0.03227192711719516 -0.09679940173922806
0.03276222858988482 -0.032002261345492236 -0.09979428551230297
0.03159091934204472 -0.03198979992004198 -0.09989039965756183
0.04201295365717304 -0.03267656409963133 -0.09034781694055162
0.03738708168853441 -0.03209151646087648 -0.09852762583111785
0.0418248312851081 -0.030383365575275188 -0.107891879726846
0.03627423650020062 -0.03194955071349597 -0.09994496767699888
0.03431401614126391 -0.03268522887372355 -0.09387211293808206
0.034379601092078375 -0.032668616110003976 -0.0940696971663922
0.03293851206515355 -0.0332633926785675 -0.08322557481346882
0.04168288396669681 -0.03121169791799306 -0.10404467081955676
0.04141602162488085 -0.030668185324900545 -0.10724527153362914
0.04233429064216821 -0.03239289783106576 -0.0956909645570156
0.030217633993220888 -0.03171315751762055 -0.10159178388419558
0.040600116752157384 -0.031239716840708042 -0.10431623093706548
0.03298504461665383 -0.03185753030728358 -0.10097673104281489
0.037083699548608164 -0.0319373984240655 -0.09994087846096594
0.033659608543429795 -0.0332403751906058 -0.08361997476429456
0.04751255123979926 -0.032917914143375984 -0.08234392228434484
0.033036899950746476 -0.03159698351212345 -0.10207124579030674
0.035764287197589846 -0.031708632864821375 -0.1012492868179161
0.0365103084971194 -0.03229397471979282 -0.09707858887528237
0.034206847300748855 -0.031064477812213866 -0.10544962149396697
0.034255022031296316 -0.032083832798839335 -0.09907214257940636
0.03652102606745464 -0.033145249973789905 -0.08677723370778453
0.03487023550447652 -0.03312244309420025 -0.08823622078937177
0.03962533496800412 -0.032876185889311016 -0.08867024215304624
0.04311640844176159 -0.032724381677047644 -0.09042298206460572
0.03357804399566073 -0.03096260845974239 -0.10633131609806586
0.03483457502637691 -0.03162381029455204 -0.101872638869502
0.03489707777367879 -0.03326592994468788 -0.08300157109655175
0.03768234938407673 -0.03180444896552047 -0.10072798592842633
0.03347897173374434 -0.032228614366749585 -0.09746872070513454
0.03359192630202601 -0.03219372275709424 -0.09784824384524463
0.04613808841118194 -0.03268533844808086 -0.09049070247832726
0.038080559592945463 -0.031592863193888626 -0.10212971410561078
0.03820506046248826 -0.030844590085573085 -0.10633360090120902
0.031212016733991804 -0.0316911732125259 -0.10175682038119194
0.0442529439496208 -0.0330348869880693 -0.08277943411223286
0.044916861116200885 -0.03296318074932341 -0.08336441798649247
0.03469311192494439 -0.03329220607256097 -0.0825191965812164
0.03702307306185237 -0.032133131896903804 -0.09810944348152162
0.034591829990512794 -0.03306032380963156 -0.08939130381634172
0.03335607159838849 -0.03309236282131268 -0.08788124244820388
0.03792717637653197 -0.0332489158480256 -0.08257382102973647
0.03234777119319376 -0.031061087650730925 -0.10532819967893287
0.03427612780362662 -0.03339429063426618 -0.08096618661938546
0.033692971992547276 -0.03332567466274789 -0.08209810369704307
0.03813284554787785 -0.0327228127595567 -0.09294528694544742
0.04123644448253968 -0.03325081887850852 -0.07990685190545842
0.041933622582112355 -0.03318119173957731 -0.08137573429203121
0.038594555744971865 -0.03351914095447661 -0.08067977784261349
0.035974544068526966 -0.03323008946406682 -0.08489113596345998
0.040630710915791006 -0.03311392512797951 -0.08487258922058563
0.03935002720699246 -0.03298995401271545 -0.08658386399531395
0.04525340719287562 -0.03276595490528356 -0.0886320306065202
0.04558079680836351 -0.032761554514739076 -0.08903777173424454
0.038609712471031954 -0.0316372328079411 -0.10174500017341354
0.038803177069543456 -0.03317552284994315 -0.08372692120757158
0.038872314663212004 -0.03051915308886282 -0.10726887887280392
0.0399597669304327 -0.030705913869159815 -0.10659331401653377
0.03330483637937351 -0.0312475722242916 -0.10404236575836646
0.042820362676707746 -0.032885137392820084 -0.08581671590695109
0.04247432413290253 -0.03292580473987438 -0.08487866117538895
0.039939503172619066 -0.03272426276629202 -0.09174903983228822
0.034661698653178814 -0.03117228062538948 -0.10422985685562541
0.040595359456458716 -0.03308211860553271 -0.08276278447825583
0.0470389967334525 -0.03280836262194946 -0.08684008358175033
0.045828600409436884 -0.032815686458910844 -0.08666308481198588
0.037676014661435296 -0.030929694048348777 -0.10601444196295767
0.03649569888438275 -0.0334770111699893 -0.08049615638812817
0.04066443388026007 -0.03310610739853244 -0.08382106170731819
0.03730216279558976 -0.03288478505247888 -0.09128361981607432
0.036598366854620784 -0.0328792210526564 -0.0921911031149483
0.037080695409072446 -0.03122748670554961 -0.10441330136384282
0.035457844316734224 -0.030741103851175504 -0.1074972884304124
0.04003704611058298 -0.03283692349599473 -0.08976732937240216
0.04439681648829539 -0.032788083820400396 -0.09004406329087258
0.03544401573908327 -0.030986227662642682 -0.10677451014326697
0.045918208223614934 -0.032679729032233554 -0.09100532926936644
0.03187762841140374 -0.03330763738893214 -0.08588982183746086
0.036578753273307285 -0.032621834731417186 -0.09478063129874231
0.03608461769412981 -0.032616142275021964 -0.09499451579183506
0.03518791325825751 -0.03323489608118531 -0.08488945087951244
0.036998374395361855 -0.0331426555374369 -0.08670096634058293
0.03779453012461694 -0.03155564483644719 -0.10221260945255589
0.04081410640585302 -0.031566402956050454 -0.1023145109091111
0.03879434909587784 -0.03316440984537524 -0.08456668053730976
0.038054422044183536 -0.033530514052586294 -0.0805389995472846
0.04425483914572059 -0.0328062139271477 -0.08645053207614836
0.04377889577923171 -0.032869549385782446 -0.08529469404171114
0.048470679898275484 -0.03296157146100267 -0.08102140491459664
0.04163856318892502 -0.03308263496441581 -0.08334820510032831
0.030932007055619458 -0.03325819362467998 -0.08481976031690303
0.04411439704359331 -0.032641707801329425 -0.09211710229632086
0.039548702652332346 -0.03245900806908209 -0.09510412722683875
0.03758436676583809 -0.03303709090937371 -0.08809337147053528
0.03864214177714865 -0.032880836148271156 -0.08995580368887722
0.03625291075277218 -0.0330329988866732 -0.08939237002903695
0.03039358374150755 -0.031405503351350166 -0.1031995768539499
0.030182476772514927 -0.031332463814323946 -0.1036099489070006
0.04280918582563777 -0.03300814478741195 -0.08358636522030179
0.04234660170350497 -0.033096271152633264 -0.08292327382911178
0.03319208313696388 -0.031552490244130545 -0.10241562832615217
0.039107206267237626 -0.03305368022233972 -0.08596955851433227
0.04648825110708636 -0.03299461598074596 -0.08044071210253233
0.045663109439562005 -0.03306556785140449 -0.07925053793111414
0.040018539708478906 -0.03272798602197416 -0.09111791757668015
0.039327578233274846 -0.031200168117041897 -0.10471815908667578
0.048431063634170234 -0.03299056527786609 -0.08004092453332799
0.04831232381252909 -0.03299652220438115 -0.07990521620410153
0.04619537305563164 -0.03284814449406368 -0.08611058233645306
0.03566499396187746 -0.032937930142681954 -0.09137654463167062
0.035514873013490274 -0.032959032230062225 -0.0910976979219073
0.03449331678705982 -0.032976637663871794 -0.09047135143121751
0.04598558396330204 -0.03291941295464275 -0.08308428733161739
0.04205251730235432 -0.03287617714017372 -0.08838774832066122
0.04436907588886363 -0.03308566938800983 -0.08118345483297214
0.04564993088257936 -0.03298966931331468 -0.08149188597142559
0.04400350266349486 -0.0327887604253885 -0.08894415223961631
0.03342723312973014 -0.033223044607286735 -0.08629959969076917
0.04016865036104114 -0.032925405959992826 -0.08714961006964107
0.043581029150818365 -0.03318825369977177 -0.07856761231301498
0.04363652199641789 -0.033169578229026817 -0.07951608615475184
