-0.00859356994821707 -0.016747951854462526 -0.0018658779785562583
-0.007714183165192212 -0.001638133617749139 -0.0049865042019057865
-0.008552720926358911 -0.013413825609954185 -0.002194159759534342
-0.004963799882042876 -0.020724955899321496 -0.007691843266358511
-0.008622950289744007 -0.016685529841628965 -0.0015965310172823127
-0.00870704807689216 -0.0168861289753851 -0.0013549370450052797
-0.008553280026075678 -0.013025502850524487 -0.002244651451591874
-0.007299766464716671 -0.002038852849067857 -0.0056013871351819015
-0.008646827557778698 -0.016665428392460685 -0.0014078017431912965
-0.008631763831514 -0.013143738541202396 -0.0018022702823740427
-0.007457060357080901 -0.0024028465290288122 -0.005368924011920713
-0.00855148577042043 -0.016447279692809465 -0.001814303127809608
-0.008531568237332454 -0.01278985596518177 -0.0023431949497086484
-0.004805077469996549 -0.020108837482765 -0.0077703192749410815
-0.008560272202356889 -0.01626805052477731 -0.0015074676318112172
-0.004737496831787122 -0.02023966318893897 -0.007832862364304647
-0.008548142101580086 -0.016066230998002556 -0.0015298140524892384
-0.008604774459967166 -0.01278502902927085 -0.0018940197729655412
-0.008707775693489 -0.01785001753945318 -0.0005452502665391494
-0.008660781837477411 -0.013230239093684325 -0.0016059821063880578
-0.008630489872534121 -0.012887380210597283 -0.001750796423624175
-0.00871956626500921 -0.017542192687549633 -0.0004118161866630598
-0.004003318284621821 -0.020352670947611957 -0.008340071179922472
-0.008680820710539007 -0.012845052629622853 -0.001268997084623644
-0.007081357052173778 -0.001226306221715467 -0.005862405451511872
-0.008717539374156608 -0.017023117300197725 -0.0008144573898490545
-0.004055799494119646 -0.02015203022338494 -0.008315527734167527
-0.008735082730694814 -0.017222416478164138 -0.00045877630294696427
-0.007267478660587041 -0.001242774610006029 -0.005587671235031283
-0.008725060739333703 -0.017153237686277037 -0.0006217681493532777
-0.007133372226603475 -0.0009688088963903766 -0.005826926474287146
-0.007058254911134537 -0.000851409686845177 -0.005958512265098555
-0.008658402463052824 -0.01264703136967714 -0.0014495244698298322
-0.003778143282704766 -0.01966679672373739 -0.008496084935995636
-0.008726774480667818 -0.017864428368104496 -2.7759950865869044e-05
-0.007164901809670322 -0.0007114706124231125 -0.005819939232944333
-0.008726342290405037 -0.017410678257986836 -5.46595158938335e-05
-0.007069832454191138 -0.00030974219698009993 -0.005907843348068947
-0.008729757052448404 -0.01763543997052263 0.00035170498370993295
-0.007506679532034993 -0.0009955868440749212 -0.005389352859137284
-0.008402780338046326 -0.011396549705410002 -0.0029071897057032043
-0.007357328966973149 -0.0012084677924397759 -0.005494544451751076
-0.008501771084649825 -0.011613939748395117 -0.0024377140624942794
-0.004617324664412131 -0.020136121978522332 -0.007908689920953865
-0.008702840659982464 -0.01692930499709523 -0.00026070613621725404
-0.007574490601648352 -0.0011242290867958466 -0.005303428171931434
-0.0075232282488830555 -0.0006379522677535002 -0.005360661543777021
-0.008735487521574372 -0.017264924222902513 -0.00024450724582076135
-0.008532694922332834 -0.01128477515137882 -0.002323167793871191
-0.00860289425592733 -0.011362171516253402 -0.0018527038313923961
-0.007345100271047756 -0.00044310832362202875 -0.00556301501384168
-0.008594856268594752 -0.011091979819109228 -0.001979881579040944
-0.007188798154151625 -0.00022016885949838438 -0.005727623798223553
-0.008504489414470108 -0.012348249824975928 -0.0024388700372307355
-0.008475429349803911 -0.012127345373630178 -0.0025697386523132163
-0.008523063292079329 -0.012135698209435344 -0.0022973146107416772
-0.004241940794637886 -0.019730396909518496 -0.008182309079221456
-0.008504152633829126 -0.011973759621415047 -0.0024115642973648915
-0.008694436354662655 -0.01679665127587264 -0.0009162896922029165
-0.008639587891694752 -0.016543019163469543 -0.0011854934938260583
-0.008571223490748755 -0.011717311310184428 -0.0019811717974265656
-0.008686879940974546 -0.016712465761248428 -0.000707379413738812
-0.008610829597642257 -0.012130710842597156 -0.0016706723636010826
-0.008609064583055843 -0.011834051355311253 -0.0016826654676965831
-0.008652579092810834 -0.016322262476510377 -0.0010093815708862592
-0.008601243939130164 -0.016107954195224608 -0.001210750085201597
-0.008678440114830016 -0.01588651317717388 -0.0009365951989326788
-0.008693422621293962 -0.013248170912185076 -0.0008863802958176596
-0.008668843759674279 -0.016732388605285645 -0.00036053597729321737
-0.008698222970640039 -0.013648992589608794 -0.00042411399415440013
-0.008697013844912192 -0.01346608395777324 -0.000722367182297567
-0.006244955408306672 -0.02291602535368079 -0.0065320066961468285
-0.0063464566544904535 -0.022589345042111363 -0.006575075575758614
-0.008694388003781481 -0.013160033064327378 -0.0010938959933421493
-0.006052617920293276 -0.022198424301198033 -0.006962715028170129
-0.006243519448437045 -0.0006518649735210312 -0.006736585949751208
-0.005884279969465854 -0.022138666914620582 -0.007160951799416792
-0.008689174632347488 -0.012753270773674722 -0.0009664862564883151
-0.008737144425852918 -0.016001216294109912 -0.0005210023509850054
-0.008720486316405748 -0.01604047346610443 -0.0007177450139567163
-0.005739407630156918 -0.0004232610722130658 -0.0070574444205727385
-0.0086868873688139 -0.012940471465867447 -0.0006207540674891503
-0.00868959853735298 -0.012794514644452587 -0.0007892309129909241
-0.008671998775595647 -0.01258489784186239 -0.0012813348844718474
-0.006407522584335469 -0.02227842618804648 -0.006477167927383394
-0.00875331601653774 -0.01563780585639045 -0.0005091413098076482
-0.005699808775999205 0.00016596764054959627 -0.0070865911484914185
-0.006622560605832719 -0.022531741980126824 -0.006182451691869614
-0.008689041320422558 -0.012587873703036273 -0.0008787120968191939
-0.00867927931122442 -0.012113827371786096 -0.0011197267868682755
-0.0066084704475574295 -0.022365447116871568 -0.00619532817927755
-0.006378602544053254 -0.022237206746268987 -0.006512820685624929
-0.006466311832955149 -0.000634300116373327 -0.006571713994258049
-0.008670438383135139 -0.018272323265979058 0.0007187797759535101
-0.00864801192843229 -0.011671345471257298 -0.0014394076477126346
-0.00868340528995404 -0.01185831080416005 -0.0011127836170789743
-0.00655170548609009 -0.022086932695350257 -0.006213947998746248
-0.006578544115525037 -0.0003685434089400898 -0.006431187891649233
-0.008660090284991494 -0.011793182632332335 -0.0013040712202967097
-0.006439011839705743 -5.419465697829401e-05 -0.006503026487895438
-0.006139189095676075 6.116451450189229e-05 -0.006751038230543641
-0.006158871746904179 -0.00016592471613466385 -0.006738111554099603
-0.008503884567780761 -0.018002026992499996 0.0014446714473944735
-0.006044863129236222 0.0002966115424316348 -0.006874192969967087
-0.006024764290383008 9.920186229820146e-05 -0.006842764072290167
-0.006452824049727832 -2.7065581725131884e-07 -0.006487834117288838
-0.005958614779187301 -0.021418283047687392 -0.006889251070794475
-0.006299866791702231 0.00024222695528132822 -0.006654152558486313
-0.008465111447554626 -0.017637331418584083 0.0015869921757641439
-0.008616384684528754 -0.01562881653955505 -0.0011486438513492836
-0.005785432144381275 -0.0213176432385834 -0.007061722668100172
-0.005621131609671757 -0.021129087618800665 -0.007173632540697377
-0.00829894736126319 -0.011353900364689067 -0.003276495533416888
-0.00828447483068807 -0.011119635626288206 -0.0033010267758275475
-0.008112061376170612 -0.01940559669700239 0.0025848119166277353
-0.006345385242660814 0.000895705829786489 -0.006813719358378175
-0.008348391465812994 -0.010924025127333252 -0.0030843238521416454
-0.0060221148468163664 0.0011373599626843022 -0.007147610133201195
-0.007989236762608468 -0.019662648594935446 0.0028055994351475614
-0.006395455798679155 -0.02155626876176825 -0.0063115501022053145
-0.006305598305461541 0.001270880594906511 -0.006819539723625804
-0.007900247371971524 -0.019645335907897882 0.003038158557765227
-0.008156692750790262 -0.010907226926683323 -0.003561009560715034
-0.006287582196351955 -0.02063020144998761 -0.006613802072822738
-0.006023146647581528 -0.020957097039626026 -0.006765284262423932
-0.008282301602272606 -0.010875526310941467 -0.0032573073724958693
-0.007732046458256292 -0.019689834385626364 0.003462658461687099
-0.007787581110942221 -0.019786134472247394 0.00323695620842866
-0.005936088765879801 0.0006322153592500548 -0.007130561389678519
-0.007971396722394013 -0.01933695639009112 0.003024395124108929
-0.006192614169901485 -0.02069413351798885 -0.006690502149104595
-0.007725108298102836 -0.01963342996742106 0.0035246531422650496
-0.008012086751708704 -0.01015517498663094 -0.0037718162253644574
-0.007743358492103255 -0.01928570995940941 0.0036247852507223246
-0.005443221147993473 0.0006436495982295101 -0.007487573981442527
-0.005541469833516256 0.0011084996307257947 -0.007460491946478864
-0.0058979586882434345 0.0011365482538115055 -0.0072458792071017995
-0.008373959962940901 -0.010853983870496638 -0.002982007230584665
-0.006977083675735959 -0.022101465695442853 -0.005651690682949576
-0.008479325543043157 -0.011072072971100968 -0.0025890368386166183
-0.008467939292286862 -0.010694254182514372 -0.0025891932110924452
-0.008686034081444222 -0.01751216301380012 0.0006528317572596327
-0.006974829599486236 -0.022440497395743254 -0.005714297041272651
-0.006825332881754057 -0.022116563424076807 -0.005861243238938876
-0.006049268718409349 0.000563761121342578 -0.007009208663840858
-0.00832059736121843 -0.01036724979571301 -0.0030157506577463064
-0.006014314026961141 0.0006917365880181449 -0.007103983957821943
-0.0067683557429268956 -0.021520434879124358 -0.005860522061743959
-0.008374632896003969 -0.01019201900965938 -0.002812594446604789
-0.008681057551527838 -0.017031366239933295 0.0002648249559190967
-0.008525588950549952 -0.011035491596732724 -0.002380409998917401
-0.006726429677046509 -0.02173557670165076 -0.005953645784184328
-0.008538579306207196 -0.010795755800036852 -0.0023055485393838823
-0.008603601988759342 -0.011025396980627725 -0.0019333093843674827
-0.00858387215730803 -0.016954177041890613 0.0007948511660500485
-0.008597622794711296 -0.016691076989183172 0.00047777298953758984
-0.006895758744658461 -0.00038250746534621445 -0.006127369208456898
-0.008608996614552904 -0.01679591161720341 0.0005381629990802917
-0.006646900011042095 -3.667114153740319e-05 -0.006312554890803964
-0.008432106525556197 -0.010093527756917804 -0.0026157587860596615
-0.008529117161018184 -0.010528970266380624 -0.0023202970205119526
-0.006923557152564452 -0.021560560152533007 -0.005622664573632748
-0.006871998736973263 0.00019032316664018174 -0.006026199565742985
-0.006842387737955401 -0.02151870961447052 -0.0057529491942582
-0.0070491514826603275 -0.021591932254304145 -0.005388264432120787
-0.006524357277466585 0.00031664659262675823 -0.0064471113447487766
-0.006520798139745777 0.0003649747573825513 -0.006462774967610963
-0.008286115796856149 -0.010119379447338088 -0.003070779256319895
-0.008224095238794776 -0.009754641023817897 -0.003235329771947803
-0.006737135635324851 0.0006348398551055112 -0.0062520917165761955
-0.00829710529530909 -0.009952945740604272 -0.003017471012559486
-0.008547895138279384 -0.017208087911561427 0.001082735070847767
-0.0071510681575864925 -0.00015639007664683424 -0.00576112222014475
-0.008497084081535627 -0.009465110582828326 -0.002451597875538632
-0.00839792340203897 -0.010066736781054568 -0.0027242190861806485
-0.006922446750763737 0.0002560982001568473 -0.0059532586227655
-0.008402991644628367 -0.00953600839812138 -0.0027172132012349675
-0.007239587449814896 0.00022702867806814584 -0.005506545193303424
-0.00648344564169835 -0.020980109145427292 -0.006258923464233741
-0.0084110417725315 -0.01690039379671254 0.0014091435282286612
-0.008379043932514369 -0.00934719305778098 -0.0028051654173207657
-0.008396875043059845 -0.016729250153709792 0.0013267310606056549
-0.006551776337338561 -0.020956350851286384 -0.0061844433563665825
-0.006537175767003499 -0.021427156755241296 -0.006134946183271662
-0.006984457616600232 0.0006950473640015359 -0.005905100375169228
-0.006505146105155334 -0.021195549786415843 -0.006184040449401797
-0.008454141056471543 -0.00898866642601791 -0.002597733427540994
-0.006589364866424887 -0.021464469572311927 -0.006071715959143132
-0.007082345232632397 0.000880924181117374 -0.0057993118659516885
-0.008546820091324219 -0.016373844236830616 0.0004824215807169072
-0.008545238561739343 -0.016545169205436406 0.0006265394601354207
-0.006672288333806789 -0.020702952290515806 -0.006181729777450331
-0.006551683591609066 -0.020472750508875936 -0.006374349793667485
-0.006582143449592771 0.0008526602913544644 -0.0064947246722090145
-0.008431156571553381 -0.016125860121046054 0.0008217800051143128
-0.006881159594007538 -0.02100064856800665 -0.005804809374457373
-0.0067679141994579 0.0008556546662658964 -0.00624192891382294
-0.007006902342157623 -0.02068233681239861 -0.0058481421931609965
-0.006671785958856443 0.0010446847082465213 -0.006379890443694412
-0.0070149617272680185 -0.021008348395908417 -0.005662053729935056
-0.007766186617846137 -0.009022675190653452 -0.004427020153971134
-0.007737990766659989 -0.009234442983703232 -0.004443164942342398
-0.006280074978886997 0.0016497062473604753 -0.006735805379755485
-0.006832468421621485 -0.020484839400121066 -0.006056373817503124
-0.007822183248079765 -0.009439253862024457 -0.004243806006157242
-0.006878299878960105 -0.02033828412667442 -0.00597587549586757
-0.007724157994462706 -0.00878251310257097 -0.004584630029919592
-0.00696244021110428 0.0014764178484326144 -0.006005613532550297
-0.007645938593769755 -0.008599184908162784 -0.004791554622794919
-0.007857272280433265 -0.00856655220327089 -0.004412339617627107
-0.005853328568819813 -0.02309458110314521 -0.006837019135496208
-0.0070719988193284 0.0011013864137311906 -0.005847103423185335
-0.00586690153413701 -0.022692690738022 -0.006976039386400997
-0.007889829184249821 -0.008645637606660973 -0.0043012740525322415
-0.007966554963529208 -0.008444903310696963 -0.00416907541668406
-0.006723294601737602 0.0014676414469466771 -0.006267744608130658
-0.008008267453526487 -0.008599468405523737 -0.003956106768213854
-0.008017937434474685 -0.00836100571574882 -0.003983811796723415
-0.005420646403898675 -0.021276953940286406 -0.007379145215418519
-0.0077777540577065474 -0.00808907108657712 -0.004683597162127411
-0.007723677285422606 -0.008069404875811502 -0.004787137733978448
-0.0074248520439544555 -0.0074993805946251095 -0.005169333075412433
-0.007553189804017193 -0.007491834263203103 -0.0049000330125990865
-0.007889022134471187 -0.00821008704533644 -0.004451087683898389
-0.00781354373749258 -0.007928830127718289 -0.004576748824452711
-0.00567006074808918 -0.020755229637151304 -0.007159778598065202
-0.007920416417706145 -0.00768574580753996 -0.004235236913574313
-0.005469492593115395 -0.02050709537424428 -0.007335974181199011
-0.00771566945994962 -0.007561601394309447 -0.004615819656648899
-0.0076191947709571784 -0.007366541473425034 -0.004720118568897182
-0.007835030966026505 -0.00736551622445657 -0.004326066143688464
-0.00771718166493783 -0.007170220409233873 -0.0044914152307154705
-0.005337659701450971 -0.02024689356531889 -0.007408933672447132
-0.007987544472440372 -0.0009575415386700144 -0.004755180510928877
-0.008304207148785714 -0.008430324830518957 -0.0030226205885060327
-0.007873805031342499 -0.001537077708483361 -0.004755283623119316
-0.008428502515363102 -0.008705318193059822 -0.0026666514113109726
-0.0025509620289056096 -0.019866069279813086 -0.009070828671172159
-0.006014978104174324 -0.0204692223678375 -0.006929793467541872
-0.008319798107909998 -0.008386152205503069 -0.00297444311223127
-0.0022927768586046148 -0.019940631139083276 -0.009109593604010643
-0.00819194382209877 -0.008188393572794174 -0.0033202191179266616
-0.002379357604617657 -0.019590101840122547 -0.009113275534896763
-0.0022690720592910925 -0.01960010407649636 -0.009128482842261185
-0.008183805098556637 -0.0017385966301568861 -0.004106041375928145
-0.0023552145102103813 -0.01923899719314965 -0.00916679805980242
-0.002087101204700326 -0.01935380294231532 -0.009167819384597539
-0.008280267426969223 -0.007944024923509038 -0.0029883438514279534
-0.005651253218709089 -0.020083992471620165 -0.007146670478273512
-0.00818975245814205 -0.0014081964475101216 -0.004160086822487811
-0.008032987495517572 -0.007842162188205845 -0.003911800326782514
-0.008042202289799408 -0.0008916937819603499 -0.004605044748832867
-0.005453402953378374 -0.01978974601595342 -0.007241575652779045
-0.005853498341555276 -0.019838687016119943 -0.00691439944595029
-0.008132988093771958 -0.001182151935702013 -0.00437777122691417
-0.008063105711042086 -0.007604987497573658 -0.003636674266690262
-0.005712689656408433 -0.019744817017937615 -0.0070103866097324975
-0.0031564110184506724 -0.019373454743798854 -0.008778509687085965
-0.00787391788294081 -0.006983763777282077 -0.0041107073498258175
-0.00800632992751888 -0.00736460870412956 -0.003859283857565242
-0.0031306088747174473 -0.01915282631848842 -0.008765821993534102
-0.002876698450534285 -0.019180146786997188 -0.008905353718809348
-0.008022246831520169 -0.007023780967879714 -0.0035717494097048013
-0.008064565430329854 -0.007092876623072117 -0.0031931820476828183
-0.008047510570506332 -0.0068621671096104064 -0.003278975045299816
-0.005077159924696129 -0.01960693189098397 -0.0075043577803614505
-0.002895825839951591 -0.01904669587137306 -0.00887585009473695
-0.005122504775845799 -0.01945315295390877 -0.007447998196543484
-0.00783588962918651 -0.0009254606269051046 -0.005015258143150663
-0.00854522747097934 -0.009445864034315698 -0.002312771748356331
-0.007831581915307967 -0.00044877133903349734 -0.004795042611437447
-0.005048490906658409 -0.019193254623882793 -0.007534885163180439
-0.002399220137980043 -0.018877469513737255 -0.009196473592750836
-0.007635032159605725 -0.00020108416601182847 -0.005065502583312494
-0.008684957638107492 -0.009654227385063574 -0.0017912113697260684
-0.008616051823237991 -0.009471405177069282 -0.0021005534253111615
-0.007746569112578029 -0.000276631276852693 -0.004867325161047363
-0.008549441210500398 -0.008815764699400711 -0.0023235130198513017
-0.007597823409015749 6.474009436374929e-06 -0.0050462522577478085
-0.008604504800404167 -0.008960989415487583 -0.0021520675834969466
-0.005551626667082957 -0.019063050901533988 -0.00717446082183823
-0.007814293795045335 0.00013054183714396206 -0.004440549046981298
-0.0055319992407139775 -0.018783049494376577 -0.007270291779064527
-0.00783729075509801 5.3129735138276024e-05 -0.0043951006486834514
-0.005310053812318629 -0.01891118972115845 -0.00742492152905158
-0.0019457574767022916 -0.018928761686609293 -0.009230529813317618
-0.005518379690061154 -0.01887973180864783 -0.007257805047690465
-0.008715736364598622 -0.009360955410846696 -0.001514660385763358
-0.008419269208639852 -0.0014620261998929407 -0.003596305573287178
-0.0086463387834309 -0.008643899665268349 -0.001934396377319163
-0.008327573301958971 -0.0013782611680131195 -0.0038047372847689388
-0.008455909437870623 -0.001347217505001363 -0.0034551991806655176
-0.008684547117887792 -0.008493246127140065 -0.0015678806450513155
-0.008391040056988317 -0.0012625426868570705 -0.003602709169931095
-0.00225587483550496 -0.01875915245353959 -0.009239583617659499
-0.008453821404854928 -0.0010517063673293407 -0.0032923927959587823
-0.002145030491398879 -0.01849165247419305 -0.00925410149522628
-0.008586915957008952 -0.0012164157561117847 -0.002913651565983882
-0.0067159396442550475 -0.019088309345398083 -0.006011456018498502
-0.008713157994875969 -0.009135506029827874 -0.0013115304334292374
-0.006461546792542171 -0.02029164205621535 -0.006463725856169807
-0.008390794203658826 -0.0007569735393186268 -0.003262488166733908
-0.006521795636741394 -0.020260770372677206 -0.0063879906958366805
-0.008692075849486398 -0.009005231300793538 -0.0008709105863173451
-0.00844817097071641 -0.0007311408720475205 -0.0030729037572448294
-0.006455617248981144 -0.01990610266037191 -0.006349142082068162
-0.006393157375827371 -0.01987084971997699 -0.006407170486990325
-0.007958927292584324 0.0001019984409423753 -0.0040753794929632905
-0.002010303935232451 -0.018165178328602382 -0.009257433663307243
-0.007884067373233553 0.0004266017435744314 -0.004279981001463275
-0.0017967432419782004 -0.018112723764067282 -0.009272373371170428
-0.00870374410234715 -0.008838454472036855 -0.0012562953647214032
-0.0019324166253891634 -0.01776713544762942 -0.009249919522266234
-0.001672450189133892 -0.018109503171313053 -0.009271468850409366
-0.008696179287255471 -0.008709510444574688 -0.0009787783993815409
-0.006288851345124682 -0.01943021240286259 -0.006454736581802028
-0.0061928391694272234 -0.019385134868128637 -0.006541524101935122
-0.008688534046680579 -0.00889817119003097 -0.000764679214191382
-0.006686330318490027 -0.019938866486479558 -0.006101258136414752
-0.008682528184034076 -0.008927354036178909 -0.00048075351903654643
-0.0036030062022514835 -0.01913671056562874 -0.008537539363364209
-0.00830004188647784 0.00011692551965705324 -0.0032337298200314593
-0.008686048831949138 -0.008845814475060075 -0.00036349070512985935
-0.006870958784118442 -0.019765796470656627 -0.005847601951145136
-0.00868608327937319 -0.00860309038228515 -0.000641632473089929
-0.0082781935574738 -0.00021881322974756043 -0.003304943434548544
-0.006514015476987182 -0.01921026393585164 -0.006264473789528807
-0.006678502226133632 -0.019556772848462408 -0.006097533450174022
-0.008683358419480662 -0.00858920908038938 -0.00040814346267175445
-0.008690692386441476 -0.008740980912903007 -0.00023599740132280916
-0.008675430955723817 -0.008367573535713005 -0.0005533579712290997
-0.008271581285331757 0.0005188463657603505 -0.003341795293313174
-0.0064909684546820695 -0.01883493946648973 -0.006338983223916323
-0.00746126904695517 0.0001996147728198769 -0.005212728219038183
-0.0073260536889983695 0.00047620711611635495 -0.005379756654318767
-0.006361414088711371 -0.018433691076469694 -0.006525996614777074
-0.0064322242109763296 -0.01824422363368752 -0.006450801880492486
-0.007226168920571847 0.0009068352661368613 -0.0055985092362122795
-0.007488292000178155 0.0007702953043582854 -0.005222627275689251
-0.005892761104278777 -0.01917300376977452 -0.0068097409492589005
-0.008443472984722191 -0.008474209622538437 -0.0026142530016464547
-0.008537542481764089 -0.008509279716738906 -0.0023350207085221057
-0.0073220031239851985 0.0005746596714422338 -0.005387333819203394
-0.008507439069204368 -0.008379849142583507 -0.0024198210404075826
-0.007653269837473803 0.00023462071677200015 -0.00488109190910024
-0.008398808603700986 -0.00814289491620292 -0.0027149498951571007
-0.006027359055881311 -0.01894093019273569 -0.006744270596906335
-0.007771378461006151 0.0003582044545732151 -0.004595067976001024
-0.00843567682350189 -0.007589388849995587 -0.0024296576356549623
-0.007846769803003561 0.0007159645214393567 -0.0045964024896599205
-0.00764654963801743 0.0009111794830193305 -0.005053603416753569
-0.007596863899499639 0.0013355789909340688 -0.005182220681580721
-0.007871068841311784 0.0010176321297251756 -0.0047090201203028505
-0.0063100139314400845 -0.018881772697644607 -0.006500665101935012
-0.006542963446237591 -0.01904775046788682 -0.006242275355450625
-0.0072668552434714435 0.0015650409446152616 -0.005650450820910091
-0.007408875188707278 0.0012871854110147372 -0.005440858140486061
-0.007491863406598619 0.0016053849500585861 -0.005373606501917698
-0.007164697500577001 0.0016753488424858783 -0.00576880597539149
-0.007183297775025799 0.0020366986281276723 -0.0057013693219322105
-0.007351751888815766 0.001838437192108581 -0.005538875647456632
-0.004880690008523373 -0.019913137865034475 -0.007684731748956176
-0.007606155822084206 0.001591775447434704 -0.005203956496667463
-0.004835547870124742 -0.019656787103113145 -0.007693421161411553
-0.007469247353555071 0.0018332614574712671 -0.005398068682850833
-0.0016580380529476178 -0.01765768434494071 -0.009267324301522667
-0.007680137921275842 0.0017992857862463934 -0.005037651365400891
-0.007464530350169665 0.0021758865411563876 -0.005300213612432197
-0.0019467906331302508 -0.017401964488516507 -0.009231874523878714
-0.007413906295594642 0.002190108890565147 -0.005375804770852957
-0.001683503899038408 -0.017302664877958767 -0.009270263210754527
-0.007492801835358177 0.0023251529115911225 -0.005218519007007382
-0.007872974875876614 0.0004558042207874328 -0.004330897482455414
-0.00791989175755967 0.0007394348939097758 -0.004362206250819772
-0.0079914467000556 0.0005490663770955926 -0.004025976146051743
-0.0014349340806140616 -0.017058257017253352 -0.009283671548832148
-0.001643745907779068 -0.016601895482157077 -0.009318587833874098
-0.007937820849620886 0.0010180393973621635 -0.004557291101297552
-0.008030373440942904 0.0012368867068997267 -0.004380384836323829
-0.00809988054484854 0.0008422245388111732 -0.0038282314297975626
-0.008069860582784494 0.0009519030877218413 -0.003955760999167067
-0.00127744574893667 -0.016621413426371044 -0.0092954355005287
-0.008148497194021333 0.0009025181930903671 -0.003693689641738147
-0.0013262809938420468 -0.01637788957335857 -0.009306609507054704
-0.008099969088721003 0.0012354613473966021 -0.004011406827621322
-0.008151950439352048 0.0016327447713056027 -0.004054994020958819
-0.008184280184223609 0.0014451390150420497 -0.003798816360667115
-0.008213451355792548 0.001683850100225632 -0.003753764280361289
-0.007913036815414753 0.0016000617197008322 -0.00471709747487974
-0.007895399813079582 0.0019374313110763711 -0.004639858440669307
-0.008460626468387373 -0.03312358173056448 -0.0006075059246838106
-0.0023920428724073153 -0.01692582300492166 -0.009224520728395346
-0.0021637759952487998 -0.016933941654688426 -0.00925319661828901
-0.0022994329795444973 -0.016391568910237995 -0.009301691791338966
-0.008466408907899618 -0.033035244433775035 -0.0014665223755834238
-0.0024153470940455573 -0.0161520489641691 -0.009264212687350875
-0.002254414934319584 -0.015952618172186253 -0.009334055240764931
-0.008445515821823815 -0.033117344794306156 -0.0012269570002586504
-0.0022692625392582793 -0.01573194080150435 -0.009283342629680232
-0.008486355672742876 -0.032259705656721364 -0.0018662132758405616
-0.008520869425642848 -0.03260033959157046 -0.001565434326532791
-0.008505957690027897 -0.03234305827267368 -0.0015196406429145578
-0.002295668876777721 -0.015342335051606457 -0.009137779979542264
-0.008474657614179835 -0.03278727446556887 -0.001012214202568404
-0.002057573088332302 -0.0164161157364932 -0.009341349106895975
-0.008460818860537928 -0.03271325444414176 -0.0005697603668398738
-0.008492542684053752 -0.032471196355224684 -0.0008756641152810851
-0.008474637253336546 -0.032667822105429394 -0.0007034747945911552
-0.00851813884422633 -0.032026808726753855 -0.0013361201034558289
-0.0015747953667629194 -0.016294606581171225 -0.009328130190358174
-0.0018936844975899897 -0.01579091755781703 -0.009340054262143856
-0.001674538241803676 -0.015941292902477547 -0.009333852023758304
-0.008560905495774889 -0.031973542378742795 -0.001071803500660342
-0.0019567907857497187 -0.015442602382604479 -0.009275172406953544
-0.008470337564886594 -0.031998936905591836 -0.0018921249825863957
-0.008441090732201676 -0.03169551403153366 -0.0020183426955326655
-0.0012371773771748607 -0.015814713419227314 -0.009292353582722106
-0.008481600721666099 -0.031632114454859056 -0.0017568294321991488
-0.0009878804518525586 -0.015855709850266 -0.009280591594415225
-0.008347740790395125 -0.031074084470581614 -0.0020176011887729005
-0.008429039127848217 -0.031267816321258135 -0.0016690289127987415
-0.008525599156427916 -0.03187126714555814 -0.0013021173013747366
-0.008559754574275089 -0.031694117603281606 -0.001037553057116737
-0.005032368120378297 -0.017055538244765547 -0.0077232428974153035
-0.005546164115237701 -0.016463383840914246 -0.007415591558655075
-0.0059158581213813715 -0.01621205926297232 -0.007117456600218387
-0.005740045740722894 -0.016059048238307103 -0.007263317140674873
-0.00605361337685445 -0.01582667985087039 -0.007075427279245119
-0.005395992234563711 -0.016661665966535552 -0.007530373317343983
-0.004750773421047597 -0.014880595476492687 -0.008193914061731894
-0.004299762261614224 -0.014208218203801495 -0.008316763305906026
-0.005514848628579037 -0.015883198123316705 -0.007433995870756883
-0.005173684872660355 -0.015361858354740935 -0.007859164495063579
-0.005401397767562645 -0.015206676905253977 -0.007701700431322314
-0.005266135364693621 -0.015132292381184673 -0.007819714829123438
-0.006096219864578942 -0.01518000484470213 -0.007259091989781475
-0.005723962925646196 -0.01571248856744178 -0.0073487427598815346
-0.005848803022792762 -0.015526940310891389 -0.0073538804462262375
-0.005925334866953054 -0.01496130554955489 -0.007358481609463518
-0.00595027503577801 -0.014907279631660577 -0.007332657694710889
-0.005579279150318585 -0.014832278157862751 -0.007573965679681657
-0.005033022956779574 -0.014990078086271492 -0.008020566719310446
-0.005334144246556494 -0.014883909364184544 -0.007747377268118865
-0.005163520002762533 -0.014576552804784074 -0.007830130609993626
-0.004844263942664589 -0.014091359627348237 -0.007888075468863536
-0.005594262177816025 -0.014210183309786649 -0.0074103918808477425
-0.005151293117608199 -0.0144153363490633 -0.007803460675596484
-0.005534682949764846 -0.01434045408951691 -0.007498583592681438
-0.004956509669444215 -0.013837907339640578 -0.007698098276284015
-0.005433843481518031 -0.014077256048128595 -0.007496493476594441
-0.004766375042247338 -0.014730729247044062 -0.00816579951856473
-0.004592242296811509 -0.014162856965670483 -0.008100789131606702
-0.008751869892784056 -0.014860571974014273 -0.0004045770540670227
-0.008753800860698012 -0.014775780992771761 -0.0005390443058382454
-0.008725888959811613 -0.01406995006702156 -0.0006893441025119946
-0.008739145941964746 -0.014360125749904603 -0.0006560625363888565
-0.008670155938497896 -0.013816885829652075 -4.548387432386702e-05
-0.00868157638591866 -0.013143350653535578 -0.00046228422839577753
-0.008679559179633476 -0.013428060511901131 -0.0003092636348056481
-0.008660829644277643 -0.01340825944816635 -8.27202974003741e-05
-0.008608031676083016 -0.013092302113349238 0.00041728145977786105
-0.008685027800581386 -0.012753576317219038 -0.00042174648534201264
-0.008666152053284014 -0.012909074367511104 -0.00017377461091767644
-0.00866198983682704 -0.012906697874811357 -4.872687827559306e-05
-0.008702416954941401 -0.012308003909816125 -0.0006723000564752817
-0.008746617057826363 -0.01188306917377821 -0.000391992915762338
-0.008635202474682174 -0.01121186837743312 -0.0016742439786786654
-0.008642538747873237 -0.011378179895513783 -0.0015728411232250848
-0.008689256529329371 -0.011413244248733589 -0.0012490945789436808
-0.008714855742448789 -0.01169726361143923 -0.000921072465208326
-0.00875271966917858 -0.01171878560948329 -0.0004914032770910338
-0.008781605963191092 -0.011241501291256359 -0.0006166051355226541
-0.00872180496129657 -0.011354777500163296 -0.0010373781073478548
-0.008677968551114135 -0.012693564614308976 -7.663708576870823e-05
-0.008621623761968473 -0.012760047907608988 0.00042448363099629983
-0.008645748914837692 -0.012584932659334308 0.00037280343368409005
-0.008714413727040623 -0.012095645791186639 7.760755293433221e-05
-0.00872100617563398 -0.012139596757463606 -0.00016446279087752207
-0.00856785948705669 -0.012322743792218722 0.000874680574746834
-0.008576940827088046 -0.012363478600598374 0.0008182163554089635
-0.008751316483132562 -0.011692071498151909 0.0002601244818794457
-0.008609646389344664 -0.01201254115017782 0.0007761401003527281
-0.008772443761389461 -0.011416766716321063 -0.0003211043185550013
-0.008766049085554074 -0.011582415203885369 1.482348365769574e-05
-0.008765984143379452 -0.011598851489061259 6.189353480198693e-05
-0.008749162802981051 -0.01083588584933999 -0.00037629712432987706
-0.00875896380820273 -0.010913466506552349 -0.00021517910479707016
-0.008705999634262857 -0.011095924686064098 0.0003198936942597518
-0.008655573202147139 -0.01140008502937882 0.0006398773670077696
-0.008693475414201927 -0.011376095481261719 0.00045300317204365244
-0.008631932112327455 -0.010714107279039816 0.0003181261531275902
-0.008664840835360966 -0.010874826845981336 0.00030610780036837673
-0.008709655499983315 -0.015444257753811346 -0.0007438504319659076
-0.008731683112543943 -0.015366126077369317 -0.0006266453968374997
-0.008745915781029586 -0.015029763431770655 -0.00031553658468850247
-0.008690288244266216 -0.015034697631830421 2.8546235814509752e-05
-0.008738992516819925 -0.014881815659430508 -0.00029349813723609375
-0.008576760020376186 -0.015028836298271325 0.0004309723536571
-0.008532292247104735 -0.015061504296391942 0.0005856436325088237
-0.008453387368910777 -0.0150787544155025 0.0007885936925657026
-0.008687486066365345 -0.014342661512518593 -4.058885468746296e-05
-0.008632324858248733 -0.014459202985155939 0.0003016385868996925
-0.008597318354684325 -0.01432127732705224 0.00044505159974714444
-0.00863018621447193 -0.013882987992458285 0.00026721228363596645
-0.008372781985382377 -0.027437250422283507 -0.0018677133761713617
-0.00833580993684132 -0.02771458542948749 -0.002016259257027651
-0.00841852905145703 -0.014949537713142879 0.0009358079712114733
-0.00841313031651823 -0.014962499605035625 0.0009484409568291652
-0.0083382333904732 -0.015226466767832172 0.0010744082282872244
-0.008210688548437184 -0.026839415441120135 -0.0023666095421584774
-0.008298965551004914 -0.027173713003331837 -0.002060319932960293
-0.008546119994148888 -0.014340742046690974 0.0006340814899993567
-0.008493737520334778 -0.01419492230263291 0.0008691419802703957
-0.00843806455276495 -0.014250131297103607 0.001065786084815302
-0.008200331424550242 -0.014883726805617163 0.0015661957914343422
-0.008368449124485814 -0.0143597543444114 0.001265088199282113
-0.008277835546483373 -0.014402897482179888 0.0015387745188372229
-0.008173896136354932 -0.014387015488735083 0.0018596200345506457
-0.008345721233397194 -0.02628258093807181 -0.002042599018926807
-0.008487485022868398 -0.026256853626206528 -0.001602677678986873
-0.008014741046842137 -0.014980771951391712 0.002060491181546863
-0.008192331860696098 -0.014851135156071678 0.0016031629486612392
-0.008172669966803664 -0.014504445314147258 0.0018125159272129093
-0.008548672015039768 -0.013532992092452864 0.0006901090773434479
-0.008540973243037125 -0.014029121271039608 0.000705159565457613
-0.008579961732963508 -0.013130427707928312 0.0005896855055380497
-0.00848210447632277 -0.013756436524892812 0.0009654413014418203
-0.008428400289819817 -0.013488296395563495 0.0011960249436578402
-0.008320599848620831 -0.013754293895185364 0.0015596086482584585
-0.008497892963501593 -0.013205514026097459 0.0009612204276720836
-0.008546751430388256 -0.012912163395005236 0.0007741665304397649
-0.008376626299471671 -0.01332722866561645 0.0014117527744325123
-0.008073202105584647 -0.02835064970930008 0.0016120707080244355
-0.00811603021155934 -0.02860624869508245 0.0014524608946232284
-0.008084641167424422 -0.028459800509206615 0.001583648623316182
-0.0016862937100373008 -0.014396578463748826 -0.00918629810460046
-0.0012205718315600293 -0.014291328546119655 -0.009242064744127273
-0.008204371177685852 -0.02780487848489692 0.0009863103601628106
-0.008137350107895907 -0.028199834496990313 0.0013229431890523185
-0.008078789038335974 -0.027799317211296838 0.0015238554404799387
-0.001393071860069212 -0.014170413544101824 -0.009219866289453526
-0.0015725823227579257 -0.013696408964690845 -0.00922278807996544
-0.008478543725591389 -0.012634690089150765 0.0011411802687382624
-0.008399071179714295 -0.025575459029460772 0.00030968503841525673
-0.008381558563294231 -0.025689767468983233 0.0003550299937312748
-0.008247912030115236 -0.02567336485170258 0.0007451659787478895
-0.008032646227065697 -0.011235540063422624 -0.003983766105540805
-0.008084671560448573 -0.011687104406456116 -0.0039581924319262605
-0.008174314689243662 -0.011188644518324164 -0.00359478718794685
-0.007862529221092712 -0.010726099525168427 -0.004195488655516463
-0.008113617204272451 -0.01103883104241837 -0.0037138042223410694
-0.007738092094582096 -0.010282031474151626 -0.004357708518407481
-0.007884318705742443 -0.0103360785810233 -0.004065246915159882
-0.0011991895657137443 -0.011350137185262623 -0.009281986157781471
-0.0016140829914725833 -0.011625302366036119 -0.009290966805233542
-0.007779731094211398 -0.00966712877883975 -0.00430682280980587
-0.0077386043033656465 -0.010023679646171102 -0.004361545075013013
-0.007880323447118868 -0.009431632429244594 -0.004119671173851578
-0.00799303745146132 -0.009445725557348544 -0.0038506110180927967
-0.007978383014467705 -0.009890318888804699 -0.0038615100932170078
-0.008156437202544674 -0.009161821320781454 -0.003442037286170818
-0.00827823913055889 -0.009269824509992544 -0.0030984491174485635
-0.0080280271192287 -0.02791123391382413 0.001790440135259671
-0.00826013286547645 -0.009550793655559064 -0.003137090994048408
-0.008024590401940944 -0.02702944194961706 0.0018237485058083796
-0.00803142367315626 -0.027463587997501877 0.0017549251852511977
-0.007957285325822912 -0.02747147111643168 0.0021321016592099964
-0.007880743907967279 -0.008999469064226927 -0.004194034128532919
-0.008063782179344538 -0.00884103782892522 -0.00374666233784587
-0.008087225198077863 -0.0265426666308125 0.0014597198664503108
-0.008072004687678108 -0.02686653014504486 0.0015804653395848002
-0.00803228838606579 -0.02679621747638784 0.0017676876703144515
-0.007939055513536984 -0.026998405120922726 0.002208141842202753
-0.008100009638515501 -0.008878279252022926 -0.0036349930439526783
-0.00813999582123269 -0.00905314440623387 -0.003494413902389224
-0.007999315676291802 -0.026438695773767007 0.0018892999584153604
-0.008010338975965158 -0.026794112529381988 0.0018851809440264997
-0.007871047800208909 -0.026651188864913095 0.002472429299499047
-0.008086410095732048 -0.008158040022206567 -0.0037148725883298637
-0.008102220772599448 -0.008473324937306258 -0.0036501083496403423
-0.008130361004425036 -0.02591057371862185 0.0011850454356182557
-0.008135604958436425 -0.026227373954445517 0.0011823464923001806
-0.008038783738592728 -0.026117160380181397 0.0016233731389499358
-0.008095341304237494 -0.007585319027800422 -0.003443289659396268
-0.008196646821346285 -0.0077164314281835565 -0.003128351278571376
-0.008088980939687919 -0.0255437029145936 0.0014027244369831113
-0.008099276699762969 -0.025648284939282753 0.001337742213939947
-0.008125668453955329 -0.025841495969203668 0.0012025728734683734
-0.007984894551439511 -0.02605227869885212 0.0019198854284385289
-0.00791544948995952 -0.026240002435147382 0.0022672535047662465
-0.008067030756245824 -0.025160489778137608 0.0016482385061177265
-0.007995775571531163 -0.02563131693267727 0.0018960185106143145
-0.00810444921168986 -0.02533341845925 0.0013849948465557331
-0.00861035054958252 -0.010790652998334028 -0.0019292633104071794
-0.008661385741975725 -0.010864880156942577 -0.0015802068952203176
-0.008697913939101213 -0.010768758640662679 -0.0013753197650758732
-0.0085919305413854 -0.01017997553722377 -0.002075573427143883
-0.008679559508096929 -0.009917562738036342 -0.0017461912752795832
-0.007963666821677672 -0.025102008894601523 0.0023512693786625397
-0.007852503238184611 -0.025531517684725627 0.002670772701313625
-0.008714670562322745 -0.010413004771686314 -0.001345561451529797
-0.008703469891003488 -0.01082192849428473 -0.0013070512875276146
-0.0012649233109302235 -0.009326197234107965 -0.009279735630266139
-0.0014717990488482772 -0.009787870775558778 -0.009291533807467429
-0.0087200768713681 -0.009649298416059791 -0.0012589097663897213
-0.00871565964479719 -0.010117914376313422 -0.0012377004607158047
-0.008718422528298363 -0.009780202710554355 -0.001217142941756274
-0.00873212207308229 -0.010311794785571971 -0.0008850331641816269
-0.008708272608964304 -0.009641076139099498 -0.0009486852426843207
-0.00870869351012146 -0.010035562994795315 -0.00075071457239646
-0.008665127259141633 -0.009670840654121639 -0.00038292171298133775
-0.008720344521397786 -0.010454922743014726 -0.000295773461085616
-0.008731807947081107 -0.010592434629102258 -0.0003200347244464131
-0.0015505621756630196 -0.007285676217989872 -0.009255697490467379
-0.0012575980077934026 -0.006852607538742788 -0.009243278509196354
-0.008682027240644543 -0.010162017476583842 -0.00027170965506209975
-0.008587907744224773 -0.010441563450182151 0.0003355634285398347
-0.008660390923069635 -0.010378661162569372 1.2950337989535444e-05
-0.008629252564176793 -0.009848353634541042 -0.00014086124322801904
-0.00862894148482145 -0.009902981399165659 -0.00012421585034195752
-0.001452619382303265 -0.006551294977221076 -0.009267706484624423
-0.0013974141052636915 -0.006346750564562594 -0.009286166141586082
-0.008574488148191872 -0.006230851796363677 -0.0017185696198291959
-0.008621184138414973 -0.006127681564401504 -0.0015384267270419313
-0.008239092714541707 -0.007355209856003739 -0.0027960862097980597
-0.008372165158652713 -0.007378192766844812 -0.0024871595564719927
-0.008256986350638432 -0.024305566995310897 -0.0022659314309573467
-0.00818158534752697 -0.02471650433385071 -0.0024062031539619656
-0.008426414148134938 -0.006866846899343419 -0.0021676160908601833
-0.00840115778394471 -0.007205692656885573 -0.0023288712516488794
-0.008505479061952589 -0.007133579498381479 -0.002053642212942299
-0.008148532671658057 -0.02429861097587521 -0.0027163628394370276
-0.008261130582260478 -0.02410313232069273 -0.0023561792864251366
-0.00826407081144149 -0.006625997801466709 -0.002520356897944856
-0.008358178106175574 -0.006912699010001599 -0.0023321188226932015
-0.008383404443449882 -0.025316267170089234 -0.0018372557392372152
-0.008374869075837097 -0.025888051566136383 -0.0019758659823135077
-0.008525213410032617 -0.006552245557985746 -0.0018480151455638877
-0.008528263800642876 -0.0067342839219091165 -0.0018705353970067085
-0.008184720428376402 -0.02513663099704773 -0.002384396554232153
-0.008325361065370462 -0.025018709485921824 -0.0019403075606364536
-0.008638200099013393 -0.00651815495560591 -0.0014300851998761232
-0.008429188115276558 -0.024658251596341288 -0.001612307851293134
-0.00809694490764383 -0.030238472450527833 -0.002853237880727004
-0.00813200712360324 -0.030531630343534268 -0.0026263664291071133
-0.008511720771034237 -0.02466751818793802 -0.001323510798218908
-0.008334467333601684 -0.024587841964216307 -0.0019214922872573589
-0.008438931899254485 -0.02459155076243874 -0.0015891477996437884
-0.008410531933029708 -0.023728123114545436 -0.0019722766334347493
-0.008397747660867004 -0.023823949354555146 -0.0019785914586676516
-0.008463980364014315 -0.023679379356050956 -0.0018094501306705744
-0.00849669815903719 -0.024402829484997855 -0.0014319956790273059
-0.008593046489252043 -0.023918869666459463 -0.0011327432511935923
-0.008607564936360508 -0.02391915132515879 -0.000910308942669376
-0.00860522678003717 -0.024068200850346333 -0.0007801115602154388
-0.008604171304183287 -0.023893947267739375 -0.00044432548167544776
-0.008664126833509186 -0.023233723943485718 -0.000565370471245999
-0.008614311700485544 -0.023406080079811667 -0.00027218942239133615
-0.008368083169827786 -0.024955200076782823 -0.001804081429235317
-0.008530450175455683 -0.025020292652612727 -0.0013490600372091193
-0.008581405786559894 -0.02480379870585838 -0.001012670454784698
-0.00858563876550127 -0.024647144393486968 -0.000546820964481232
-0.008589931082846315 -0.024858344119345583 -0.000425499891572297
-0.008489281410339755 -0.024993521050481655 5.796865139282672e-05
-0.008374370896030065 -0.02485363255211943 0.0004626031281756683
-0.008429219924687275 -0.02504569895851634 0.00026137103110584255
-0.00851684969198822 -0.024225152985244146 1.757589126060664e-05
-0.008499274245405626 -0.02435821793576556 0.00010777368868918046
-0.008413999533766935 -0.02464732526484729 0.0003747893404440338
-0.008553983142668552 -0.02389677451026818 -0.00010239292115118317
-0.008512342467821317 -0.02415184241062295 5.006125586392687e-05
-0.008365951146515876 -0.023189206736429303 -0.0022160249987310107
-0.008353872837577565 -0.023356441480174656 -0.0022430448302726475
-0.00856394692150032 -0.02307479593477097 2.8738382556619783e-05
-0.008249050921604053 -0.02500795815197881 0.000875967481896261
-0.008191208852704461 -0.02503754465042478 0.0010858318301922223
-0.008446741418519779 -0.02410676288924335 0.0003895279453938578
-0.00836737870654186 -0.024049759119791937 0.0007410571078218252
-0.008305008875268648 -0.024543574884113316 0.0008224472601450493
-0.008175202707592318 -0.024590934014877566 0.0013474575408307743
-0.008244146231796808 -0.024122615819449498 0.0012190872421628134
-0.008204724990011375 -0.02404266597535387 0.001415447470423434
-0.008164901756110857 -0.025190122661556468 0.0011433118076833288
-0.008121448270222664 -0.024736075181234468 0.0015544286646226818
-0.008084131638734095 -0.025068610512981804 0.0016004619640038378
-0.00847783815974691 -0.023999712940693224 0.00026618733287015297
-0.008416553020770438 -0.023813037304003682 0.0005566610041420215
-0.008407475383335744 -0.024059883046406876 0.0005699802622998009
-0.00850382061656571 -0.02303654527191513 0.0002657590217811236
-0.008510074094377387 -0.02344610150391256 0.0002126046627793937
-0.008297742579478799 -0.023388855361666547 0.0010621072057922214
-0.00828997186846789 -0.02362065699236214 0.0010992699610674855
-0.00835700590115947 -0.015638159739893118 -0.0025585916931001275
-0.008412002253291025 -0.01604934069978004 -0.0024185894563792964
-0.008457935994929257 -0.01556169218881105 -0.002165002235161967
-0.008442037991089226 -0.02292687807046377 0.00046751939283829684
-0.008311109490189686 -0.023231721144506907 0.000977902929021758
-0.008346338880468153 -0.015046821326664739 -0.002477991242847299
-0.008407077780108331 -0.015446782702386586 -0.0023269082912110934
-0.008389226725495504 -0.015210341658089006 -0.002354670518198084
-0.008465742417700428 -0.014994842210208867 -0.0020299753790367827
-0.008421581840213375 -0.015076079699747537 -0.0022152443524778654
-0.00850590714523974 -0.015168842306095207 -0.001801222501321326
-0.008093475530589454 -0.024470189913044164 0.0018737062940069405
-0.008034325946566128 -0.0245343944692987 0.0022466064771498144
-0.00808107119528607 -0.024116752978579778 0.0021159609764087907
-0.008080517679020786 -0.024280590303641634 0.002073556968250316
-0.008492027666531904 -0.014313775271715073 -0.0021456145926642607
-0.00839570131180113 -0.014834240618643968 -0.0023132177884776107
-0.008444104358658156 -0.014820876319792224 -0.0021376047749915913
-0.008514851055811092 -0.014544765461430261 -0.0019755780436282984
-0.008456118009916554 -0.013795865093441936 -0.0023728090081125376
-0.008017106790909629 -0.023969121750881915 0.00252564835126577
-0.008042500147250714 -0.02431593134081541 0.002309477400200931
-0.00801691466999958 -0.024276935592893976 0.0024724890208285217
-0.007988253665886761 -0.023983265347043488 0.0027201727481887743
-0.008486222282029027 -0.014012370476863411 -0.0022360062268052027
-0.008458407251541181 -0.014246009893566529 -0.0022467611777757432
-0.008160206632926607 -0.02334239102203425 0.0016594972453267789
-0.008154259084805715 -0.02360528866044765 0.0017123445726350734
-0.0012542730759709099 -0.0023424723361772154 -0.009226134210958817
-0.008133376785652267 -0.023073402515860108 0.001741887127121783
-0.008138655561509004 -0.022845794518217964 0.0016684584924375558
-0.008256513273506546 -0.0232200008566677 0.0012051568548526613
-0.008557283487302161 -0.014980867946368423 -0.0016011036458282472
-0.008627551779592214 -0.014848090260925595 -0.0013628301838511676
-0.008744720781703956 -0.015039846220126753 -0.0006029727323593826
