-0.0082477238625859 -0.0549406981243673 -0.0016168801840899
0.005155828237535018 -0.03680968641817948 0.007634012645824899
-0.00824523884865317 -0.05538508664518986 -0.0014793743778076262
-0.00572106494261836 -0.0523424705935426 -0.006982696810417142
-0.008170728787545446 -0.053526358306048835 -0.0021630691678276234
-0.005657109534781546 -0.05270049633252619 -0.007057205274338127
-0.005611693584105745 -0.05213030634078881 -0.0070932555047158365
-0.005807802984909212 -0.05168473829362811 -0.006902962641256414
0.00540825426382491 -0.03557340666293654 0.007332576854015488
0.005321868007583946 -0.03514544688860989 0.007559358057311387
0.005459447128274234 -0.03509535583344992 0.007481126893267674
0.005730504216375831 -0.034697035279710485 0.007248052671384059
0.005827294394032035 -0.034167854624519156 0.00718960700807612
-0.00827375020961333 -0.05489053292426993 -0.001207522064573776
-0.008284809570253175 -0.05507918107277567 -0.0008705395796814136
-0.008279891178042181 -0.05498572007386796 -0.001070214180979046
0.009675893769940647 -0.04419726995115515 -0.0027771168202444184
-0.008288268882024715 -0.055159554183304774 -0.00046399698639327483
0.009756025992180506 -0.044388467202621976 -0.0024436418702052536
-0.00828729699916984 -0.054942995848391324 -0.0003196069925766082
0.005862964892059194 -0.03569009376733817 0.006701180530239653
-0.008293092531305672 -0.05465342169854237 -0.00041008205489266716
0.005596724174997963 -0.03554637824540871 0.0071221636845402
0.009585783775554062 -0.0436289042757409 -0.0030518923287416178
0.009713922968320597 -0.044069788908200465 -0.0026028751589533216
0.00963265549530361 -0.04356487289687276 -0.0028459367846671896
0.009705694608266606 -0.043693550828527224 -0.0025549403852573476
-0.008302926460451015 -0.05460717156772557 -0.0005685861381914494
0.009761131022782206 -0.04390453477780844 -0.002339277190256309
0.009760598644300846 -0.043596004608872176 -0.0022147831989938983
0.009761392888591573 -0.04405579668199369 -0.002380306617035685
-0.008305438199428024 -0.05292977482644171 -0.0009768240492101848
0.00979433608177651 -0.04374968246045799 -0.00211047499137371
-0.008261139351116872 -0.05508243991185704 8.062739235309298e-05
-0.008254695512992672 -0.05480121521277999 0.000164382135566663
0.009589725391073287 -0.04347959295626336 -0.00301084351243389
-0.00826966873184596 -0.054423413832693696 -5.740563427292666e-05
-0.00828250667378342 -0.054158851604825316 -0.00020747161083006777
-0.00825245565335291 -0.05445802867349833 0.0001465856582243589
-0.00825716561190428 -0.054116701473071 9.454110818062295e-05
0.009632936593246454 -0.04299738636896498 -0.0026731988082899097
-0.008226619828456126 -0.05469391925316708 0.0004804911781097532
0.0096887594627688 -0.04304123376837732 -0.0023795790147519364
-0.008227854180738478 -0.05416142135703921 0.00041764707916887257
-0.008245912534730664 -0.054010568067377515 0.0002329641462452975
0.009901660806890415 -0.044145443908221 -0.0015125280387920008
-0.008196843336787 -0.05434904699804596 0.0006929746231879965
0.009921962414383683 -0.04407309449443851 -0.0013119058648268641
-0.008231948410494287 -0.053902984209755964 0.00040633750042013393
0.009864226062369915 -0.043657355386548906 -0.0016834713227021406
-0.005987867271481247 -0.05148763869385277 -0.0067181426905119305
-0.008212631634258383 -0.05474472762122268 0.0006437162848276082
0.009836794286094838 -0.04347374282834536 -0.0017534806942763874
0.008467381523487302 -0.03457016198343876 0.004208726299138593
0.00989097446961607 -0.04364767126147836 -0.0015221113336686253
-0.008202438093588912 -0.05466683087762028 0.0007007507947404143
-0.008192672910226849 -0.054632873857498904 0.0007625270449971926
-0.008300241393601023 -0.05377327341152867 -0.0005373577989740849
0.00991973304965613 -0.04345288069502942 -0.0010377202760840113
-0.005898681625040665 -0.05149297967790853 -0.0068178854608940504
-0.008282810268443543 -0.05342209601388253 -0.00010695077025237338
0.00988993062844898 -0.04317865714587587 -0.0009961170365509256
-0.008299323557868651 -0.053289242639735473 -0.0007013405777441107
-0.008307619406475031 -0.052913829095972933 -0.000704250944215645
0.009942518018457368 -0.04389318531874188 -0.0006937216841093813
0.00817903080722431 -0.03489476800524435 0.004737588034001594
-0.008303518005048702 -0.053044867651973686 -0.0005162568794360163
0.00807439017120716 -0.034766213800828345 0.004859094635125299
-0.008266402514271347 -0.0535857266577489 8.690763882873474e-05
-0.008270880582341579 -0.05337687270286741 5.008866871574572e-05
0.008148695416109929 -0.03435859223068226 0.004721446370984445
0.009761681669961185 -0.04277709344478055 -0.0018505214488066276
-0.008241131347871035 -0.05322897224366726 0.0003716360725944768
0.009860961023699655 -0.04322428708385076 -0.00150672454035483
-0.008276404384008892 -0.053279809404715675 -2.3199615066622623e-05
-0.008258738024089654 -0.05302584716997662 0.00014767918130241582
-0.008254500045635653 -0.0527767085984084 0.000208906789746933
0.009887978036739355 -0.04314015173551896 -0.0011675627545169242
0.009801249326321187 -0.0426305894776201 -0.0014141694456365746
0.009877063094089266 -0.04306991218817809 -0.0010077540742646075
-0.004753265660109261 -0.05618152440946735 0.0001421887663406515
-0.004837964759313339 -0.05622894265272717 0.0002940953614032539
-0.004726834004576844 -0.05596812884547749 0.00025211578512902085
0.008222290213889842 -0.03255362909214483 0.004439991703063266
-0.005111077970477719 -0.05536015377532009 0.001851753376446951
0.009920278075445974 -0.04419100625366886 0.00024486447568667724
0.009905219793582998 -0.04429378485244408 0.000546336163860035
-0.0082958944745033 -0.052850689998706825 -0.0011787987208989083
0.008878829047521054 -0.0321100199829137 0.0027006024136916047
0.008794137449205097 -0.032275291368361804 0.0031401016411653072
0.00886089643842919 -0.03219851257052385 0.002844847243745212
0.00983977315836356 -0.04396718401052642 0.0009495399683494144
0.008524110845036827 -0.03275664041962637 0.0037575952802848898
0.008517389037017436 -0.032683625434269434 0.0038167461403788433
0.008663113284012623 -0.03240545465819378 0.0035184320159615786
0.009835533965271762 -0.044218233755628195 0.0011688502627043521
0.008734096921651151 -0.03234695917104721 0.003322098314271957
-0.0015483001918781228 -0.05800658647687585 -0.00869985333508731
-0.0013666258017451928 -0.057948224259100914 -0.008872325670389716
-0.008286691585407454 -0.052677268534554345 -0.0001863251057616661
-0.0010387180596842668 -0.0580623667325394 -0.00867363592000619
-0.008303677987146062 -0.05242404522887552 -0.00044167932209382714
0.009780234778186672 -0.04381831714089967 0.0013752027990487376
-0.00130973152631029 -0.05808076099357551 -0.008539142972041114
0.009688313852034176 -0.043906714430641695 0.0018288833918207318
-0.008287866752618094 -0.05220292533227712 -0.00018795509572676095
-0.008262256101952074 -0.052194115768437785 0.00010644811556103928
-0.008298015807707042 -0.05202346701087125 -0.0003081205527482401
-0.008307445177519272 -0.0518145020497883 -0.00042227635406209726
-0.008288152332506986 -0.05165620963509411 -0.00017448997693424233
0.008905854681955443 -0.03171299066104992 0.0024666566290554425
0.008845967074242213 -0.03171607066003845 0.0027465931575471397
0.008858279269516016 -0.03138681908175632 0.0025608139097077617
-0.0004900671598701867 -0.05806530136230003 -0.008878229351658204
-0.0003241315377104142 -0.057970506142710876 -0.009097362922760227
0.00015984990613355062 -0.058001509705352575 -0.009108809990585894
0.00024578853680871346 -0.05796873624062756 -0.00918183565910471
0.008852816054742745 -0.031270406239287334 0.0025923422047072694
0.00880918543639678 -0.03162095029452417 0.0031942634805879134
0.008799455655268061 -0.03144598410299236 0.003108438273179546
-0.0007552456929766111 -0.05814712372619168 -0.008410733237838263
-0.007244303028157683 -0.05138500603404674 -0.004813807063121664
-0.0005070965370148612 -0.05817383616576258 -0.00819754145419187
-0.00040582387943233233 -0.058160152508072945 -0.0084123857535325
0.008863468731141745 -0.030886598726061358 0.002699513142945306
0.009897216643619072 -0.04345671148737508 -0.0006682403372799927
-0.00045422203692946714 -0.058152087936480364 -0.008489328325715813
0.00986319516326583 -0.04308670867891494 -0.0006840272813031675
0.008773661843312925 -0.0311077242546746 0.0032016556902796766
-0.00735069765913395 -0.05056068369677376 -0.004587784889278275
0.009841173562835981 -0.04302185706053263 -0.0004893182911800113
-0.007184992949101493 -0.05096685853239268 -0.004925759235261405
-0.0003181189833172701 -0.058160822483921695 -0.008383366930305707
-0.00011206027508120904 -0.05816196826393998 -0.008274288610689719
0.009956383608610736 -0.0441852846006615 -0.0003982371880150403
-0.0076403535442751015 -0.051257108996051355 -0.00394342878804761
0.008586223848877942 -0.032217856288319295 0.003790409799886776
0.009917354118632184 -0.0438261812377482 -0.00036490525250187206
0.008285594786021077 -0.032422642146439404 0.004308742138871417
0.009921510600358431 -0.04403235815967953 6.188402810724074e-05
0.009881813862960925 -0.04366913466233138 -0.00023958586472648194
0.008651757040434457 -0.032077239960513274 0.0036713150095312283
0.009884636931874535 -0.04355910489592643 -0.00045744070789850483
0.009835818191829814 -0.043453977071054924 -0.00014028124455494833
0.008668831362025758 -0.03185578063706336 0.003670301035537145
0.008466674483840458 -0.03184915178776168 0.004024443530203119
0.009896060528584534 -0.04398147585020247 0.00023494440635459126
0.008571182942390398 -0.03181895186901933 0.003888537951521224
0.009863681400426209 -0.04375877489466332 0.0001694204588302027
0.009815321076759663 -0.043500737908237525 0.0003177693083610315
0.008177314684749616 -0.03220664774410212 0.004454286857693381
0.008251099031956198 -0.031982661906810254 0.004299797149424265
0.0006405347266167708 -0.05812894555647123 -0.008376800435246304
0.008048236519733517 -0.03219741658417757 0.004707610868077404
0.00980309509797088 -0.04335999666359793 0.00023867792619340714
0.008039474819688957 -0.032070857073580164 0.004704521558503793
0.000634708594893972 -0.05812283268771453 -0.007981920343975879
0.009841883825027384 -0.04280610769875727 -0.0008508933924780272
0.008119657974852042 -0.031464791896573585 0.004462446443653878
0.0012751349137500943 -0.05811072824627125 -0.00821969752477289
0.009806278312985792 -0.04248522161256602 -0.0008437177013622902
0.008263950279580738 -0.03146770725040485 0.004283863168362535
-0.007179213423065335 -0.04936908254270374 -0.0049041996791435154
0.008095214745740625 -0.031826831283748434 0.004536628167497154
0.00980548071585925 -0.042501414283598736 -0.0005982577476873821
0.00138484815492551 -0.05811360704209037 -0.008102078108413624
0.0012974367182541245 -0.058095861336694546 -0.007883749151840477
0.0016263060624865974 -0.058101187859134165 -0.007816472338123465
-0.007771678845520463 -0.05100007668625492 -0.003590268420636972
0.008666609576185641 -0.03146015568211502 0.003711754651954175
-0.007827253793525286 -0.05105206846677815 -0.003428959520587326
0.008721977132019427 -0.03114837660582378 0.0034719048808368653
0.009791202253773255 -0.04310745582898726 0.00046561060232849343
0.009787845587790873 -0.04299106952507281 0.0005759769561579172
0.008611197924399596 -0.031113020565994957 0.003815489050869326
0.009785990814498938 -0.04294996646516758 0.0008632900154451789
0.008672086417684573 -0.030548178326135135 0.0035687169095156906
0.00874508660031334 -0.031120756082233116 0.003378118623501658
0.008743047289262288 -0.030711099524678855 0.0034206953209785715
0.00980134687079076 -0.04362810679436224 0.0011864702057656023
0.008696366896554744 -0.030778254092789864 0.0035785528606590545
-0.00796861317289344 -0.050795292591165254 -0.002976250709959771
-0.007954193389486459 -0.050537324678930226 -0.003014586091491846
0.009766613515703714 -0.04313422653738013 0.0014185143903184374
-0.007863039199884448 -0.05026705095733071 -0.003308087307475719
0.00823216026484528 -0.0307923259594034 0.004331919579909627
-0.007892462703007443 -0.050286908535650154 -0.0032181140916312545
0.009786547761056537 -0.04313295168678066 0.0011440184638756914
0.008515958932095207 -0.03109193771566815 0.00400127279160393
0.009776396219026184 -0.0426893790215345 0.000900777198142986
0.00027035408689016595 -0.05766581274688186 -0.009492259493935314
0.008466489655153227 -0.03061685046810565 0.003995306889607839
0.008477382791804332 -0.03053146862398436 0.00393984081219611
0.00826389902191647 -0.030566495238386858 0.004262510471905638
-0.007676921188157259 -0.048940162539006085 -0.003814378098841118
-0.007775403875628272 -0.04917692676980173 -0.003544063305144075
-0.0001927784785312699 -0.05767036395863309 -0.009411072601810788
0.00040901275189901386 -0.0579477886430189 -0.009224664769883926
-0.007154914635417774 -0.04827437281838847 -0.004943357694615647
0.000915875561599071 -0.05796041464897023 -0.00914615738188496
-0.007024767762193458 -0.049313528186831004 -0.005179633330296795
0.0017311223091210728 -0.05788303332855671 -0.009182633107699545
-0.007160666524016575 -0.048799382716157545 -0.004933404064338778
0.0018629197926899996 -0.057976608851857 -0.008924052171788944
-0.007308190514026992 -0.0487276569459897 -0.004655420263959857
-0.007149007741586709 -0.048754164924276235 -0.004954843771521029
0.002801795108818307 -0.05787294523833155 -0.0089671256481075
-0.006809911707886815 -0.04760220914489536 -0.005519176750913199
-0.006977729973455712 -0.04773576542452685 -0.005251342070016377
-0.0070214237103654875 -0.04789496447494894 -0.0051748136052843265
0.0010376708282215917 -0.0580506648470305 -0.008832596719114164
-0.007135644300608584 -0.04763417645057806 -0.00497399149268902
-0.006756041410291293 -0.047790192776634134 -0.0055953407047737375
0.0018058974682678437 -0.05806058280232668 -0.008611325614087683
0.0019320551778465726 -0.05806732167588589 -0.00853621434565288
0.001588763154525311 -0.058086941136961404 -0.008470543355870653
-0.0075612707560813695 -0.04855912235602369 -0.0041028873629441525
0.002123696330695075 -0.05807066555389955 -0.008468928603034746
0.002545593011564478 -0.05801304759245357 -0.008615262773068653
-0.007587938519868425 -0.04841590372646605 -0.004038417830496393
-0.007740378151533424 -0.04874161450579251 -0.0036431322790745836
-0.007457836141386755 -0.04895537878824832 -0.004338735933959656
-0.007545733372799051 -0.04897229857179208 -0.00413584270397269
0.001859476954282355 -0.05812158794223643 -0.00804357062352004
0.002168533015036544 -0.05812556752665994 -0.00798474207772806
0.002031502599355338 -0.05809161078374191 -0.007738585642823739
0.008034105389611345 -0.031351880916230646 0.004616076212197334
0.008031607104012252 -0.031766422819612054 0.004654383700806404
-0.002178319104581869 -0.058141549931992734 -0.008114146521763906
-0.0017928612753212766 -0.05819755254925768 -0.007983929207660938
0.008115336937399208 -0.030729740549577785 0.004471432510880028
0.007865663252972742 -0.031034633486218433 0.004877517054853073
-0.0018982627012497494 -0.05821402751540238 -0.007833398438385172
-0.0023673262935720116 -0.058223551840265286 -0.007548018635128075
-0.0021966859128162586 -0.05823048475020287 -0.007615088467064655
0.008244874881280855 -0.030519403015021644 0.004281944941920798
-0.0015528970047600662 -0.058224530049832274 -0.00778840196749007
0.008252250263280766 -0.030397665579654128 0.004253013659994711
0.007992654078545887 -0.03049521006370287 0.004594821490841402
0.008061723541738414 -0.03023855531923289 0.004476424471816305
-0.008012445288957818 -0.04867052094457462 -0.0027404322657681736
-0.0021637518818035098 -0.05797515889402507 -0.00859183048422618
-0.0018129904448182708 -0.05813583175764352 -0.008276621134400895
0.007879137360628088 -0.0302797466915891 0.004710577571076869
-0.00789311414889773 -0.04906563916190807 -0.003177299360224179
-0.0016023468464513848 -0.05813877603190092 -0.00830608363338268
-0.007979881442763093 -0.04905905990049446 -0.0028656127533805585
-0.0017726937339676556 -0.058187093129154606 -0.008055317448223463
-0.008027557101435373 -0.04895326576864005 -0.0026801322191115492
-0.0008262325725007613 -0.05817432177525187 -0.008191942830879992
-0.0010443747776475703 -0.058194091649990884 -0.007692889491650602
-0.0007866358924698467 -0.05817393667956321 -0.007795644305662867
-7.937762964326667e-05 -0.05812439783902534 -0.007827542910729533
-0.00048391412229650116 -0.058162023106056567 -0.007855002032357254
-0.00830593118045015 -0.050383646218846154 -0.0010843514890845844
-0.00831439199005543 -0.050362271295399184 -0.0007493833611757419
-0.0013283885705815326 -0.05818990038985031 -0.007509978553196114
-0.008299823644512183 -0.04952194055186322 -0.0008944407983949347
-0.0011768673893794526 -0.0580759828848419 -0.0072852891111584595
-0.0009808142462402031 -0.05791756589891689 -0.007179445986269778
-0.0007409966404804975 -0.05795456522780731 -0.007325790335105741
-0.00011927257354700765 -0.05767833033045751 -0.007333162699357952
-0.00040607531418242036 -0.05738371395161068 -0.007200881480377992
-0.0026588711269957682 -0.058210990482598104 -0.007184299692710424
-0.002128313481876419 -0.058231520056048106 -0.00733755684639761
-0.0023319570775321838 -0.05819600789350489 -0.007085330650997528
-0.00780924739675997 -0.04858101826507897 -0.003438294712579854
-0.007916652324116499 -0.048434001046356534 -0.0030926727588365156
-0.0019858735838758634 -0.05805876996481674 -0.0068676928563333635
-0.008018491434293295 -0.048464975480353986 -0.0027242526838233234
-0.0027573540583646994 -0.058116850526692944 -0.006676527590509192
-0.002432469710660261 -0.058131780484105056 -0.006829416642042315
-0.002431374942465499 -0.05798823812613898 -0.0065650686416515785
-0.0023590627137139103 -0.05772229154212558 -0.006360989578045715
-0.002161450122638164 -0.0576710162008842 -0.006453930858494641
-0.0016742324570924814 -0.05776668676582685 -0.006798176383777843
-0.0077003146198758796 -0.04669769306142084 -0.003746663427264409
-0.0017339895226869799 -0.05764392577184752 -0.006718131062092401
-0.007941154567043432 -0.046874805189184084 -0.003012352873253897
-0.0015802948178493639 -0.05754674001226738 -0.006765090907345011
-0.0077827937867389185 -0.04642160187527236 -0.003523861500983604
-0.0016981956602225194 -0.05726055539736812 -0.0066192178042122525
-0.007859736748504981 -0.046562580281389335 -0.0032928563786528697
-0.007783601582054991 -0.0466303493477505 -0.0035241681075996395
-0.0015490797570221768 -0.05702503812901959 -0.006622683129335787
-0.0014492393540413444 -0.05805258167382199 -0.007124500968833483
-0.0009724445530050409 -0.05771041042908753 -0.0070816552129888116
-0.001326204472886739 -0.0575365585480517 -0.006886700390741046
-0.0008389439334854635 -0.057327435050016494 -0.007054326564982928
-0.000986673659471545 -0.05741631852206179 -0.007010882244334285
-0.0009092764671376541 -0.057011379552678314 -0.00695032789996776
0.009648165310215093 -0.04367085089305858 0.0019713127554454217
-0.0004849652318226807 -0.05720122598387641 -0.007159285067742524
-0.008010279186964224 -0.04612728496033397 -0.0027648169018286003
0.00959259467726391 -0.04349195031580695 0.0021307192664552447
0.009385986705502489 -0.04342249166811412 0.0026971300211257143
-0.008057869762109949 -0.04606842944434965 -0.002575708212818163
0.00943884398055578 -0.043576475557741814 0.0026013643559226795
-4.206921012425352e-05 -0.058122840685441074 -0.007819886755778722
0.00039675670346255053 -0.058080484918952936 -0.007786429858560789
0.00020393201797660259 -0.05794222618859743 -0.007554807921287552
0.0007706745229456398 -0.05807389328457712 -0.007788886558668714
0.0005785345121602264 -0.05785091473763154 -0.007443333372745335
0.0011016878155239672 -0.05787179237228192 -0.007366111412595561
8.715020971301707e-05 -0.05767773737393381 -0.007357631370364879
0.0005194631672299902 -0.05777844650277232 -0.007398531653253398
6.008531874658779e-05 -0.057532679417871505 -0.0072978647627941024
0.009274711281797203 -0.043264599815504776 0.0029370588302862983
0.009217248676754955 -0.04328986868052505 0.0030772780677024406
0.0014355955243499478 -0.05803685513054886 -0.007589094415750267
0.00917558086047085 -0.0436535775442146 0.003238372009942156
-0.008292075269348352 -0.050953704727271246 -9.8838854189891e-05
-0.008287009142832457 -0.05082113005604125 -2.243219543524109e-05
0.008800998029939193 -0.04343992239582554 0.003851584605557943
0.008941766722734371 -0.04403464915065656 0.003749730612623469
0.009043659626095721 -0.04372279383827201 0.0035081111664755893
-0.008288884143147036 -0.0502596426416267 -3.8477752442908685e-05
-0.008269575489745176 -0.050515435861876845 0.0001867712438629108
-0.00825892743291763 -0.05015286587648653 0.000271824197449624
0.00887035196091512 -0.04320676356622127 0.003646130800174686
-0.008187234243793133 -0.05372351437842767 0.0008337760836322401
-0.008139064325373929 -0.05478677809659077 0.001149822504013332
-0.008141746350638857 -0.054380299455016504 0.001101905130228088
-0.008057672255909908 -0.05456585485130202 0.0015557451770807237
-0.008160032795244243 -0.05417578480427063 0.000991934549849262
-0.008097777268755003 -0.0540868605637848 0.0013698395850769395
-0.008022935401540103 -0.05463093338384391 0.0017064251173570925
0.009578332971164494 -0.04330893075447746 0.0021583936204896074
0.00961626813606117 -0.04311957569117967 0.0020382605863377757
-0.008002104860127845 -0.05423185936604381 0.0018235776173972855
0.009496028418421764 -0.04332897832295348 0.00238349692266563
-0.007944349814482485 -0.05467413122510996 0.002029143751611234
-0.007920105166070598 -0.0543261475709403 0.0021441223403139012
0.009391173262350373 -0.04296957342614227 0.0026039850561849517
-0.0007498653945877945 -0.056956698122432745 -0.007004845359759012
-0.008074052979712086 -0.05377301193295207 0.0015234236936612652
-0.0005030906198927941 -0.0570571091212595 -0.007134258613195585
-0.007984196225077648 -0.05408781155953356 0.0019094349290856689
-0.00800402341791361 -0.05359596644726562 0.0018576616588039086
-0.00013422691635141436 -0.05673628310941696 -0.007111950705153699
-0.008189509972965638 -0.05366387680747578 0.00081657168416954
-0.00014919648265518482 -0.05667390971269848 -0.007096891681274885
-0.008144009583875176 -0.05362334057005583 0.0011348988066136535
0.008228429967316655 -0.043747510186178055 0.0048809908173046024
-4.839599086840063e-05 -0.05657720253507086 -0.007036249672107204
-0.008247308299898908 -0.05262470785783077 0.0002980694093792411
-0.00821493024676564 -0.05284956695641405 0.0006426725738824887
-0.0008618212084308969 -0.05667554541049225 -0.006848535339811226
0.008418889073216737 -0.04277080208538638 0.004004102271748021
-0.0008179089439563366 -0.056696741737791795 -0.006880609603008736
-0.001264480204942687 -0.056765105872567015 -0.006691594545438458
-0.001085179331134701 -0.05623971538236412 -0.006542172248923309
0.008074946171512864 -0.043169647506926034 0.004801507002900767
-0.008129884562022459 -0.05332067418655512 0.0012192937927347415
0.00873613972180478 -0.04388251350464932 0.004095915145977837
-0.000381795208212415 -0.05599114162915507 -0.006936055970768651
-0.0010284995523582752 -0.056231515554054215 -0.006577283304256441
-0.008109814544487256 -0.052945997778694256 0.0013180425408486063
0.008502250660943764 -0.0436490624826343 0.004399292597558662
0.008491006039405075 -0.04340877294623432 0.0042918809805087815
-0.0002399341149198159 -0.05615808630034301 -0.006952956019093131
0.008649507722444334 -0.04327747070349993 0.003984068714686637
-0.008094622571213234 -0.05254308393822324 0.001361037367017756
0.008430633125347642 -0.0429571894902745 0.0040673796690970454
-0.008110453876358076 -0.0535935443696782 0.0013415734113904495
-0.00805669446504141 -0.053403628409642176 0.0016203765181370382
-0.0005693058879099721 -0.05583601951160985 -0.006824270614031585
-0.008065400680753877 -0.05302294326427861 0.0015717184568657264
-0.00029596908850363783 -0.055348813351910005 -0.0068051480545640785
-8.898979854153464e-05 -0.055863294172396105 -0.006862648877158485
-9.752842031795564e-05 -0.055622112195735346 -0.006810836841100752
0.007750557360560439 -0.04347707938718504 0.0054275907705236045
0.00017749274539918954 -0.0555276640895728 -0.00663474197710132
-0.007855871125102928 -0.05420272628143369 0.002380765266201597
0.0001765858238577558 -0.057292887467381995 -0.007218236761154516
-0.007967616781603707 -0.05381779710860472 0.0019954716504432856
0.0002142323048116418 -0.057053307735875955 -0.007148498555322036
0.0074386048847333115 -0.04350450041558155 0.0058291221345004645
0.0008019959941476928 -0.057642493996568005 -0.007227654597585169
-0.007891835127200427 -0.05404481232614737 0.002265541046844418
0.008053170525190924 -0.04358316164332043 0.005066772790344923
0.0006017531724249929 -0.0572342668160869 -0.007071411881618295
0.0014306128556814755 -0.057852907154521925 -0.007230162321837017
0.004299662135451051 -0.0370487410686529 0.00801335151197175
0.00789532869512693 -0.04302233276180134 0.005005528332650677
-0.008014479277110484 -0.05330713984981443 0.001810671697418862
0.00782432759606375 -0.04317695479345638 0.005215580900469132
-0.007967469771391735 -0.05347814079231404 0.002000994113382501
0.0042130464810799665 -0.03670236207529022 0.008026486549544659
-0.007978957374428736 -0.05304601496376054 0.0019520533659839216
0.0021979503406062808 -0.057755268415696816 -0.007207008851896808
-0.007870476484821925 -0.05325582545535869 0.002360218837659685
0.004525310492435978 -0.03665925598223459 0.00790853718689763
0.007660978983412165 -0.04277915036461098 0.005300001735330325
0.001298548855175619 -0.05777476231303249 -0.007170155672098215
-0.008002863442977945 -0.05270043408203864 0.0018421704185737453
0.007526442368168785 -0.04280310145322238 0.005547540602361856
0.0011000143303387631 -0.05741270137268831 -0.006863245513751116
-0.007965130064985783 -0.052806724137423426 0.002000499049748479
-0.007963925183123053 -0.05230272055272704 0.001951133196484743
0.001944684291417783 -0.05766709238058338 -0.007036330933835923
0.0022861670463183246 -0.05751401074629028 -0.007027691436359762
-0.007851784087363419 -0.05303640260618915 0.0024131784691987495
0.00419044851564524 -0.03611714039461473 0.00801190925330855
-0.007854212147498289 -0.05251533199551389 0.002390651021044029
-0.00781723822775616 -0.052650205475832434 0.0025121073974496903
0.004512949775470413 -0.03651911048194646 0.00790738597313683
-0.007874986549521807 -0.05246878949730642 0.0023155924515039237
-0.007786434558239004 -0.052703058053101895 0.0026049236278153486
0.0046771080510069896 -0.03560279992280724 0.007773400281577841
0.004285544337603609 -0.03563293059589954 0.007926714358253067
0.0044608964899586125 -0.03564199170670033 0.007862562228062118
0.00447829834894759 -0.03533229654370517 0.007835446260021063
0.00877368599352261 -0.041385072851561885 0.004219837439281216
0.00047918926123401617 -0.057047594064673884 -0.0070088329566738395
0.004976916402981808 -0.035575235222484715 0.007644435033465359
0.0007710461422556333 -0.0571272369582929 -0.00683594307489189
0.000856584962499304 -0.05709038497632692 -0.006711718921143911
0.0007827869638563867 -0.056908755339529306 -0.006597188668151593
0.00927946717652773 -0.04111579280870566 0.003294585539960146
0.0009735581547260621 -0.05695706494496834 -0.006419473229822089
0.00916251706836177 -0.040811580852316745 0.0035753407976864306
0.008902114880063816 -0.04134714752456752 0.004038596512835812
0.009049823719998695 -0.041174372609151286 0.00384759528934037
0.0006852862120033201 -0.05680532929412907 -0.006603578867637422
0.008342812324446273 -0.04162958858619241 0.004671171027930935
0.008571334405159522 -0.04135155162817819 0.0045242564024093705
0.008215180145205668 -0.041686738838847257 0.004819648699741545
0.008328031762455638 -0.041397708402641294 0.004880429920567241
0.0007089630777960406 -0.056604325270523156 -0.006443204581225233
0.0008928995092600887 -0.05659958657064415 -0.006298128020528718
0.008248072370808296 -0.041304144338443004 0.005039724174752149
0.008020089062067193 -0.041234317830337916 0.005327692614987495
0.00816491974437826 -0.04098502691991532 0.0052216809105799684
0.0011020492925070606 -0.057319412185647664 -0.006740276463520893
0.0014525385197360042 -0.05728175000167358 -0.006483541549949071
0.008502498698759827 -0.04113244458800633 0.0047338750695090845
0.0012326748436080098 -0.05711110535122042 -0.00631272315149017
0.0013393509219165453 -0.05718055315497257 -0.006365903251109797
0.0015953256153432432 -0.05727173332439086 -0.006438701909334605
-0.00824442485792494 -0.052446053883992275 0.00032424430800387637
0.004253013574014705 -0.034581413961111765 0.007913019199491854
-0.008242987530171357 -0.052051654241651674 0.0002993162312418233
-0.008224412850239383 -0.0522650085795679 0.00047350090796190766
0.008674509850794503 -0.04045713980663591 0.004439854966510984
0.004256349167132629 -0.034175717308586914 0.007932846807591428
0.008575597617199476 -0.04017891480365597 0.004508275544392232
0.00231705068041597 -0.056895626417785665 -0.0065876912410032405
0.004458382822173151 -0.03509744085519977 0.007845976999861407
0.004758775014509919 -0.03520954554061742 0.007771718110186275
0.008367371700542124 -0.04090367408024893 0.0049824484295390315
0.00839516109415418 -0.040538115841136695 0.00492422446335623
0.002114756684165616 -0.05678932134000572 -0.006371242887778554
0.008454741376771064 -0.04081553046909027 0.004866011264196537
0.004889918060392112 -0.03517849788840671 0.007731162669568687
-0.008226758965429798 -0.051640336753139525 0.00048058574564523843
-0.008247633600512871 -0.05155025384111391 0.00026774531526323154
0.005011055641922545 -0.03494203252115041 0.007731333858017854
0.0011929274249451323 -0.05671667015379444 -0.006127900992052026
0.0014799549850992057 -0.05684598337028053 -0.006076532497201227
-0.008157055116373012 -0.05216700741817009 0.0009368147282019855
0.008400748097707801 -0.040266245441029705 0.004805835068569688
-0.008161113086349486 -0.05194578231407233 0.0009117972259849995
-0.008118497773414127 -0.05228799648964442 0.0011708121170881567
0.0011420986327604229 -0.05635534148274712 -0.006139618065298448
-0.008087563705223942 -0.052269076703740494 0.001355717160573036
0.008210682049198354 -0.04012610616901208 0.0050335975543993675
-0.008134580340688261 -0.051883090950702024 0.0010697231418592707
0.0018461081731366523 -0.05677535603101923 -0.00618368903207695
0.005379556090177705 -0.034751183929252596 0.007582460326273452
-0.008202965776195333 -0.05186230336625087 0.0006320360418556421
-0.008227074093325897 -0.05136096781812705 0.000527166268006438
0.004355159475738018 -0.034652786499998325 0.00788842496561972
-0.008140967212852455 -0.05136502569253596 0.0010754707073906693
0.004470605588042562 -0.03453347177793755 0.007877004729647074
0.0004140863744031156 -0.05572747686422734 -0.00645531174524989
0.004467445320577479 -0.03417549768067078 0.007890283609115565
0.0007026304689695896 -0.05567516471778622 -0.006279501952992329
0.0010752824450889723 -0.056018867119777736 -0.0061643546808719425
0.0009781837178842445 -0.05589413749667781 -0.006178729632474261
-0.008274413163659133 -0.05138442089725262 1.7360978573939224e-06
0.004445923939482456 -0.03388427647275746 0.0078925932342537
-0.008268675600062694 -0.05104299201546091 0.00014032774282772908
0.002143432060345762 -0.056315635491868375 -0.006315539383186909
0.0045065580915544055 -0.03364600959081954 0.00785896908251858
-0.008228439560586331 -0.05124613337337409 0.0005293570174771436
-0.008249305242219482 -0.0509039910506435 0.00035781901413716333
0.004660178764055828 -0.03335284619592129 0.007767427659875697
-0.00819214668155311 -0.051149270172467384 0.0008287543035818152
-0.008198791242751878 -0.050733738984583714 0.0008136749618155104
0.004728953214920498 -0.03306791409702983 0.007686311541526281
0.0014850571723043426 -0.055936088988615296 -0.006154430998582043
0.005079041487445896 -0.03384239299821579 0.0076570303429885685
0.0020707490475587245 -0.05632469167882316 -0.006290761197415517
0.005498384298908787 -0.03443525885667027 0.007495416924532882
0.0019513308456890798 -0.05609369118491982 -0.0062507833500714
-0.00823334699967792 -0.05018659895169735 0.0005293714543531135
0.0020908621281826253 -0.0558539724722186 -0.006313009617561512
0.002352713032848522 -0.055864498830520706 -0.006389752192829286
0.0021764106861945094 -0.05553733775228423 -0.006361432216732372
-0.008079259687685037 -0.05194891061671003 0.0013732729714011434
-0.008052242506688654 -0.05194680043457025 0.0015109368039245034
0.005234324399378706 -0.03329910861201094 0.007439151011228263
0.005628302495753292 -0.03386317781453562 0.007310781724194455
0.005591366967126684 -0.033561677216545155 0.007259902135958795
-0.008060032980588723 -0.05155123774010691 0.0014510511390506626
-0.008094488981974296 -0.051443366695082225 0.001287396837731217
0.004634149327482422 -0.03399909788505694 0.007851558845736163
-0.00804484638872447 -0.05111850298266375 0.0015602883339356736
0.004640056519254921 -0.03370888096691525 0.007824687766003424
0.0031351202424025775 -0.05794875968435508 -0.008725746418984241
0.004748255903108909 -0.03352513861289167 0.0077582061763888915
-0.007989937375629788 -0.05144967049237487 0.0017962536666570074
0.004771746217971209 -0.03322106469731696 0.007694011048449897
-0.007962087177079448 -0.05134952494596875 0.0018957345034840917
-0.007921495543955796 -0.05102790195471904 0.002062794714869994
0.003809023809202473 -0.05791191203557984 -0.008665487016272625
0.004058408682000501 -0.05800263900708877 -0.00834747378596968
-0.00788018623070384 -0.052198111557744925 0.002265744824783517
-0.00788593355370645 -0.05174492520280011 0.002203403648109095
0.0041236203449333065 -0.03290159728734441 0.00793712707017127
-0.008144245146256725 -0.051167555539274656 0.0010750679068160071
0.004469937142104871 -0.05788276518351733 -0.008463984519894253
-0.008122635101345914 -0.05077261537979609 0.0012342094977071199
-0.008068345874623484 -0.05095720230102437 0.0014747558391399933
0.004599782522990411 -0.05795143498613561 -0.008194011519001811
-0.008156092045080483 -0.050516544962486934 0.0010771383440762862
0.005219394987907043 -0.05767206430517795 -0.00835358581092884
-0.008116748394702679 -0.050305851007158786 0.0012669503752622568
0.005204029469858214 -0.057551717612341374 -0.008494085080218799
0.0027326618536985072 -0.058048726527075524 -0.008415271573750957
0.0025517559229430832 -0.0581229977845683 -0.008070510289206927
-0.008026023868672995 -0.050761966728754666 0.0016785254096065216
-0.0079594261919396 -0.05084800145561363 0.0019308890901726878
-0.007968394731025433 -0.050460959712058814 0.001907826243187563
0.003036483971521375 -0.05801904473424809 -0.008486227886044629
-0.008092401643093595 -0.050394344307876274 0.0013840304965079529
0.0033688032236814163 -0.05805291964583425 -0.008253205365767385
0.0037544045953409044 -0.05803263747066892 -0.008280121231120449
-0.008028750447837742 -0.05024757338170425 0.0016693372159468306
0.0036797753431738562 -0.05808481761339648 -0.008001265028368716
0.002668270817590893 -0.0581225804168007 -0.007903040839122044
0.002534795960271223 -0.05802560872313047 -0.007564405402353159
0.00315059848513723 -0.05810585989884869 -0.007812533765556589
0.003620488466010568 -0.058122085856586216 -0.007631778707338075
0.0034879060928488556 -0.058059645012956386 -0.007431154828252968
0.004130530340740529 -0.058069890947824734 -0.007992262255222064
0.0039404118359940505 -0.058106795394413754 -0.007745725155097631
0.004437496977101454 -0.058026949317687274 -0.007991761706875343
0.004461229444415991 -0.05807831178695592 -0.007607886136698146
0.0048986436756431415 -0.05800294069480546 -0.007666671266593485
0.0036817471641507325 -0.05810161581486779 -0.0075038889963372265
0.0035959690509836445 -0.05798823424467086 -0.0072641443768577275
0.004251513532735932 -0.05810129618939526 -0.0075955535715018785
0.004677056920439327 -0.058061865676941646 -0.007471988022962631
0.004631629623903892 -0.05799605739536241 -0.006999147837236351
0.0042312315887602266 -0.02992990053674795 0.007829619931655377
0.004973567455902873 -0.05794560258996156 -0.007874207278471183
0.004477945298800702 -0.029270080982708776 0.007670360828408082
0.004624442107396497 -0.028760684604570826 0.007549893349987553
0.005257338730283072 -0.057808557365536785 -0.00809207301802605
0.00538077836221117 -0.05743881024536268 -0.008481059591870637
0.005724057340364598 -0.05755714224107414 -0.008164707154788687
0.005902644889198556 -0.05730359053003087 -0.008243976787621541
0.0060102999140686265 -0.05739067109964906 -0.00812435060550969
0.005044236357019553 -0.057993819861105994 -0.007586561203298717
0.005092802313592408 -0.05802080547394663 -0.007217498888085752
0.0049380020154328975 -0.0580328270127479 -0.007089316658317687
0.0054013824308028775 -0.05798185099927536 -0.006906869819562346
-0.007968684182236598 -0.04992933624582482 0.0019033862836490764
0.005191017962257483 -0.057873508192481236 -0.00797174083539706
0.005406616623358137 -0.05783988243737162 -0.0079228265524482
0.005379531645994629 -0.057916342692083254 -0.007686679061927737
0.005854516234562716 -0.057774213750800656 -0.007734742932496498
0.005841475518259993 -0.0579057620666804 -0.00730773301220719
0.006222782581146423 -0.05756693997182738 -0.00782595031904662
0.006804638992067469 -0.04319299146739843 0.006411316624864402
0.007133236083825822 -0.04340500028474201 0.006138759477819272
0.005553201826266949 -0.05795862289680488 -0.007239754469795423
0.005691061871068099 -0.05796541583776463 -0.006995165290311783
0.005758757479304698 -0.057957781002174094 -0.006789529622242673
0.00633359762255824 -0.043239494320507665 0.006781336914713488
0.006202632903621366 -0.05781550555785681 -0.007334591497698268
0.006694255284741439 -0.042901671153416684 0.0064738167281246425
0.006234834317345132 -0.05770047620793592 -0.0075942961272679466
0.006388684485436505 -0.0428717655584341 0.006712404368711687
0.0064886756897949305 -0.05733299648734959 -0.007863445917413892
0.00655478170567973 -0.05756464459845822 -0.007599560928275595
0.006255084566528167 -0.057749429608356204 -0.007497084926438776
0.006501374407181961 -0.05768911277957407 -0.007436057693013237
0.007083573785081636 -0.057457498497726044 -0.007333112270864396
0.007121177113348965 -0.05750310002198592 -0.007244084562249401
0.006052584926565745 -0.05792110471103967 -0.007015675125348356
0.006180581206172243 -0.057893331993632696 -0.0070684296618411585
0.006418345891337353 -0.057882152898062755 -0.006913230413886848
0.005873841719016578 -0.057954494964354016 -0.0066709762443589934
0.006426502436818678 -0.057919460649653906 -0.006679991744584718
0.006841421349171594 -0.057814529835032616 -0.0068282184759091945
0.006819060267341373 -0.05786088855051376 -0.006629022844815443
0.007079888065533395 -0.05768651113149706 -0.006985892103775446
0.007498706176268469 -0.040993471562898495 0.005793556987195159
0.007820225660380355 -0.041180004669783346 0.005526196019895873
0.0025011102285181943 -0.0577691011548648 -0.007270885006664637
0.0027282919143227944 -0.05774212049789021 -0.0072561881484574375
0.007212621769028876 -0.040786531483314924 0.006003173459724139
0.007474373565348224 -0.0407234226083254 0.00584368569514705
-0.006943298949594913 -0.04968262070694051 0.004290080308458963
0.002578792802858325 -0.05746815459443477 -0.0070855984923277795
0.002750642218042117 -0.0574377711980175 -0.007091330960175552
0.007775751037369752 -0.04063116891341076 0.005632007516333552
0.007870056455196686 -0.0403622629873388 0.005561247750369975
0.007953140912814757 -0.04078503421034601 0.005453181528876185
0.008009725965238553 -0.04040373276093926 0.005407542671703814
0.0032730567625018736 -0.057537881058929936 -0.007076873592443248
0.008040782941879501 -0.04007579610441615 0.0052573471340078715
0.008004958110810758 -0.03989537115921089 0.005224960337792254
0.004085352324178599 -0.029334701649830004 0.007818391628450853
-0.00830875782318995 -0.050222984173233384 -0.0005177166641081537
0.0025272463357022077 -0.057146606414562706 -0.006885911329648487
0.003851394274788847 -0.029194564193975533 0.007891242178370528
-0.008308954335163264 -0.050005011339779255 -0.0005972642729873958
0.004293122866117353 -0.029160072124573555 0.007731451210928442
0.0074152537531837195 -0.04049198246246308 0.005914570915226665
0.0076333445239392785 -0.04039033330183198 0.0057796900133609014
0.007670431905745689 -0.040314497628745186 0.005760471939799198
0.007247238494365195 -0.04026126981844507 0.006051037949229864
0.004016929746426438 -0.05779872237164721 -0.006944677347849489
0.007429478827952682 -0.040017025795250294 0.005932484579773606
0.003816433868690658 -0.05744711557570894 -0.006865651730787832
0.003641982095016833 -0.057487417006791164 -0.006947616587884746
0.003888461959361711 -0.05758413022539348 -0.006884936805659105
-0.00829058941292866 -0.04933982621588929 -0.0002895402425467947
0.004270038989743856 -0.057888118555065544 -0.006933579634528094
0.007400645683832349 -0.0397030005809888 0.0058882801078744915
0.004184184722932463 -0.02891002277757987 0.0077581499922313385
0.004182376558280644 -0.028647476004514536 0.007746176616798451
-0.008276620926744839 -0.05002857371235863 7.816041671009571e-05
-0.008281729812379932 -0.04967935429119883 -9.579936458392098e-05
-0.008266174953145125 -0.04957206304578357 0.00011341171485130718
-0.008247548095336036 -0.04993965042140073 0.00036370370626598466
-0.008253465521842756 -0.049615229100559675 0.0002619712394278526
0.004110463564791833 -0.02780197088879515 0.007755225411627412
-0.008267451612021318 -0.049529828571071875 7.671595299975798e-05
0.004451583748588428 -0.028173617280576907 0.007601707758938087
0.004613724530590658 -0.028095373172221022 0.00752146582197232
-0.008256257972668605 -0.04946066252246194 0.00019442882133333337
0.003013632666559996 -0.05682030182529719 -0.0068684568218175404
0.0026817598621185663 -0.05677586291239322 -0.006731913372721532
0.0029663384162099326 -0.056497418765830726 -0.006679038497186443
0.0030705292507148827 -0.05702787214547565 -0.0069511302559169645
0.0035904249318623955 -0.05691931835488813 -0.006777790225571066
0.003160479219891234 -0.05670903522574092 -0.006798600497181187
-0.008293681673810097 -0.04873950698855753 -0.0006144058291420843
0.0035730716967871147 -0.056595335372861835 -0.006607476225829711
-0.008288552830479114 -0.04894785846269864 -0.0003008011750906687
0.004304965160009595 -0.05738617139688955 -0.006614474678551785
-0.008278625615377157 -0.048844764731924235 -0.00016129205805875314
0.004149492195068868 -0.05715704458339291 -0.006620740718814003
0.003832371857531555 -0.05681048053926022 -0.00662309726994869
-0.008289456346862876 -0.04816421592949482 -0.00038382985783507546
-0.0025182987701550036 -0.03968798968646423 -0.009169117007579582
-0.008293077329039542 -0.04816208986138042 -0.0006042275458640501
-0.002432999324093849 -0.03947155412423461 -0.009124281908925747
-0.008278108915215505 -0.04823669530734502 -0.0001961830021499965
-0.008285214192837549 -0.04786490040794662 -0.0004159712012942968
0.004415481796829682 -0.057100306496751525 -0.006438857440929192
0.004330454612649787 -0.05694997785510779 -0.006422373843952939
-0.002126704498299412 -0.039011659303614735 -0.009118340984709886
0.0040023381640609005 -0.05655320853838003 -0.006398343722155992
-0.008224526348334028 -0.0496481607366414 0.0005354158416070264
0.004620010943355375 -0.032714456319222505 0.0076837404589971655
-0.008238104777533917 -0.04925090245273681 0.0003345783292694121
0.004894455391740146 -0.03251973852039677 0.007507101130527704
0.004992760066429553 -0.032376135437899814 0.00744165666201935
-0.008196721471661781 -0.04902083853047568 0.0006191134896926084
0.004892123537270317 -0.03239715801471264 0.0074982955182391385
0.005027684489259121 -0.031894206668086844 0.007428287914055772
0.0024726479426201917 -0.05657850628698108 -0.006501921846118853
0.002604599090700203 -0.05654597543447515 -0.006558651858212811
0.005241999992437215 -0.03305738148441715 0.007382570698826637
0.002480211707568249 -0.056191460920791324 -0.006422892128786303
0.005486171924766483 -0.03281132299880875 0.007206048254452054
-0.0038182939645245084 -0.03904948800459218 -0.008606057474959974
0.0029811121388140594 -0.056231047561649594 -0.006565219305770859
-0.003670899723265481 -0.038942157491671264 -0.008714360645949692
0.00304255731798439 -0.05597300762990595 -0.006541518180274054
0.005088726664296226 -0.032862649125950286 0.007437909544570657
0.0025321149275048657 -0.05601349093928992 -0.006439771381703008
0.002747529933897002 -0.05577656455476263 -0.006504769087034161
0.005064534536791816 -0.032728151827988196 0.007433790158578238
0.003252322368160262 -0.056306864152094266 -0.006580611333231703
0.0034329305905574916 -0.05626219825039162 -0.006517229197725508
-0.0034913370526679054 -0.038437078060337 -0.008810175943836467
0.005268842083026974 -0.03203634657261012 0.007301410674124419
-0.0031745658956451404 -0.039181013625860794 -0.008996940854284334
0.003608633314220221 -0.05609488635627931 -0.0064132042500337815
-0.008207420086995182 -0.04797438072336495 0.0003936683184407915
-0.0028762307085251865 -0.03924942916329984 -0.00909089693255748
-0.008148860142252827 -0.048483686012166044 0.0008912214117509757
0.00367714186488604 -0.05640462722666404 -0.006477874804063689
-0.00816535611513649 -0.04834345760111613 0.0007684665236090955
0.0038564296298448553 -0.05617063883808812 -0.0063209780911968145
0.005096195286774967 -0.03170907604793616 0.007407260044070763
0.004067144866838016 -0.056116022341793644 -0.006179304311744468
-0.008088075309777891 -0.04834430015799843 0.0012836559530816144
-0.002615809424424253 -0.03867501633857987 -0.009104746634221322
0.0051657717387987336 -0.03128790713697423 0.007414686870430293
-0.008185828869343627 -0.047989851080245866 0.0005678455234886832
0.004451211198902223 -0.056474064299325 -0.006004861863710774
-0.008196849795555707 -0.04774080407458235 0.0004352646392608601
-0.0029298725853804746 -0.03838315393367737 -0.009066525272169616
0.005338735459347161 -0.03177741522297241 0.007269131448488599
-0.0025114157874450813 -0.03907957245019009 -0.00909330075552136
-0.008149520444552485 -0.04773588055043891 0.0008430679359207956
0.0043964768792491 -0.05608065849252643 -0.005804059008896121
-0.0024987528222766846 -0.03849602117011651 -0.009111239806023482
-0.002245028626700305 -0.03857328672840434 -0.009126926970702933
0.005110644155054141 -0.05794576402580628 -0.00674069456484382
0.005541909019837589 -0.031258705258199286 0.007161282361457036
0.004896236697756155 -0.05769632693460478 -0.006459081669478281
0.005415799503606345 -0.05788681121336063 -0.006463983010704283
0.004271196259500024 -0.032242064138576866 0.007828000182955586
0.005223746087227658 -0.05778793830604506 -0.006385074153016101
0.0056248038530835156 -0.05789835176787908 -0.00639743953121905
-0.002319745768034491 -0.03811718477444334 -0.009109402000314232
-0.001949801359902265 -0.038285817132064595 -0.009183690426515427
0.004321373133486735 -0.03236382467232647 0.00780659509294148
-0.0018466355186006588 -0.03798106244182375 -0.00920288904070627
-0.001710579176466628 -0.03774522869203864 -0.009258005971978902
-0.008283061776089635 -0.04760194241735204 -0.0006024051727837912
-0.0023219200209632805 -0.03784555298849292 -0.009119914914090652
0.0044452106095268906 -0.03165467268173927 0.007756614952074835
-0.0021716615828020415 -0.03748482084455172 -0.009171053737618406
0.00453174154746854 -0.032131867778588695 0.0076904881120093355
0.004644143913975517 -0.031803353084557714 0.00764425283097405
-0.008265973095630853 -0.04712443163508078 -0.0005022370765734245
0.004834150298974939 -0.057475916766069834 -0.006336831241208913
0.005024178211679255 -0.05751024511584237 -0.00622902069548942
0.004769223376527928 -0.05716543687294122 -0.00620922216697847
0.005023301963742871 -0.05724878365917992 -0.006026864219177672
0.005286648676845568 -0.05754062577536964 -0.006003826836760033
0.0046240336233920425 -0.031522199256955374 0.007688767433797704
