-0.0037037918435725886 -0.05742564246989984 -0.004719670463652265
-0.004654991028322621 -0.028713078692427996 0.006979155596778792
0.003754191730187391 -0.05800958266417254 0.006301309610332439
0.003500182025686336 -0.05778902898713211 0.006150493656873984
-0.00432675038755354 -0.02924462439446763 0.00716833013673256
-0.004236763307067163 -0.029207265612433052 0.007236255778604127
-0.00416411872523319 -0.029033394221442653 0.007296820167990586
0.0040237245984862495 -0.057848483173235765 0.00596960577471519
0.004436131667139348 -0.05804293103921697 0.006127118159122636
0.0041186092744966134 -0.05810406721917395 0.006510503818667011
0.004323993249850517 -0.058107603276456594 0.006442511247985913
0.004661213379956924 -0.05805538870646627 0.006114980168751107
0.004762939692961626 -0.058093142412943874 0.006414301486332297
-0.0036796321377476644 -0.029582054134874934 0.007548129756830024
-0.0036293472473309463 -0.0299418997849223 0.007553802105131768
0.004883447641296446 -0.05808426908520055 0.0064494049927859955
-0.004009715984920834 -0.02939035338678449 0.0073832671972477015
-0.0035848872026496828 -0.029284876520409592 0.0076000924510678
0.0026882075903859673 -0.058039398472754994 0.006712649904144986
-0.003767799785475506 -0.028869379432847023 0.007554053853158611
0.0033348893264822234 -0.05807742739485408 0.006600961383852056
0.0032133319563369895 -0.05808215540004251 0.0067677230213898185
-0.005991351668914161 -0.05462758273939953 -0.006674635312322439
-0.005973760363210521 -0.05463269003940195 -0.006695815945536903
0.0027627052604963136 -0.057881770825104505 0.0064152283876927904
-0.005844365533389241 -0.054403016724276 -0.0068439805993897335
-0.004637585238236916 -0.028346507484048773 0.007076250806124019
-0.004447852360846243 -0.028628076450489044 0.007163130802142981
0.003163645370056205 -0.05792844329448891 0.006377338846522101
-0.004661855315225841 -0.02818656272104743 0.00701955572876638
0.0034885199130056544 -0.058016784983371365 0.0064070167872465845
-0.005944401376604846 -0.05413900411549916 -0.0067232289462761646
0.0025486058416565355 -0.05806343400482448 0.0068847970750306135
0.0026056696531860657 -0.05808104540101366 0.00701974638693925
-0.004198467216789585 -0.028355927371971207 0.0073932815897962785
0.0022941928483948162 -0.05807145312789623 0.0072149699979965985
-0.004130963954252967 -0.028307360607426554 0.007441852209462516
-0.006333137073461318 -0.05448593973857247 -0.006256255396582026
0.002998914785971677 -0.058092354670766136 0.006966098952849074
-0.006153234353157794 -0.05419528897482241 -0.00648156079586953
-0.0046637206704082685 -0.027626067948535935 0.00703319576194074
-0.006014149322891684 -0.05411753334054729 -0.006645256808465524
-0.004464271241759088 -0.027749057314571453 0.0073177638961439365
-0.006258509695623955 -0.05423708827873641 -0.0063599470169338704
-0.004475001905042996 -0.027587241370887312 0.00730968692511121
-0.004025667852326914 -0.027981480308352704 0.007535803649433784
0.003950353071151974 -0.05809760076642401 0.006525960874915975
-0.003798861264091382 -0.027833810602442145 0.007615957741279156
0.003971507358019288 -0.05808617484872107 0.006844405492002651
0.0044979063966942125 -0.05806317050704959 0.006912938199080682
-0.00374954950359605 -0.028536855907509637 0.0075750111479256236
0.004284326262216806 -0.05804610861268709 0.007026138391956181
0.004611487367450011 -0.057988125521855616 0.007226283438414245
-0.006149818364463299 -0.05367721294567841 -0.006530366499371133
-0.006064349489427636 -0.053762767801630446 -0.0066218726725138935
0.003915153216338396 -0.05800416397399318 0.007284197213084681
0.003889827777606908 -0.05793115506573293 0.007560784723340148
0.004530810356043542 -0.05789343004276529 0.007487251311363508
0.004364224905109111 -0.057891527829748365 0.007543574862874064
-0.00705606297895392 -0.056748513446372585 -0.005161985395442881
0.005065942396306594 -0.05799698271131617 0.006988118652748819
0.004743214402305889 -0.0579770431241743 0.007200198808684425
0.005062592460600166 -0.057946817703017926 0.007149625465083839
-0.00697084743195118 -0.056220687077993506 -0.005307090679516187
-0.006859793920562435 -0.05579225922679772 -0.0054683811269118365
-0.007014200184665012 -0.056199094664928034 -0.005231830852008979
-0.007037576466972065 -0.055803494762168955 -0.005173121936591982
0.004796790237546419 -0.05769119033330998 0.007728832611226608
-0.007259111539828573 -0.056388001148673345 -0.004793173322942351
-0.007292838525385502 -0.056149157446251055 -0.004730939314197249
0.0020590386650430254 -0.05800229941494258 0.007826322229758615
-0.007140149291501105 -0.05604777809037527 -0.005005335180580777
-0.007249319223506134 -0.055965844566431236 -0.004798105702195604
0.002357270386271314 -0.058031973528851796 0.007626827539261161
-0.006903471870721736 -0.05549663440941624 -0.00539464756768467
0.002373087695357389 -0.057963530478278576 0.007920006970946225
-0.006906088054242103 -0.055029571797566054 -0.005404857434561272
-0.006814230193148878 -0.054825714724901047 -0.005558506118084678
0.0026849871935942233 -0.05796730626495755 0.00784115396694367
-0.007138368505725126 -0.05547610760763759 -0.004987255592986427
0.0032020096685959963 -0.057925096420205005 0.007847402181885932
-0.007098413816025313 -0.05504328599975629 -0.00507173990213613
-0.006957928779269982 -0.054915977509590166 -0.0053198991941307144
0.0034971307935094302 -0.05792261565945074 0.0077259108556718675
-0.007169948170448281 -0.05465784111748716 -0.004951801608955967
-0.007135758733839167 -0.05459742215989835 -0.005016299059533314
-0.0075630476171772 -0.05611362895731692 -0.004157028186575253
-0.007578551265814355 -0.05635085754416337 -0.004111137134619252
-0.007322854825953462 -0.05543396367371249 -0.004632560970077017
-0.007504980265116071 -0.055718570453751434 -0.004252342174565292
-0.00774966953954366 -0.05611076280688859 -0.003659980639700671
-0.007707316926513546 -0.05593016038479727 -0.0037750975736054134
0.007586223369681302 -0.03916455871113675 0.005563532764424085
0.007502311070102576 -0.038964822392415575 0.005718914569570572
-0.007616025214997681 -0.055675588262681736 -0.0039937697866298085
0.00780284702425525 -0.03869893094496189 0.005361507584768072
0.00783928844269766 -0.03849734240983763 0.005288494921430012
0.00772339925442392 -0.03840375168134866 0.005473305980406342
0.008016581989586345 -0.03825036572590443 0.004997057778830503
-0.0041866238363212445 -0.05716658139472313 -0.0043850355777836905
-0.004490343330564989 -0.05712695025151465 -0.0040425356135428995
0.00785517440046683 -0.03812471686216501 0.005187428186434907
-0.004086496977895878 -0.05693690567148902 -0.004215646492376006
-0.003822040011471489 -0.05697616212694951 -0.004269673354613123
-0.0034694077592709203 -0.05702209014004811 -0.004188535446613963
-0.003894852176210859 -0.056822246771444394 -0.004100164585256409
-0.003592882609707789 -0.05683468725813361 -0.0039927195795521064
-0.00447433574651439 -0.056917864367917896 -0.0038513214502291647
-0.007834340565428807 -0.05370371045747647 -0.003422387570287417
-0.007922845711145482 -0.05381802095370344 -0.0031502411123379265
-0.004394399591441387 -0.05671345468754523 -0.0037181090121378157
-0.004183262708656549 -0.0564219558217349 -0.003610937856154621
-0.007996234335882993 -0.05377526892400221 -0.0029050070218904762
-0.004483087920193999 -0.05670399231275585 -0.003276334390701321
-0.00459280643086077 -0.056881602919980095 -0.0030600859676417425
-0.004519801871992361 -0.056776187987165466 -0.003167834732017755
-0.007628231714782757 -0.053741469433348364 -0.003975876668301442
-0.007634758524073012 -0.05341256309118827 -0.003970736394620442
-0.004457354442100962 -0.05682132288306778 -0.002814535581526951
-0.007699408292639604 -0.05350809428073337 -0.0037990159967183448
0.007790921811996876 -0.03713702933434565 0.0051002832312096085
-0.007804957338170109 -0.05351008301381631 -0.0035051699714760457
-0.007742015064482034 -0.053218544996535055 -0.003680355281581878
-0.007878788853610258 -0.05360736799968233 -0.003288107538425869
0.008301571183410836 -0.036169656392830624 0.004333146013379677
0.008280054560160075 -0.03578019374930372 0.00435446418522532
-0.007696488836856691 -0.051375379024247554 -0.00379271919363323
0.008339792936024592 -0.035086951781991546 0.004431624562570881
-0.0076893593469445996 -0.05151842747387201 -0.0038090241322158956
-0.00709518462912342 -0.053818196624207434 -0.005103058243040854
-0.007274738472673863 -0.05380083087485033 -0.004760226206872693
-0.007924566737192187 -0.05320136088273204 -0.0031323887982951373
-0.007137210991894582 -0.053726558407353235 -0.005027650318195915
-0.006979165443162448 -0.053239628264706 -0.005308884452223795
-0.007927221971231897 -0.05266147695197433 -0.0030996236551669855
-0.007422429467888552 -0.05364332824037313 -0.004455956143232953
-0.008103764219769091 -0.053255162686902176 -0.002471054864942551
-0.008139674331438744 -0.05298533170068596 -0.0023089000309222093
0.007716225783066548 -0.03465748430501212 0.005182310655889739
-0.007813725394296745 -0.05195274727699219 -0.0034639897627304385
-0.007716471175101133 -0.051344321613139836 -0.0037395932584474577
-0.007775829901811642 -0.05183777276397276 -0.0035754500558119718
-0.007872450232737341 -0.05164824611537637 -0.0032998038794709197
-0.007955904674301892 -0.05124438057595711 -0.003023135697773738
-0.007969340888451049 -0.05139539398619801 -0.0029774539137222
0.004580295189720031 -0.037574119038553705 0.007904318050623773
0.004339893449731211 -0.03760525542638176 0.007998027882430522
0.004575237029447092 -0.03728699422663996 0.007905228395223871
0.004492731843668959 -0.037043980091643995 0.00793780315266445
0.004628528456585105 -0.036736097487487115 0.007865167986348934
0.005014542671920827 -0.03665568801568157 0.007666970416701299
0.004758257715592388 -0.03640429774673675 0.007768269233519243
-0.008236474618402607 -0.053064543054482785 -0.0017470410588126685
-0.008230803720068288 -0.052865566925029306 -0.0017871359461056045
0.005188114040423868 -0.03608060789705128 0.007439220527292046
0.0053799405760427705 -0.03580621555483615 0.007252416697994558
0.005040802340270105 -0.036083451166260605 0.007554967380225626
0.005176024490039354 -0.035644731866766685 0.007497740357404884
0.0061032795004640735 -0.03824637399551557 0.006928646233548729
0.0059826729340806415 -0.03819611662447329 0.007042455046736295
-0.008303270010071497 -0.05235065667353501 -0.0010537474389345856
0.005820999747831766 -0.037949351167262044 0.007251727846874962
0.005832130546151856 -0.037984281801091715 0.007232171187664115
0.006261794098786831 -0.03771428137931517 0.006859570575821587
0.006145184362336548 -0.03752142550916314 0.007033656966893601
-0.007001248784984857 -0.05047797952811985 -0.00524461580189179
-0.006918222563836831 -0.0502394456597849 -0.005379964460465629
-0.008309351587182632 -0.051542927084779165 -0.00048095589418960835
-0.006720894860856378 -0.05009779400824167 -0.0056872873623334975
-0.006720652092764164 -0.04983928616088391 -0.005679728921910409
-0.006927918281258859 -0.05005716244155119 -0.005357107836427127
-0.0067993116921657454 -0.04977456803489083 -0.005555687820540478
-0.00829835199413328 -0.05083176513680235 -0.0011973595584620152
-0.0082920750151871 -0.05081296446959941 -0.0012721799752208839
0.006101454674884628 -0.036824932865711334 0.007068752966520006
-0.00831636592278703 -0.051153038519014565 -0.0005906544253120808
-0.008311171649332316 -0.0513752303663998 -0.0004733505058844462
0.006022809515898478 -0.03614702025245514 0.006731528931312992
0.006205450783906717 -0.036644557764536075 0.006821390012313736
-0.008314152618681184 -0.0507065763506073 -0.0009029327370468729
-0.008314017762018937 -0.05039847447025697 -0.0006776431481982306
-0.007899994069116472 -0.056083059183326595 -0.0032121652043873503
-0.007959206180346812 -0.05596613643554414 -0.003006189357817624
0.005572822148158646 -0.037859469081823305 0.007435439462003181
-0.007845463286610538 -0.05533486080507467 -0.003343333916937759
-0.006589782150583154 -0.049599910359449 -0.0058665720498741036
0.005319181205550706 -0.03702829638008613 0.0076001787697118775
-0.008006260104362915 -0.05532910465267114 -0.0028118529301658503
0.005629015860054059 -0.03756317603949869 0.0074642524506905806
-0.006835273961582641 -0.04947158296778809 -0.00549339055459533
0.005711971575105906 -0.03726681807517987 0.007441185331947108
0.005834288046650133 -0.0365479176347232 0.007226348920205416
0.005531984596141869 -0.0364931697234691 0.007350823904737884
0.005530009376287044 -0.036669740889811134 0.0074396431133573965
0.006011591073364769 -0.036922497644715224 0.007186803037751416
-0.008149617869742175 -0.0557037758447331 -0.002198940714535143
0.005896882012884988 -0.036512122147618425 0.00713877785344746
0.005626806320989618 -0.03602653700091463 0.006997116518806133
0.005592145779564515 -0.036408257993436235 0.007271946553178397
-0.008222683922789934 -0.055086727340675296 -0.0017909419779601728
-0.008248003816019976 -0.055015489830647926 -0.0015678131713123262
0.005298034100528741 -0.03678258574244879 0.007565748805724854
-0.008252988242577246 -0.05543975942949795 -0.0013573938525678136
-0.0056684903200641635 -0.052345406011717256 -0.007037421861672822
-0.00816800258653899 -0.05350952319421164 -0.002180551012947688
-0.005665262507368947 -0.0527278150406124 -0.0070488284174352114
-0.005650732421717298 -0.05212276659158164 -0.007054340995316877
-0.005764350432856129 -0.051714138764791334 -0.006944935431000416
0.005393658925562006 -0.035565173447835 0.007351680454411117
0.0053136987090219995 -0.035244593464513474 0.007531157107685782
0.005427094259834758 -0.034934493719217294 0.0075334280188453714
0.005685287524768637 -0.03467356391603202 0.0073040997815663426
0.00587939774554886 -0.034131299206100967 0.007147551885607881
-0.00827783423026051 -0.05487588364716105 -0.0011352852446985947
-0.008277903734900127 -0.05531830150912193 -0.0009335152862693283
-0.008278416924277202 -0.054927427511877944 -0.0011088306026403988
0.009668967015870097 -0.04424572569775335 -0.0028058877276787636
-0.00829152514747918 -0.0550332983018641 -0.0004629399309437626
0.009741232960210823 -0.0444046898073015 -0.002514436627146512
-0.008288237623009244 -0.054977190657296 -0.00035615468884798697
0.005879952506588182 -0.03543773784156159 0.006804922010072837
-0.008291996105174474 -0.05463269341146718 -0.0003863835231298216
0.005707337444538481 -0.035421028670769114 0.007062641470297603
0.009554995570418303 -0.04364805458659793 -0.003176668595908913
0.00970206950978193 -0.044084921952001636 -0.0026596732620273386
0.009660588806670858 -0.043762134434738476 -0.002800639577708185
0.009700576364844764 -0.04365780705358449 -0.002564189794181819
-0.008298257816076545 -0.05446671660120852 -0.00046135799758505354
0.009746019383474509 -0.043920768068158506 -0.0024259083216758843
0.009758809703124871 -0.043479437600950105 -0.0021628286696993024
0.00976823651024536 -0.044020600269191454 -0.00233409358060866
-0.00829970755801716 -0.05299197430983489 -0.0010701751333708784
0.00981693902126014 -0.043724440799467065 -0.001965357941126037
-0.008263669087631499 -0.05511654346156405 4.382253983386789e-05
-0.008245877909055333 -0.05479692897987821 0.0002767430689387451
0.009567688655735073 -0.04345564768860581 -0.003094956940013536
-0.00826832150969986 -0.05447778845751844 -4.619022420994574e-05
-0.008287732674404776 -0.05416301306302719 -0.00027993489731990975
-0.008250828316696877 -0.05446703977371466 0.00016678124973476183
-0.008259259160616978 -0.0540583566008012 7.104547296993649e-05
0.00962148193410152 -0.04291942531408832 -0.0026951065259696065
-0.008222131077961048 -0.05469131910110232 0.0005269289346399955
0.009687394827414667 -0.042934754650378354 -0.0023473609619343323
-0.008240585057364285 -0.054181417291940925 0.00027915616308436857
-0.008251159491064463 -0.05394887886777383 0.00016957613243218073
0.009899864664984695 -0.04416095473214836 -0.0015360153461773125
-0.008200254212620033 -0.05431986034284862 0.0006667766844753129
0.009908199286695401 -0.04393664843984342 -0.0014414225869381438
-0.00822417628560215 -0.05406771957787162 0.0004619454015980884
0.009858568674113619 -0.043655908682865285 -0.0017131320970411932
-0.006037491381476219 -0.05154986444284661 -0.006655418397610299
-0.008214747398982 -0.05488425677339369 0.0006665601496813599
0.009845630040129488 -0.04341009132903234 -0.001681455347651125
0.008438654583367079 -0.03455155250880351 0.004260046438435156
0.009902481632145197 -0.04368860975968593 -0.001440556077818683
-0.008196458014131833 -0.05471183423586861 0.0007599668055286207
-0.008191888706349954 -0.054620674937225944 0.0007655244992146841
-0.008296536714704395 -0.05369390814209751 -0.00043063649841890524
0.009913755182428447 -0.04345278155509204 -0.0011793623797706296
-0.00588912570004261 -0.05150217008172206 -0.00682775610010352
-0.008290514092624768 -0.05334164022455544 -0.0002485247945491091
0.009913598785195172 -0.04338834879504907 -0.0010311833569263966
-0.008304783401932267 -0.05315220617518367 -0.0006380302746576116
-0.008308333061834006 -0.05282332583245684 -0.0006713044383539797
0.00993991219095393 -0.04387040280582679 -0.0006813944349138362
0.00819562664303268 -0.034907779552875405 0.004713202082284753
-0.008292112049656552 -0.0530293318717774 -0.0003057843007300093
0.008093579209253052 -0.0347162801898523 0.0048310574297524955
-0.008259701673430396 -0.05358582723567899 0.00015954148768233537
-0.008273291280437942 -0.05346478192644418 1.842413897040742e-05
0.00816632241040445 -0.03449157714369493 0.004716231951321368
0.009782843869017198 -0.04279716280828133 -0.001726973687349177
-0.008242609838250085 -0.05334638279749545 0.00035687878036514184
0.009839940932431304 -0.04319255255193785 -0.001603953640861158
-0.008283611676825309 -0.05323921126378181 -0.0001348911653601439
-0.008260648999178668 -0.0529626600690249 0.00010110415608544738
-0.008272300449044102 -0.052710157469968974 1.0881729744767557e-05
0.009892267674522089 -0.04320619507155466 -0.001255639951369789
0.009834444661406129 -0.04280320502956747 -0.0012853774937186624
0.009880352577299198 -0.04309571823067741 -0.0010190732574398966
-0.004720169959263928 -0.056133214546429167 0.00010870103866590498
-0.004814333439456921 -0.05617666898169914 0.0002822681011049584
-0.004737569014411747 -0.055928621278449095 0.0003267644685549785
0.008212448474702221 -0.03259271536678642 0.004463045498186769
-0.005058169868844723 -0.05523018871304095 0.0017479785799397974
0.009898441899974735 -0.04406781996707394 0.0003506456863208401
0.009895603255487346 -0.044146934974268304 0.0004757353315995627
-0.008299387935407332 -0.05283796477670415 -0.0011133131176974927
0.008877011571730077 -0.0321521849582326 0.0027307366389834045
0.008816439543883517 -0.03233537475979296 0.0030479643063824717
0.00883320964601659 -0.032150470815208 0.002991739867403175
0.0098367447779023 -0.043980535755266156 0.000991247634567317
0.008523111048605213 -0.0327775500238796 0.0037466790208155734
0.008536475838544713 -0.032719836964124255 0.0037379531969589964
0.008666305120798412 -0.032410863795942144 0.0035069270174399696
0.009828093555547939 -0.04414492637576046 0.001165989818827876
0.008727350192853311 -0.032359214155354955 0.0033424070813582686
-0.001569344938318293 -0.05803251664802986 -0.008635539762621741
-0.0013987475969897821 -0.05794028720739166 -0.008876893560253792
-0.008285241487004338 -0.05243889835155625 -0.00014917457063493085
-0.001127933428666194 -0.058046167067507336 -0.008694126620165919
-0.008306980168732837 -0.05223731268549028 -0.00048672732311564807
0.009746395290254025 -0.04396943178116909 0.001569928120480694
-0.0012946859459684538 -0.05806666577869919 -0.008587745030764048
0.009714393606849015 -0.04402827590754511 0.0017568974309777326
-0.008284935175013717 -0.052241792804016585 -0.00015240155314137714
-0.008263743559113643 -0.052132744525458935 8.035804232049736e-05
-0.008304371863284258 -0.05213436729690357 -0.0004380369207076163
-0.008308565060598752 -0.05169178649208096 -0.00043711083386290694
-0.008293970718111549 -0.05149507361098103 -0.0002011405010280419
0.008897385572892576 -0.03165833903260107 0.0025028464905955702
0.008842574322493352 -0.03165411909763663 0.002744199325021994
0.008821462634719012 -0.03138705993180764 0.00272341453126737
-0.0004818410831352396 -0.05806859202130654 -0.008870948268896055
-0.0003246793185659356 -0.057975223516449216 -0.009090845015162557
0.00014915223325592732 -0.05794995972547882 -0.009199472405717946
0.00039943325368572004 -0.05805829105864317 -0.008957183637737653
0.00881731152725651 -0.031238331136414135 0.002727640790072828
0.00880881300532415 -0.03164277872783578 0.00321142863777494
0.008781181348521414 -0.031237999048976423 0.0030894459470271252
-0.0008172033694469039 -0.058146662238371664 -0.008364502734263889
-0.00724182292762202 -0.05138840502169877 -0.004818411459887501
-0.00048166438445169143 -0.058157861213245766 -0.008415070299814302
-0.00038388661167795905 -0.05816409468763102 -0.008339930520792887
0.008850522744751104 -0.03091953230514852 0.002742551684463562
0.009876693492301936 -0.043445424055998806 -0.0005138790424480409
-0.00044477432058238496 -0.05815614784442456 -0.008457022835936936
0.009864799403794422 -0.04312111959245159 -0.0006583180863806962
0.008771346161087051 -0.03097481506785874 0.0033030215613161283
-0.0073485505098274135 -0.05058639011602156 -0.004592999414851421
0.009850909171162062 -0.043136149417959214 -0.0005136512370127555
-0.0072320893804130905 -0.05105983139902669 -0.004838820848598046
-0.00020445866695669156 -0.05815959613530618 -0.008382692663151087
-7.787810452980596e-05 -0.0581588404553333 -0.008345133376855034
0.00994479243293418 -0.04401626461367715 -0.0002555065120641094
-0.007633908407983319 -0.05128464459941898 -0.003960477307836781
0.008546104336060997 -0.03226167689832863 0.0038703564984722194
0.009923698716981219 -0.04386347832228524 -0.00032507511952397934
0.008293354531441895 -0.03242447171323165 0.004295623019884805
0.00992940206755677 -0.044072837877629445 4.662094743016693e-05
0.009855200088769292 -0.043559323816592145 -0.00019719016790128776
0.008640094364777187 -0.032026812761675655 0.0037033724923116558
0.009905159867512241 -0.04355939358156151 -0.0006373236985201137
0.009848957563126872 -0.04342345852615922 -0.0002901285387471284
0.008646791216105683 -0.03180620449698879 0.003730979298811256
0.008517245592294383 -0.03195179297869398 0.0039623713385836005
0.009890584356382764 -0.043967528834041925 0.00027114793678042007
0.008446131703982288 -0.03177705969756358 0.004048613353540928
0.00985714603658678 -0.043636046839494735 -4.550254649284703e-05
0.009821129922536469 -0.043538623049137665 0.00026559235405628905
0.008283746658189364 -0.03233031429222242 0.004294650552521487
0.008202143242586411 -0.03205099780962638 0.00438867136036618
0.0006086154588561631 -0.058132185173870574 -0.008345248547692781
0.008060659411988873 -0.03211610963631114 0.004669003977440743
0.009798951629295567 -0.04333786829829964 0.00041887977548874796
0.008048441119810271 -0.03209206298235816 0.004690140156283591
0.00041961910864548213 -0.05813610566048595 -0.007969101805562722
0.009839095499190525 -0.04279065485381643 -0.0008143742684335414
0.008086036332008835 -0.03150098866831042 0.004514990684903665
0.00120500627585845 -0.058110953672926166 -0.008201275236285362
0.009814228011151388 -0.04257601305207884 -0.0009105221098762517
0.00837192851877263 -0.03142273410322501 0.00417348149619943
-0.007230357992542729 -0.04956813823082872 -0.004811005054764015
0.00807093530524791 -0.03179843886370279 0.004581109271117124
0.009806678295490485 -0.04252272559667816 -0.0005475657160735391
0.0013556260775923995 -0.058113689978364316 -0.008039007184481181
0.0013353358141542447 -0.05808981493553893 -0.007817704027415835
0.0016432144164575638 -0.05808365986275799 -0.007704820843964864
-0.0077628830147191425 -0.05114119697763337 -0.003613977947959616
0.008666832991784548 -0.03140777387164899 0.0037111232778984536
-0.007842340959443096 -0.05091835059778183 -0.003389977535996816
0.008712332333858536 -0.03116055798591803 0.003512151633992129
0.00978938257176582 -0.043049236719521364 0.00045118865085465553
0.009789177618857994 -0.04303957214581048 0.00038271123532548007
0.008575162902739748 -0.031058843384951615 0.003908308066451168
0.00978848979312196 -0.04301531821102861 0.0008702581448402482
0.008691939265690169 -0.030546140620171514 0.003526096953984863
0.008752731327783751 -0.03098943558297448 0.003377468376824854
0.008762623724379031 -0.03076803093134734 0.0033553370182923927
0.009794875638844291 -0.043754402848686806 0.0012825977216532332
0.0086082065585493 -0.030782457973313377 0.0037953109597843445
-0.008021203326870393 -0.050868108908769256 -0.002790764514080001
-0.00794280558423728 -0.050611226060168726 -0.003059674571274168
0.009764292890397961 -0.043130347091127376 0.0014363444669042759
-0.007856658614432183 -0.05025871010684462 -0.003327299469451887
0.00822702836045145 -0.030924952666752534 0.004353174201815086
-0.007919578113047675 -0.05033395264024571 -0.0031274592696045227
0.009786135975195672 -0.04306934666723157 0.0010837839751245137
0.008444622241681089 -0.030972058579861073 0.004087439717088397
0.009779455449010575 -0.04285886652161992 0.0011111879560692177
0.0002127381910572279 -0.057675376564359795 -0.009482220487694787
0.008461027734189532 -0.03063022795088437 0.004006926953934902
0.008557064518585223 -0.030468983565995807 0.0037525023237240107
0.008262876269537313 -0.030671719578707856 0.0042761658807858
-0.007708536232050771 -0.048902244468729844 -0.0037309277343086067
-0.007772232581117706 -0.04924149954949741 -0.003552012820060581
-0.00018178342767955527 -0.05771140101948006 -0.009384527267610548
0.0002581550358701824 -0.057954148713830304 -0.00921112111814489
-0.007167732640731415 -0.04838716958162147 -0.004921483327457595
0.000842174343418414 -0.05797049843448215 -0.009139531192439836
-0.00712539293046589 -0.04935319360803378 -0.00500069343492874
0.0016369290394784108 -0.05796643165320121 -0.009004566479278246
-0.007223699284228857 -0.048954493242974795 -0.004817550703778288
0.001829618059426887 -0.05797365852072074 -0.008941752128616589
-0.007300546563004965 -0.04871256981659475 -0.004670723333891595
-0.007101347748082642 -0.048765717571071274 -0.005040295488743095
0.0027599022536357407 -0.05788757686891366 -0.008938577299964147
-0.006842929723962355 -0.04758888221167448 -0.005470195893137951
-0.0069931955374787705 -0.04766309131682965 -0.005226977778727062
-0.0070015817664164925 -0.04789112434442029 -0.005208360226001376
0.0011478953571100229 -0.05803568902127054 -0.00885666343539045
-0.007161410737250417 -0.047553439931430096 -0.0049275393720959
-0.0067629737523167005 -0.047811181885254656 -0.005584565879816727
0.001637791181337817 -0.05806849272852972 -0.008605271604035103
0.0018844187402995804 -0.05805358392631184 -0.008617098483779922
0.0015936904242344744 -0.05810842577853813 -0.008281234906193584
-0.007549611648015705 -0.0485705795419219 -0.004130232244899567
0.0023050516651455365 -0.05803788592599749 -0.008555054427740214
0.0025047498781852143 -0.05804018339661264 -0.008504411258936239
-0.007588140054376612 -0.04846974885955266 -0.004037887367651498
-0.0077796056502756495 -0.04874377878259338 -0.003528140772389792
-0.007429819647678103 -0.048909773282294816 -0.004400972984297819
-0.007518406709804424 -0.04889111924888088 -0.0042018563938427365
0.0018139044522628464 -0.058117718828548576 -0.008115685132080651
0.0020440051599316367 -0.058120368415553694 -0.008069811376402853
0.0018862108602125671 -0.0581287361428985 -0.007887091882560506
0.008051187187298635 -0.03147719642941648 0.004575141055779731
0.008035400587235089 -0.03170778066609084 0.004633305841031965
-0.002075112747759606 -0.05814621189018319 -0.008154544812524546
-0.0017788172737702246 -0.05820269560600648 -0.007949841297360639
0.008149885720741516 -0.03071447990756096 0.004426070462356009
0.007868246347674992 -0.031013163494441654 0.00486945170694135
-0.002070328198413198 -0.058195835159662306 -0.00787439442456358
-0.0024523995679404742 -0.058216840082816704 -0.007523205442359416
-0.002187039123994721 -0.05823221092221212 -0.007601831207101565
0.008213679732008573 -0.030575610787157106 0.004329257766039428
-0.001647408347235457 -0.058229655050180684 -0.007539510041499185
0.008274134624807705 -0.03022165407514989 0.004174162496182273
0.00802826209038716 -0.030401395531865896 0.004539613372973232
0.008063209427451628 -0.03015063948059528 0.004461090105468944
-0.007987942979195976 -0.048727430963763925 -0.0028388000097041175
-0.002197704278717831 -0.05804051072251059 -0.008433592385399622
-0.001884898538585138 -0.05805728079517024 -0.00851239518823615
0.007852672763769906 -0.030263211546245672 0.0047452838429041105
-0.007929939593593092 -0.049077679736515695 -0.003053502263874348
-0.0015908818337827541 -0.05813190162714273 -0.008335603841150467
-0.007997120911121503 -0.04908017936214411 -0.0028007074615703695
-0.0016739076225075148 -0.05817363932639755 -0.00814983168401533
-0.008032002962011356 -0.04899836778620792 -0.0026619347662589668
-0.0009466919360278513 -0.05817656073209591 -0.008144822619181478
-0.001105766084453333 -0.05819768962933829 -0.007764009366546817
-0.000679485063603558 -0.05818120241501259 -0.007874337394026421
-9.910254156949436e-05 -0.05813489841655761 -0.007884322354673404
-0.00048066289418007273 -0.058112556864605085 -0.007717065154092374
-0.008311799617848883 -0.05038647917406748 -0.0009407187578621826
-0.008313928005443769 -0.05026591345935362 -0.0007539143653480199
-0.0013234944221308653 -0.058183485916628946 -0.007475506972710933
-0.00829716118656672 -0.04951604144568935 -0.00098128059701873
-0.0011591635113911904 -0.0580095963235448 -0.007192564792807562
-0.000894359910007702 -0.05796967227129521 -0.00726004565044208
-0.0007159271638708443 -0.05779453410335286 -0.007222305512005341
-7.200701954063444e-05 -0.05788123645268567 -0.007474495473322929
-0.0003646319737708136 -0.05739347166430694 -0.007215011689070868
-0.0026879971665508466 -0.058209985449826356 -0.007230051869199266
-0.0022299770964234232 -0.05823305036265166 -0.0073636198437340575
-0.0021543369239474907 -0.05815745011065944 -0.007001534463506948
-0.007795327150154836 -0.0485873284560592 -0.003481511806797788
-0.007914409933420434 -0.04834569533878282 -0.003101454976946231
-0.00192061069954459 -0.05796764826222823 -0.006801398238846397
-0.008019102019810327 -0.04846390155932364 -0.002721979748774854
-0.0027972724465717418 -0.05814810602653112 -0.006792213557422627
-0.002251185435164672 -0.05807873781140718 -0.006778161182711687
-0.002477918592344925 -0.05793926842310558 -0.006486251226357669
-0.0023070236887903707 -0.05782431829307799 -0.00646158476535479
-0.0021603353400616926 -0.05771766488154964 -0.006485391668100339
-0.001641939764817917 -0.05777885886999974 -0.006824697239455427
-0.007692819810926746 -0.046725982044489564 -0.003766091285062161
-0.001765005838322559 -0.05773887540291695 -0.006737713994916239
-0.007935262269609156 -0.04676866268310123 -0.003035140497155356
-0.0015752751173673343 -0.057328372188944814 -0.0067070478992293904
-0.007812308594769276 -0.04633204345440256 -0.0034380109218657318
-0.001744776184052895 -0.05723290273235765 -0.006576949881231671
-0.00786548529061657 -0.04666908421495774 -0.003275969429667954
-0.007783676008399294 -0.046623169425393025 -0.003523774015985369
-0.0016743923790790614 -0.05714745711548185 -0.006589146574927579
-0.0013599493546341264 -0.05787774977356785 -0.0070056263587494625
-0.0010238262304289023 -0.05771361508349282 -0.00706496338009551
-0.0012650359275887262 -0.05761616741628044 -0.006932643999930604
-0.0008082609119730779 -0.05732563939625874 -0.007064428206864786
-0.0009559015796010077 -0.0573497380879329 -0.007014097981426299
-0.0008484302892567913 -0.05708625182567139 -0.007001774142785417
0.00963035992258662 -0.043563125241700036 0.0020250547167033166
-0.0005096902874766242 -0.05734013484203816 -0.007165585053346997
-0.008032045248572817 -0.04611608023964685 -0.0026791868722358574
0.009574914846968825 -0.04350323487548659 0.002188328575932553
0.00935071333029189 -0.043374866713282556 0.002776815503426
-0.008064504896559311 -0.04615355549938385 -0.002548270848065464
0.009494018966966594 -0.043603959576776555 0.0024476053623945443
0.00013423562631660073 -0.058097401914204386 -0.007787553481046547
0.00047499074583989305 -0.05806718475757679 -0.007762011384200074
8.594259980855906e-05 -0.05795619505102899 -0.007551778856379757
0.0006714053898153741 -0.058037312629034145 -0.007688493384898316
0.0005889316126952675 -0.05785364229134304 -0.0074440736397356376
0.0009898831447487145 -0.057846535612195646 -0.007364147571560244
0.00012063808753945071 -0.05769201035720224 -0.007367527161847701
0.0003288285571091448 -0.057684885534861244 -0.007374050433019432
0.00010215247598903879 -0.057472232329510736 -0.00728336424270737
0.009270239659950028 -0.04332054400279148 0.0029638107670863743
0.009162582433043857 -0.043224689211990894 0.0031700847955011442
0.0013596785087745856 -0.057988989912726815 -0.007472121040016178
0.009199985299340085 -0.0436406504116718 0.0031858791144777497
-0.008304023216469421 -0.050862312079829046 -0.00023308020864142162
-0.008282769445312041 -0.050906471564117484 1.7025443304716158e-05
0.00877970230701935 -0.04344093668080771 0.0038867497055526403
0.00893143042850821 -0.044025311698368874 0.003769347527417486
0.008984234030246147 -0.043785525288922586 0.0036301113830471245
-0.00828749203301464 -0.05023991358122608 -2.057231494053458e-05
-0.008268032250245451 -0.05058000838039836 0.00020482649862719527
-0.008263167008809497 -0.05030293032440178 0.0002524029345733866
0.00890035412147801 -0.043239312369788264 0.003617137885167351
-0.00818495862379935 -0.053890820170051264 0.0008278617047618308
-0.008134410915002124 -0.054759530712742935 0.001171682566347245
-0.008139112328290059 -0.05438725783257578 0.0011167411931572433
-0.0080336589210415 -0.05476743853445004 0.0016558038154968358
-0.008160918876832438 -0.054081563729657105 0.0010005352685436896
-0.008093618693777158 -0.05416385230645847 0.0013870351167044762
-0.008003106880976985 -0.054674240050723195 0.0017919619977637203
0.009579331253421019 -0.043332547681653996 0.0021571610967905204
0.009644422189733036 -0.04319194369961078 0.0019607972944509196
-0.007982705285500841 -0.05438832825983693 0.0018879443079181028
0.00956455171927963 -0.04318190021956313 0.0021897775952513035
-0.007899258653726766 -0.05450706632419058 0.0022110436149320335
-0.007955920317851972 -0.05430021137582074 0.0020047324090108243
0.009393801227066933 -0.04294962498099396 0.002597187653861996
-0.000776764795412172 -0.0568476409186313 -0.006954675964906481
-0.00809054824640982 -0.05387177822675457 0.0014257318211848532
-0.00047041597647443594 -0.05699205533509519 -0.007132304075640214
-0.007995302229881813 -0.05409994492237642 0.0018630624645775162
-0.008009544211978829 -0.05355086278593343 0.0018372780764490477
-0.00015841796941253419 -0.05674407373332176 -0.0071192976203752634
-0.008212620908718146 -0.05358514312699273 0.0006490449058966985
1.3404876512453241e-05 -0.0566854754481765 -0.007055639751569677
-0.0081385020956059 -0.053622230147336365 0.0011732216463627944
0.008209924221544868 -0.0437338089671718 0.004901208111913361
-5.617100688058468e-05 -0.05647851789493545 -0.007014350552557735
-0.008248149405571791 -0.05262616682889608 0.00028765195370001023
-0.008222489912886988 -0.05305068309114125 0.0005565574200384627
-0.0008753175152797627 -0.0566914147522094 -0.0068476471110463545
0.008404262985888972 -0.04277843676906161 0.004023764257164164
-0.0006557244398037452 -0.05653275562829505 -0.006927316889811273
-0.0012247485938992049 -0.0565027724508126 -0.0065760163470743
-0.0011499514102484693 -0.05645835620305968 -0.006599926094090328
0.008012138649329323 -0.042991842926914624 0.004759821594340167
-0.008105127600364727 -0.05323740505326177 0.0013667999188302043
0.008729110123594466 -0.04386857576976895 0.004104044948548394
-0.00044075394163145174 -0.05607735533078896 -0.006927845787977314
-0.0008377645328702957 -0.05609663546707635 -0.006690592694762654
-0.008126045121334191 -0.05286357923505855 0.001220986000160552
0.008463065073962288 -0.04362626725138278 0.0044514462144837775
0.008522877895671873 -0.043443032057433856 0.004265261749635655
-0.0003442463828047508 -0.05616789005267989 -0.006961019597237999
0.008683851040999776 -0.043227843887189865 0.003913753800587683
-0.008073842089758353 -0.05264947311385923 0.0014941459316560209
0.008443803162429162 -0.04300501645315454 0.004080297748314268
-0.00809204302973639 -0.053560042760478 0.0014400714385371985
-0.008066920095013915 -0.05341246369519542 0.001572237759629217
-0.000606105291853144 -0.05574759074492648 -0.006780737578990984
-0.008068510283664959 -0.05303025689207946 0.0015560840523370426
-0.0003167807829030874 -0.05550418924976695 -0.006837473100975133
-0.00012198894516859878 -0.05577040083187182 -0.006841639218586444
-0.00012811533337528356 -0.05566416578193723 -0.006828114368943308
0.007782137534873392 -0.04350973705995791 0.005394091968777668
0.00012557106334040534 -0.055684438869168726 -0.006692575365327977
-0.007893831178552583 -0.054303091467128764 0.0022420286932215744
0.0001762683838737176 -0.05730656491318955 -0.007223220328579416
-0.007953230608342549 -0.05392439588620097 0.0020468386467136926
0.000313875396950256 -0.05708738367063738 -0.007126704237697182
0.007476214764296578 -0.04352670874750953 0.005790499086622549
0.0007155414485585617 -0.05759027603532709 -0.007220359391058841
-0.00791220426894019 -0.05403282801278901 0.0021940310385174426
0.008063731570622047 -0.04361461256854808 0.005060300048261249
0.0006641490418287868 -0.057233941345788825 -0.007031033258039486
0.0015211566600554691 -0.05781379804156786 -0.007176764211099935
0.004287857797539069 -0.037069994501802254 0.00801700647984198
0.007887564623160901 -0.04294415700485629 0.004957260261194316
-0.00798876636689186 -0.05324563562053221 0.0019194108468715717
0.007846064510845383 -0.04309353435325578 0.005135349062060892
-0.00799347138926962 -0.053457506686475406 0.0018972348710812907
0.004111542383195082 -0.03665076977175799 0.008052865157126615
-0.008025909679208916 -0.053073110761327924 0.0017608945812831883
0.0023099046770326927 -0.05775989273980213 -0.007239091513621756
-0.007863909656671062 -0.05314803373422003 0.0023792065572113734
0.004475299883911325 -0.03667258105042116 0.007930396648170577
0.00763766541255014 -0.04280212117925297 0.005351026150060284
0.001359080811602252 -0.057684520639378595 -0.007048058899149957
-0.008012678876935993 -0.05263545982884526 0.001799112702174801
0.007455405106527157 -0.042704435526393796 0.00562894212909869
0.0011243310386204464 -0.0574312221691934 -0.006872616015483916
-0.007974564976634877 -0.05281498764114061 0.0019634056523737337
-0.007970673064219242 -0.05237244780912892 0.0019360878346430135
0.0019598630533114885 -0.05765894283732052 -0.007033486301583186
0.002097682248138727 -0.05744421746544153 -0.0068899674319166946
-0.007864364910208014 -0.05306279643018801 0.002375615373036901
0.004190555782767606 -0.03617904332952229 0.008015411417790342
-0.007896675493020484 -0.0525282614646728 0.0022464016324206964
-0.007824312826023845 -0.05265337917916392 0.002490616933772451
0.004618883940042741 -0.03641027659882079 0.007844241159601069
-0.007852366454599816 -0.05248526487267054 0.0023942870762509935
-0.007785899806005259 -0.0527356339964353 0.0026072839296692103
0.004701465820452822 -0.03547901942744951 0.007767882145566929
0.004333114167093855 -0.0355833775355334 0.007903716150925007
0.004477568105901948 -0.03566726364587431 0.007858995382259936
0.004493870915722457 -0.03544847116227328 0.00783708754534498
0.008769177427819684 -0.04128321952633483 0.004264318327446917
0.0005080333208970471 -0.05705140049880756 -0.006994599863916429
0.0048520797260322695 -0.035603353574977195 0.007696478331827015
0.0006262726227678471 -0.057137231148398755 -0.006972884347540453
0.0008804435625798597 -0.05711912983434219 -0.006719580043704822
0.0007040334524927412 -0.0568763997660513 -0.006652070706263847
0.009291024843897249 -0.041191237732387226 0.003289905482559177
0.0009712347057066102 -0.05700794703680872 -0.006484792098964627
0.009136581703815289 -0.04077790474534776 0.0036404543920029817
0.008889880394061564 -0.04142575926851453 0.004026001160371059
0.008997755447919573 -0.0412604308844187 0.003928145728092691
0.0006141789616212695 -0.05680284278124745 -0.0066802758986073164
0.008253673569416833 -0.041721370036802624 0.0047291567790314
0.008557672672065255 -0.041363568656723346 0.004536921770131364
0.008226288810817415 -0.04149048259336936 0.004963589970713767
0.008378792132750137 -0.04123591556202107 0.0048847927637721555
0.0007540974986058418 -0.056696359860053856 -0.006454571919009317
0.0008484578520852196 -0.05654848320815429 -0.006301924996936076
0.008319340136693493 -0.0412061180781091 0.004982775507538494
0.008012895250506991 -0.04144975070161783 0.005257010155471219
0.008168023271426935 -0.04112258566585774 0.005196244337926363
0.001290623492129043 -0.057348284081926874 -0.006644265451682634
0.0014495183565365923 -0.057328285954180686 -0.006550518943247048
0.008466739509104976 -0.04110219255690098 0.004803859707886217
0.0012023179842375418 -0.05713175522996782 -0.006372655478093084
0.001502675917187247 -0.05722811891982757 -0.006392409616887895
0.001640939763599846 -0.05731993340784178 -0.006522902973624565
-0.008243852106420608 -0.052410864928571846 0.00033059194149796236
0.004185719292954154 -0.03449982448086278 0.007933648329106868
-0.008232593510988779 -0.052116910945102894 0.0003932494770752576
-0.008223920481070091 -0.05234730258175223 0.0005067213056095161
0.008653359240492165 -0.04047488994240767 0.0044718264054349035
0.004217442542314561 -0.0341264842960263 0.007942247975352016
0.00859995605135937 -0.04023635311963676 0.004488958510944089
0.00227628039047601 -0.05695705658848012 -0.006603972061827212
0.004421328531394201 -0.03511998830121694 0.007852639005167972
0.004603423628529115 -0.03517488472911376 0.00780895633656702
0.008353816826025125 -0.0409057637865471 0.005001276538786743
0.008409228174823181 -0.04060850141853963 0.004912321359466355
0.0019895180477185583 -0.05684956016200183 -0.006295685452823741
0.008423966510887119 -0.040770728111029955 0.0049093209463785285
0.005060940010580649 -0.03533606224280763 0.007643054683002799
-0.008236186554362288 -0.051867839289408704 0.0003671731717445316
-0.008243492312652506 -0.05149249853047268 0.00032468535768302015
0.004945250203597163 -0.03511075308117655 0.0077241081018796995
0.00107055165590793 -0.05658337877885736 -0.006171561075901571
0.001436823174238734 -0.05673681253901196 -0.006057739690673931
-0.008171426076739473 -0.05235944251609078 0.0008816600785606307
0.008441263085870641 -0.0403772941249744 0.00478514405374976
-0.008152058746114117 -0.051997692956118724 0.0009665598315067148
-0.008127456256369797 -0.05217619691149045 0.0011090718850243644
0.0012034545945708976 -0.05641868495653192 -0.0061344398458968155
-0.008094069665442707 -0.0522724220805599 0.0013165596183409528
0.00830255942864544 -0.04017008926654455 0.004918873505824184
-0.008143497579426246 -0.0519105463926156 0.0010216808487715915
0.00186143418388193 -0.05669157689814956 -0.00619155347868647
0.005404131392175712 -0.034655454374435686 0.007563297636827419
-0.008196697061554601 -0.05176250047073467 0.000690370318117777
-0.00821715299841215 -0.051316256602833524 0.0006288737462848394
0.004340049643796822 -0.03474313796663775 0.007885885377398935
-0.008167567574156799 -0.051388914134157485 0.0009337628824782629
0.004627606794742823 -0.03455566314858896 0.007851585972330962
0.000416088165781145 -0.055561762361919634 -0.006451756240445799
0.004556157199852256 -0.03423898198558421 0.007869837039751037
0.0006873148540149544 -0.05566194569441571 -0.006290440083012779
0.0011451262781455903 -0.055985763073782696 -0.006149463538145512
0.0010141399257035213 -0.05587385930658294 -0.00617370845308469
-0.008281270781388132 -0.05138766380362757 -6.383026529122924e-05
0.004437513461336148 -0.03397768453785468 0.007898806794300368
-0.008280276524277222 -0.05101354695932704 2.878999947602139e-05
0.0024307174805942525 -0.05634858263613109 -0.006424714356894896
0.004511978441813429 -0.03372659621536163 0.007867197736176713
-0.008228605883056949 -0.05111077192185039 0.0005391345458449682
-0.008251010207971232 -0.050858978481483644 0.0003490807067691186
0.004637473096902774 -0.03327041142478516 0.0077652185455618465
-0.008190115319056146 -0.05110468855860904 0.0008473699350306384
-0.008224492028993877 -0.05074084231067637 0.0006097981549621358
0.004778674113311473 -0.03307385442230264 0.007661229828593515
0.0014914658296698263 -0.05589132425360168 -0.006161641368101139
0.00504090744424086 -0.03396293413287832 0.007700175010065928
0.0020112729559952315 -0.05638738344116537 -0.006265680901681572
0.0055326420797852105 -0.03444795171917803 0.007468503669201664
0.002083930956861394 -0.05604799085632568 -0.006300623379361233
-0.008233823595643255 -0.05027961620710351 0.0005304650517859663
0.001976951212362092 -0.05588763080571513 -0.006277209925591154
0.002337111570792993 -0.05581191209177387 -0.006387540247222415
0.002320770827709131 -0.055508645443536384 -0.0064035784955936035
-0.008081049776504355 -0.051842630179441226 0.0013576215343690354
-0.008050768751411853 -0.05182577088381618 0.0015122939006201363
0.005378339549905698 -0.033424015278860825 0.007376934444761358
0.005704634840096086 -0.0338803918058224 0.007256521712780269
0.0056158251175699465 -0.033633527481783526 0.007258990177384785
-0.00805726256379033 -0.05152125009717946 0.0014638621999980713
-0.008086786497614453 -0.05141595918248914 0.0013229099429432237
0.004644136933538712 -0.03403349283572986 0.007850850463825696
-0.008050964179140674 -0.05114126962021735 0.0015299841719210185
0.0046863874771974345 -0.033739729963043884 0.007812403375307854
0.0032288092800477207 -0.0579666254556042 -0.008650972973912513
0.004730294934598171 -0.03340016549218425 0.007745227016822009
-0.007932437764259753 -0.051546468232543885 0.00200682366416582
0.004934204488889186 -0.03330548082192426 0.00762277139734001
-0.007968264975864421 -0.051328270592479616 0.001871574908302667
-0.007943744212942801 -0.05103399847243723 0.001985180146334745
0.0038341337548079414 -0.05793503146292531 -0.00859292437572319
0.004164941662296119 -0.05801793308569954 -0.008275387880761395
-0.007898598343468101 -0.05215589638436209 0.002189299997598516
-0.007902107354967559 -0.05172925815717071 0.0021396068872318865
0.004146054182702787 -0.03286811922335758 0.00792495674666005
-0.008169744460511672 -0.05098476262680991 0.0009743936369420715
0.004494567593312463 -0.05792049533832609 -0.008357852389769757
-0.008133351604561478 -0.05071132983774075 0.0011851927499820017
-0.008097014477034793 -0.050907714485991365 0.001349192189204305
0.004730324438815334 -0.05791970198073815 -0.008188582383547716
-0.008176992569165532 -0.05049289792913964 0.000950572400256381
0.005142078912414395 -0.05774263049857538 -0.008277019752406032
-0.008118383825855918 -0.050489835547924494 0.00126290961022207
0.005218484415336221 -0.05753545057775647 -0.008499663051675743
0.0028277789070091214 -0.05805863938548988 -0.008352172207591088
0.002669110192383571 -0.0581028615373131 -0.008138406479021103
-0.00800734646644988 -0.05062478365961787 0.0017588270487058466
-0.007951958517094487 -0.050840314274924 0.0019575718400063266
-0.007940887037450307 -0.05046954215730481 0.0020074602939911855
0.003015834442004835 -0.05804766069823132 -0.00836402136484287
-0.00807944472771327 -0.050480206595948096 0.0014491298657399517
0.0033155176660034495 -0.0580637976327661 -0.008218005961966651
0.003705335960150947 -0.05802879892530278 -0.008304242552592213
-0.00802656922657229 -0.050223873590949514 0.0016767254716829804
0.0036305702976455714 -0.05810224226138799 -0.00788953597750704
0.00265168018563713 -0.05812751162300143 -0.007947624740713158
