-0.03076384341516773 0.012832088126557239 -0.09620093484049863
-0.030743246976800333 0.012028558663509768 -0.08194019647866356
-0.021469885961284702 0.023804427780034408 -0.08010260051479137
-0.03028598834937493 0.013034413840432569 -0.09370180032379555
-0.031290682083481965 0.010795839084259368 -0.09062935154549316
-0.024369758615578625 0.020872997992413513 -0.07941144777998074
-0.03003170136423047 0.013208813295386507 -0.08223378981014985
-0.03252340168037715 0.009525181428223901 -0.07583771266555919
-0.033560580857770445 0.006861921560217821 -0.07189309102967809
-0.034396610297369276 0.0003071534470109945 -0.07375324486784013
-0.031321207930487635 0.010813962897603861 -0.08270551146219343
-0.03232896781750119 0.005676837711108454 -0.10061835081459562
-0.025189346415834993 0.02131979401891196 -0.07575561552597965
-0.024216079154514698 0.022164409808517183 -0.07635751919619319
-0.024783045676356717 0.02174371319858814 -0.08736937386392514
-0.033139670713614254 0.0034575061583707258 -0.08105086816779081
-0.03345740205329645 0.0024899990358397644 -0.08154566537670128
-0.028998729687011476 0.015099173225746759 -0.09125325010514587
-0.029813004272931216 0.01509788557002447 -0.08673910973120573
-0.0327552065644586 0.009578368807546044 -0.07108672105743709
-0.02610164014520491 0.019271178177887177 -0.07055979966646385
-0.033813588955747306 0.0015270437482933514 -0.08238470690599795
-0.02169550714201974 0.023971102331281923 -0.07802959792962923
-0.024119427395400184 0.022296587535537683 -0.08554635074972414
-0.026951925970967246 0.017621686481286192 -0.08075829582336824
-0.03373309863424858 -0.00011029466134282002 -0.08176538019442023
-0.031985685942463295 0.009845482584959103 -0.0958555196419348
-0.025804115351704907 0.020264688580146416 -0.08404087487842982
-0.029431591583126783 0.01567610053864337 -0.07653872107663187
-0.021215094834412657 0.024869036059076702 -0.07240067965199504
-0.024248158066503784 0.02237715398094501 -0.07435623097462027
-0.027348010214809194 0.018095403532616374 -0.08991588539553523
-0.02305154952208574 0.022561716963940177 -0.08301577175666194
-0.03351533844536585 0.0017026804687398033 -0.0988117544347038
-0.03404675173906299 -0.0008850221012968165 -0.08241589529258021
-0.027260775024744652 0.01725449679838875 -0.08149625614976347
-0.02241488356585839 0.0225608565055804 -0.06828368914802284
-0.021602084926541854 0.02481238859667477 -0.07449532643772135
-0.02425527871956923 0.022433384520148616 -0.07491253905439013
-0.026431984097307973 0.0185279722835537 -0.06851394099981542
-0.032837495707118296 0.004596838110298831 -0.0998044982595724
-0.026148922749254195 0.019702482621693378 -0.0838699296436431
-0.027542251085717968 0.0181992219786601 -0.07163372454187579
-0.02862943365585688 0.01713613031803553 -0.07630137284283281
-0.03221207921887089 0.006508891924208889 -0.07922137889305751
-0.03350892173424405 0.006832336654943623 -0.07314129903203999
-0.02607779301239234 0.01929220875007825 -0.0784311989757103
-0.027269198338806047 0.01889862170068439 -0.07612616997007995
-0.031016179764303257 0.011476169668198654 -0.09788030683928661
-0.027486942303929954 0.017409415608656498 -0.08285817237909589
-0.02812871030502965 0.01706036016885832 -0.08846139694585997
-0.03206762161235839 0.010206762478710905 -0.08845036277224037
-0.0318509329962609 0.011151411029576147 -0.08534223077124757
-0.024791084263090638 0.02080795031134816 -0.07165867537908677
-0.031087246353325586 0.010838665813358862 -0.08147006856788734
-0.025497181358784312 0.020930558659079026 -0.08810645238349966
-0.027939030999361694 0.016352051410981925 -0.0810730744599199
-0.033079590934382286 0.007696900519949767 -0.07595781031963669
-0.03141879994790292 0.010544725818403667 -0.09280719310192936
-0.033512293945759775 -0.0012543417425135528 -0.08049717766825022
-0.03345425739386408 0.0070910853041140556 -0.0727524288132204
-0.0315384660412818 0.0100349436747921 -0.09786597969848285
-0.03304942526627801 0.00508684540525778 -0.09849161719001127
-0.030991497021435836 0.013333302516160132 -0.07097461745743364
-0.02911043660926005 0.015612360184247463 -0.07748688381601776
-0.033136620663896776 0.004078342761002381 -0.0813770075994734
-0.03298155202983036 0.005743778594556917 -0.08996237116018002
-0.03378843201344532 0.005547483937899449 -0.07321810053642287
-0.034147535280917476 -0.0013530443318855835 -0.08256387434844198
-0.03240997932748207 0.009397544860717345 -0.08715800656343474
-0.03311046903698377 0.00729244532188663 -0.08385496258318594
-0.029571441297722788 0.01596581556941984 -0.07259084612501952
-0.03025154469979 0.014878097653989186 -0.07160897199571642
-0.03024381346338692 0.014310593611684705 -0.08552919104550438
-0.03255754515729947 0.006840550370891786 -0.09884757477739815
-0.03375241528465554 0.0023298111430240164 -0.08929708792380456
-0.032742868359328825 0.00588478977446167 -0.08151657995966827
-0.02250964478819361 0.022869517931812813 -0.08122696410867765
-0.03362329364779775 0.005533033316905717 -0.08817152743393684
-0.031184123109209556 0.011003691539715211 -0.08234108194926677
-0.029088247049208232 0.014775865794152833 -0.08169330669089347
-0.0335887605655785 0.0017418676706346327 -0.08173962169554598
-0.03290620585642763 0.005513095533649192 -0.07733338697786367
-0.033179061307872224 0.008156418300058543 -0.07420762141977597
-0.023878170844926373 0.02205305508609906 -0.07789274396464818
-0.033325176418722735 0.00382227144841402 -0.08204318510162892
-0.03104313711409493 0.011788359224363512 -0.09326082420553036
-0.03251321722529322 0.007351481546860918 -0.09269637908717561
-0.033191031097074025 0.004774496293209176 -0.09267391691465185
-0.022224768284279744 0.02424098741664339 -0.07629439287835417
-0.03284964197053729 0.005694704462570879 -0.0921086629225484
-0.03128210958982467 0.011506905586680145 -0.09472577917266903
-0.03263477912387922 0.00575542350028417 -0.08065229703472465
-0.033128641616618486 0.005234121735623233 -0.08964483075563419
-0.034482471793523393 -0.00045977384510465386 -0.08513536582742996
-0.02959248647246677 0.015036799002626083 -0.08422557842860297
-0.031559520662948724 0.010625512376333347 -0.08332011482324717
-0.029493459005015325 0.014074656586917245 -0.09223129230115837
-0.022752747860856907 0.022131945080004815 -0.068045404026868
-0.03264725072559805 0.007049177170364264 -0.08975806522947659
-0.022450398688771377 0.02361306376123365 -0.0772455234883882
-0.021394042444400047 0.02421201371729641 -0.0779542759613783
-0.03248384096990685 0.006019480805624526 -0.08023783680725363
-0.025760526956617142 0.02065009623512834 -0.07553711506151418
-0.0334458440837955 0.007299727794212839 -0.07150161422830661
-0.03051074566861157 0.012312847223056304 -0.09167254539968497
-0.024406712629754235 0.021266543528406193 -0.07814443818863387
-0.03369514673155035 0.0032383312629683104 -0.09653651349478863
-0.027575486909648346 0.017783080537570918 -0.08386996718732155
-0.027568824025765597 0.01719672265373301 -0.07885987255669517
-0.03132660428252632 0.012634632805367908 -0.07323900754076934
-0.03380020959313695 0.00019065553450452633 -0.07692903508291199
-0.031905819746342476 0.011439374904898544 -0.07283850874045844
-0.02412494889160114 0.02153469855627802 -0.07831749501361403
-0.0217835162085003 0.02351416652465657 -0.07948698646699223
-0.02378009319638217 0.022261726698968004 -0.07759341251524832
-0.034323412938438776 0.00014391703009475045 -0.075634112333754
-0.033536866739571715 0.006222484441932873 -0.08731923402170216
-0.029196550127578647 0.015609793253311518 -0.08408847807914441
-0.03440284948352003 0.001094581862080811 -0.0840593985826423
-0.028002866998144176 0.017462153388624748 -0.07022730106670297
-0.030820647646320403 0.012978588789153771 -0.0848741304334028
-0.029289748442679807 0.0151761204991058 -0.09014108794331176
-0.03160026758533987 0.01185969607852009 -0.07552640586551046
-0.02307072764303799 0.022260213076599877 -0.07938861488385988
-0.033093319548034364 0.008324146055458174 -0.07189437510819896
-0.031558974346103545 0.01069449824837681 -0.07711399410552346
-0.032740334157694506 0.007475072905056343 -0.09691229860715111
-0.03241225230846789 0.008317427563367426 -0.07690825235826945
-0.03416401753079476 -0.00024273343260950645 -0.07616487533382181
-0.02689159149589902 0.019608766718400575 -0.07507946439971531
-0.0340841404642904 0.003649388544495676 -0.08642640181269108
-0.028691188782398777 0.01712563401496277 -0.07389455304770952
-0.03310851211194745 0.006345962192550274 -0.09369265381145758
-0.020968154293006004 0.02470633145385375 -0.07744202187761463
-0.03141770403346994 0.011146396565960694 -0.0942455225758782
-0.03398484186842585 0.0033236769818934912 -0.08344307197498098
-0.03284179550681563 0.0073551384165297376 -0.09637879355710506
-0.03371051015585684 0.005714952796450705 -0.08465499780765309
-0.02957423382105384 0.015563815023689023 -0.08596466191036896
-0.03276234084527484 0.007038418543077952 -0.09316427082069903
-0.029946943785472784 0.013700978094173411 -0.08315176975027702
-0.029556783095692693 0.015311406887438282 -0.08936337486090731
-0.03266982014373207 0.00909344427292419 -0.0759992146177686
-0.022526736006210316 0.02278587016196843 -0.0800449007674415
-0.030204977837027615 0.014217388665314657 -0.08489942923098767
-0.026849424651396503 0.018557833078634386 -0.08329925108024946
-0.025406979312687126 0.02082661822446646 -0.07676393325439568
-0.032824108370239316 0.004544930809220271 -0.099875420629466
-0.022849883980654868 0.02286776833220132 -0.07271032479204151
-0.030359719270624655 0.014781155836832626 -0.06994529163432854
-0.03412318160816796 0.003352706986803531 -0.08506487531377895
-0.03135307071326546 0.0094776543508006 -0.07960287630139719
-0.031446386895245086 0.009403455536381142 -0.08135071740415172
-0.031280529805932496 0.012856891892425273 -0.06994827144140578
-0.0341522411035484 0.003127960968692861 -0.08712720920349866
-0.024566430501534807 0.020722344365755256 -0.07044161232558727
-0.031121862142733155 0.012642375083074489 -0.08563629426396771
-0.028132145074878673 0.016235456898142306 -0.07935456532759239
-0.03363850592087041 0.0013269257550986963 -0.09861992509780107
-0.03242629004518995 0.006046254892172406 -0.07841715360828136
-0.025590658729718416 0.019929014670199603 -0.07062645348634776
-0.03206174026719491 0.008149231549977426 -0.08152771164372011
-0.0262471861735356 0.018627950452048216 -0.06825521984018439
-0.034296495148157954 0.0022550033846925805 -0.08507465233027109
-0.03323163696006439 0.006453897857508354 -0.09459048202988447
-0.030020171096568217 0.012965524731006497 -0.07894413605716954
-0.029874885348616827 0.015633768142034533 -0.07062997608967414
-0.03384613421640359 0.004898142408260978 -0.08493201758476028
-0.027555163535069854 0.017562390304828514 -0.0914665018650277
-0.027397179826666566 0.01900030183971519 -0.07487657731317998
-0.033968341773065076 0.004883813246529681 -0.07195401031065377
-0.03323345780342324 0.007218130479970544 -0.08494604745749827
-0.030521709903998908 0.012180639925729094 -0.0784102604083664
-0.023319871205699443 0.02168121538675899 -0.07025478064683272
-0.02361819009602191 0.022699264551583238 -0.0765166886419765
-0.03239172145285427 0.007177668821869949 -0.0991734072240386
-0.03250952949040126 0.005271886424347559 -0.10027903478680866
-0.025123782251627723 0.020044533161416946 -0.0803612413274815
-0.03405334144072158 0.004184552654583597 -0.07209193902330713
-0.03106533716393265 0.011220904138839971 -0.0924970783336033
-0.025901565370891333 0.019976014806588283 -0.07256739296936862
-0.033375289886474445 0.00081590473418223 -0.08007850496545584
-0.030967349356445215 0.013316412331069945 -0.07253512437181309
-0.02962325084396116 0.01590417292483416 -0.07280907573014442
-0.03125646238639858 0.009913474957609539 -0.07904255131409085
-0.031070746640575103 0.013276187956734112 -0.06989052998454824
-0.03172912823224616 0.012115504849935496 -0.06981983629887979
-0.030707628885769528 0.013683671522445644 -0.07418540332287701
-0.03392409632497922 0.0044286495539085455 -0.0849733889986674
-0.03026959535491453 0.014773591705672152 -0.07269132931218314
-0.022423236109785253 0.02391603125131496 -0.07361932813162933
-0.026383425593656903 0.01889575403374795 -0.07820754108690343
-0.033077760974901685 0.006532703487730308 -0.07663366598121878
-0.023016544965131558 0.022288795038987473 -0.08154459025976966
-0.028590102570686435 0.01690699062020789 -0.06975154586325465
-0.030011193548150992 0.015168226396583682 -0.07520203822424724
-0.022373268383342054 0.024261160165160816 -0.07548381229895976
-0.026024926734101776 0.019193882502457252 -0.07890921839569856
-0.029181756185923724 0.014845785975377212 -0.09359908208374128
-0.020767579334304453 0.02545696922657912 -0.07485767517996357
-0.021662655581526028 0.02467213630791841 -0.07342577478032843
-0.033505934888423516 0.004570225256463369 -0.09629778745649792
-0.026150579518758668 0.020211778354144207 -0.08474990596826464
-0.030901435362406596 0.013097903431699292 -0.07598426322533948
-0.025010364317607493 0.021365387888916804 -0.0763402947041318
-0.03248248931361005 0.010054197550474183 -0.07340918067987419
-0.0321206526620864 0.011304109671860896 -0.07072995399515145
-0.025863723850535383 0.02050793065221819 -0.08545159373978879
-0.03423885225083097 0.0015489442584350629 -0.08352145685815827
-0.021832224894804863 0.023863359100329884 -0.08194022058125625
-0.024985906054048292 0.021635346756993412 -0.07459396552168727
-0.025975968184909454 0.020306532965965525 -0.08583417596642483
-0.033942729816281984 0.0005544543495185334 -0.08253674634454658
-0.03401862977659253 0.001427575075153884 -0.07627762664048418
-0.024967510757655985 0.021427150022118945 -0.07376984583804198
-0.03346051239235233 0.006463016539633727 -0.08465984611489197
-0.02658692092460311 0.019097592611342966 -0.08974516217988338
-0.029660939212320016 0.015237499265124509 -0.08509173582057417
-0.031042014746791743 0.013202507537315987 -0.07315107341626176
-0.03282509285405725 0.009447130355709626 -0.07212786438580501
-0.032963349853134025 0.007450223297863848 -0.07638448395683697
-0.023342911882787715 0.022290766928098883 -0.08315397709280671
-0.03102646569989212 0.011782360955659453 -0.08999801480880491
-0.029896111040235866 0.015362408494635913 -0.07482525799512292
-0.027977848835335543 0.016394475119602007 -0.07982159699369686
-0.024484843880754857 0.021943765937386846 -0.08637317548872532
-0.022987989915135534 0.022075789424145325 -0.07064395286597158
-0.026574671882277252 0.01809134216878381 -0.08071315716120239
-0.026489905734452025 0.018461340881153095 -0.07906904033491968
-0.02462258925238273 0.021131471478998663 -0.08327811471495439
-0.03358598828420539 0.004625861152126995 -0.09555144920741036
-0.03250935009112792 0.006983095245655395 -0.08154161669378499
-0.027991953920441362 0.017415607826313653 -0.06923727304778031
-0.02899980304139315 0.014608104499788136 -0.0795231886599819
-0.031760438987742966 0.01191949332432308 -0.0716132511744619
-0.03142813991699509 0.011890277572713003 -0.07633164184438103
-0.033205404830346584 0.008037575445087878 -0.07397857778875984
-0.03285646058661991 0.006323035617729655 -0.082215601703199
-0.032720045109992865 0.00924334627881895 -0.07444498506658956
-0.028679394376100655 0.016914412507697176 -0.0768884996295465
-0.03442366927762356 0.0006425108784687844 -0.08561800629230658
-0.03275890500683207 0.009209818235844065 -0.07360014017480238
-0.02311213743300397 0.023233314814242068 -0.0764520506820852
-0.025508153677392717 0.02020235506252032 -0.07809635955774552
-0.030440034905999013 0.014297283925247987 -0.07453815101472641
-0.03186987375497588 0.007985219990218855 -0.08051226426928457
-0.03140592916238635 0.012617350018591482 -0.07092821474702923
-0.028093286821853455 0.01782441543899007 -0.07347243724397275
-0.023962838980629203 0.021300475573752375 -0.08036309238605058
-0.02882955847316979 0.015144108520421244 -0.07915583436284898
-0.03142877156547044 0.01119127803708098 -0.09570851170800712
-0.0312955745331805 0.012769324663866526 -0.07157062076163095
-0.03221776906874939 0.008294450139085951 -0.08227274329687159
-0.033677531160611965 0.0058822605178469965 -0.07539941984174128
-0.03111021986559979 0.010278254961860394 -0.07963263071977313
-0.027129342214028164 0.01805264567012118 -0.06892591900375392
-0.023613036478218906 0.021686066377118226 -0.08015229138874064
-0.03140735951873275 0.012515261087338974 -0.07217769363770767
-0.022526515958393004 0.023561039068719092 -0.07310098839674004
-0.03398169132279913 3.534391860503919e-05 -0.07662004090295245
-0.033495830219563975 0.0011323710588897686 -0.08117488484893456
-0.028540737824952554 0.015645050101172564 -0.08161977460036544
-0.030035710643354696 0.013413323528766105 -0.09362628483115598
-0.03425926149707082 0.0019458799279832445 -0.07379429752754293
-0.021449023364399286 0.02437955216228816 -0.07114087059048922
-0.029446304759383944 0.013804829682864781 -0.0794790386949571
-0.034199249606601964 0.0026155077065791385 -0.07405412018154812
-0.027834358355020593 0.0170867896427225 -0.08309587012317307
-0.029188344930595713 0.016166190833623157 -0.07628638388153519
-0.026240270532811413 0.018476266384981403 -0.08055794096808098
-0.028006771194775695 0.017808886266833735 -0.0851859437367769
-0.023588752446102965 0.021735207038022678 -0.07138899970524978
-0.032308179584894764 0.010605780836120746 -0.07252180480426645
-0.022631418814416854 0.022702569902418913 -0.08030079491681126
-0.028104025626254064 0.017995956194122233 -0.07520285551140785
-0.02906164361600115 0.016258883941445198 -0.0854152324300776
-0.020792387547096718 0.024399470896075463 -0.07877693042855552
-0.025895826628849913 0.019598131410754022 -0.0716213872431542
-0.03375259414352993 0.0026199798224040066 -0.09706736294875552
-0.033430297288007095 0.004619166288844262 -0.0766865574682356
-0.033475433414332026 -0.00245798489556438 -0.08001230176715955
-0.024319811429998527 0.02160213613607099 -0.07276513701178532
-0.02786686175650578 0.017265627255004443 -0.08995052754346067
-0.02969144874848888 0.01510382736014173 -0.0883905191754576
-0.0270778936719795 0.01890117903900296 -0.07674472705257039
-0.02893209674948272 0.01676561240090682 -0.0744601270890299
-0.03175238521330934 0.009550374154115502 -0.09255864734095107
-0.03197957143376409 0.010378848067177905 -0.08671355520591861
-0.022324983223634222 0.022962210659836325 -0.07125867323981502
-0.028674000585169078 0.017143499484874196 -0.07498586955508155
-0.03264715047956173 0.009366255819744968 -0.07459971721027134
-0.029815461803407384 0.014701039715693849 -0.08952983844991955
-0.02291107508082045 0.02206144297028352 -0.0701475623728906
-0.031138144273985244 0.010190147259795581 -0.08040971606427297
-0.026139147018382786 0.02024948317208201 -0.07537594833057079
-0.028631970253778456 0.01711476498109454 -0.07304766210848074
-0.029913297725689167 0.014686238017455375 -0.08826998055184061
-0.02987426781266472 0.014744858245144052 -0.08840253567483711
-0.03193807814128293 0.011727968071654117 -0.07027752734294804
-0.024130137121089686 0.02198991590550215 -0.07729900714522382
-0.02753650981381388 0.01852343189529399 -0.07611625930242423
-0.030689355413408823 0.011535013851064105 -0.07938329146046617
-0.033602740198926576 0.0063737125328966575 -0.07381771626206002
-0.03094744844023682 0.011016079520459746 -0.08070906183891874
-0.03417701652477124 0.0030963357206112187 -0.0858999316294467
-0.03384024572325479 0.004767634022504289 -0.08773998173340505
-0.03135358204215893 0.010869094058476393 -0.09023860393836208
-0.03235555019355333 0.010002331103747155 -0.07449903122363585
-0.03328167844747768 0.006250863267188059 -0.09452010459484819
-0.03348122576571475 0.006299908733368087 -0.08776318064683061
-0.031139874184657954 0.012320846900306189 -0.08719978498297966
-0.033406674701159114 0.005656010832720877 -0.09552919123913008
-0.03133801074037657 0.01263744168074092 -0.0730682079612482
-0.03432263460568097 0.0005780702851095692 -0.07557843546913527
-0.033438099337955496 0.005598572654011525 -0.09450875646233142
-0.03147375965746194 0.00968186169148505 -0.07811472701288304
-0.03324225491406886 0.007611249000322362 -0.07553698729354304
-0.030363381496652013 0.012274588134105738 -0.08032903072916088
-0.033949848553229606 0.0013922033955157986 -0.08271605675405021
-0.032787080413336056 0.0042605133122860595 -0.07813728634189256
-0.03117369927354318 0.011954915090747902 -0.0769189549745809
-0.034375029429632234 0.0005717477293884256 -0.07331694727167946
-0.02663734631362412 0.019478641389115748 -0.07669026309186615
-0.03223560105230706 0.008234588527584059 -0.09153657025212639
-0.03282765299514842 0.006811980634581197 -0.08936819809862703
-0.03447786648756364 -0.0007201345443393677 -0.07412900401121879
-0.033875439304969356 0.0048005417083811595 -0.0848316992729643
-0.028571118737603932 0.01678138053943145 -0.08452937326303839
-0.030273088303801352 0.014112722314104327 -0.08698023368897063
-0.03066618353439305 0.013876178085352636 -0.0726456246792899
-0.031386508220764414 0.009227212919874828 -0.0801317979441051
-0.033430806842133995 0.004229639606038539 -0.09300862557475964
-0.03086816086228447 0.011031578852952247 -0.0796486329226857
-0.03146319534424934 0.010865752275067381 -0.09621689177563789
-0.03405654247785059 0.0037319451841097756 -0.08709677917062791
-0.021849296553576314 0.023631690871197784 -0.08102788698707318
-0.03295710871033701 0.0071661337433693625 -0.09546919343896274
-0.03350432547143272 0.005816790814064237 -0.07634424943838494
-0.032123876931810014 0.00866853679894377 -0.09204546260095749
-0.03373243132897784 0.005349259537912673 -0.08583546111250984
-0.032909274185058485 0.005000282072589226 -0.09135177617524834
-0.031807014683928964 0.009486933291455727 -0.09067527614097401
-0.032220325290239916 0.010585003758980523 -0.07356725638451247
-0.031628409713899325 0.011191526632677536 -0.0887393524320398
-0.03239568866590677 0.007565110950598164 -0.09002974041438119
-0.031840547796680156 0.00986201646632603 -0.09393666554487506
-0.03223943545789572 0.0093794186083978 -0.09584068371917559
-0.03294371765943567 0.006910158340550889 -0.09628882848168731
-0.032944089501167596 0.002978312405314303 -0.0999711328575539
-0.03151533392365258 0.011376499719909908 -0.08900843084925769
-0.024419093648326524 0.021073857376986495 -0.0818153440094819
-0.02753723540122073 0.01846756136397024 -0.08559380268008866
-0.03199818509826859 0.009006455142408509 -0.09220918083817531
-0.032887952671815934 0.007763951515459378 -0.09501471551352181
-0.023465483060358394 0.02243164722119232 -0.08425747577447568
-0.029020014535486832 0.016192449200802057 -0.08489542440374498
-0.026575111031396117 0.018513306668603943 -0.09105736344747416
-0.02789740138419023 0.017668324322197504 -0.08910201247761393
-0.02794388001348898 0.017706896751969035 -0.08773242642049425
-0.028937024052807594 0.015524647363523394 -0.08331628147573432
-0.02318020409535988 0.02219014387340755 -0.08053775351990171
-0.030277302099366417 0.014920324356503898 -0.06889568770515332
-0.03340085075287193 0.006680739602279393 -0.08714685856598733
-0.03184952882990228 0.009280967594366672 -0.09121487703973631
-0.03199620975487116 0.008905412512279774 -0.09106772361443619
-0.026344272439514205 0.019478592996200875 -0.0895753833013253
-0.027265499646459218 0.018873844078255625 -0.08642621177684354
-0.03294881371605689 0.0076477843047077 -0.08843842315351577
-0.031638582554986104 0.012140060214904519 -0.07348340853848381
-0.03290444196233015 0.007830537951300664 -0.08357626184935671
-0.03391007955665222 0.004109857995529232 -0.07594577745271837
-0.03356960468351811 -0.0012882060504162641 -0.07746759102883403
-0.033688735316625 0.0058426018731576115 -0.07528393610727235
-0.02952212167660287 0.013868612090013353 -0.07899084827157601
-0.03268810391423799 0.009428553977205153 -0.07324693832285832
-0.033654593062374845 0.004106842409918902 -0.09407175343595313
-0.03328546048799928 0.006748590637760681 -0.08388489679361467
-0.032369479590204066 0.008645542720947287 -0.09351846750542969
-0.03342709160485018 0.0028709679291517264 -0.07721651628073668
-0.03337120528288076 -0.0011651274840688117 -0.07834807105320449
-0.03221488794438729 0.010083726628021455 -0.08472995558973986
-0.031007678368365852 0.012030982518419527 -0.08965835246554663
-0.02189833774947378 0.02373788790872164 -0.07006661623437191
-0.03183338281826354 0.009695132098798537 -0.0830241775587266
-0.02529543345933101 0.020200639259790265 -0.07065727394840629
-0.03370727596300024 0.005559988710786623 -0.08528744005530639
-0.03387682678710805 0.003114179391758117 -0.07620760867200026
-0.028134408084938518 0.016775101110905834 -0.09137058118295652
-0.030514725688431953 0.013920855424467072 -0.07614756675160547
-0.0279532356862842 0.016787276806636324 -0.08265689497198932
-0.03184671990736793 0.010563431908654594 -0.08779015219927357
-0.034016868520871275 0.003860228586101239 -0.07446355071382323
-0.032958377723278434 0.008097861126903014 -0.08391669794501894
-0.030494277543332147 0.012399211560762922 -0.0921342430504999
-0.0313037778509885 0.010528750577238902 -0.09180366971318028
-0.03329270860986709 0.0010646175844626355 -0.07815786895203587
-0.03375242920951545 -0.000894785090282889 -0.0815933689419082
-0.033687459369345314 0.002384393035665708 -0.07676008658370033
-0.034407856698455926 0.0008088938660674469 -0.07434293025791314
-0.03437259736160997 0.0007962802030338967 -0.07382494529491704
-0.022958245530614624 0.02242414854763038 -0.07178543520500522
-0.034198629336575324 0.002385191992766864 -0.08811068349178476
-0.034106453967665096 -0.002298776119559577 -0.07627053148263131
-0.028056231142066027 0.017489760285974577 -0.08718476879167894
-0.0333659800748892 -0.0019291334950347879 -0.07847386211147159
-0.025665333337842523 0.019806614657217496 -0.08192084706011805
-0.03413823021058274 0.0029328008568482687 -0.08789612153883561
-0.03367055123102105 0.002320764850204716 -0.09813634223306976
-0.02850463325411275 0.016695915318895166 -0.08904664959920916
-0.02890038663558563 0.01661210338778593 -0.07674699334916273
-0.02753411077456017 0.017717726794156355 -0.06878322747323702
-0.02438696450930303 0.020832452456696578 -0.0799620154420267
-0.03251840663326106 0.007129628962117482 -0.09248047014041
-0.03311891567304431 0.005967550480397369 -0.09334332406963289
-0.033174296215098285 0.00528844769433307 -0.09297314455698572
-0.034365260068728774 -0.00097700441414507 -0.0757465384342206
-0.022723215491765487 0.02396146444035277 -0.07481600097402015
-0.03441033773168661 0.0011532612855092291 -0.0748740351639268
-0.03231975331178732 0.008159906962538615 -0.09813559217841984
-0.034306525504527965 0.002377795730348978 -0.07235392331828364
-0.03414804634028947 0.002929956782776562 -0.07491546609574785
-0.0327165924797654 0.009083180864940227 -0.08486124884275438
-0.02894358733262418 0.016270100991595187 -0.08926241423196357
-0.02969311651046988 0.013391347101924151 -0.07958574781545455
-0.027814412918845073 0.016513967639608336 -0.08057006246218243
-0.026671109423323593 0.019617055187929645 -0.07393797882958275
-0.027302251422301103 0.018587620144202115 -0.07214602191226996
-0.033255643750777324 0.0006367396761763426 -0.07929268972788028
-0.026485012749113537 0.019443260549002268 -0.08397535156834102
-0.03276271354458677 0.005549732282347564 -0.08131877274279904
-0.03155880059571607 0.012084283510813207 -0.0745300296769188
-0.02911141995687539 0.014775216106173616 -0.09197261051169874
-0.021789946199092674 0.02471896023464084 -0.07567357716804593
-0.026822317217615826 0.019070974593631405 -0.08403101372632853
-0.03405191645101021 0.0035561416587821227 -0.07393096953448536
-0.03356024441155874 0.00620131589482561 -0.08451791224291152
-0.027711869390021838 0.018292490994277884 -0.0761317384047758
-0.03345253104747111 0.0033489701804823146 -0.09215505110762615
-0.029448261918381277 0.015976277297861125 -0.06843876750522833
-0.03328681124914385 0.00027269105762546883 -0.07838760086850337
-0.033882961085749626 0.003480637980163473 -0.09453130898743109
-0.02416759535021141 0.022003114118265887 -0.07344760718223921
-0.021608042008492867 0.02486400009149361 -0.07545203209084292
-0.03230316524124483 0.00906486803047961 -0.09490419495539372
-0.021335885495482286 0.023971150862199194 -0.07877110622068587
-0.02634690083838427 0.018501965625954783 -0.08147929483850352
-0.023505721715444152 0.022476667084566276 -0.07768947251976505
-0.022685931711641343 0.022503431387123934 -0.0710343906416287
-0.031546314481842565 0.009361560988433318 -0.08169297015966108
-0.03422360087466119 0.00216912900724894 -0.08362481648626191
-0.030935475035016827 0.011350086978201635 -0.09210982650960492
-0.03146138815316815 0.011068307213840368 -0.09480883390076693
-0.030710814427235618 0.012411182007375409 -0.09037782442190255
-0.02971347194306491 0.013342092286962138 -0.08084821331708163
-0.02382444260956071 0.021994637528050982 -0.07286155059420973
-0.03326936687763882 0.0052689962783293 -0.08925750690092722
-0.033858630590434154 0.0004367439008787823 -0.08229851692985357
-0.03234195126954953 0.009998160552121504 -0.0753107481807707
-0.03240701201227458 0.008153982619807185 -0.09769553899062314
-0.02919860470057999 0.016534460538930443 -0.0733196193009344
-0.0332060542419885 0.007960424429141518 -0.07532578810803946
-0.03128008373439844 0.012035111710174856 -0.08469985311857728
-0.033860339431708075 0.0024070126921582153 -0.08896601876071966
-0.027073850204798803 0.017703201636813524 -0.07931451699341639
-0.03211727704089329 0.00930821908702568 -0.08974730330005651
-0.03431572527061984 0.0014703703101809616 -0.0876409234591168
-0.025225467772099976 0.020350466691060373 -0.07176211883668059
-0.029189311680539377 0.014823250461840801 -0.09354975647016012
-0.029226217907509202 0.014566582331248005 -0.09237923157549438
-0.03039515332825539 0.01435606175570684 -0.07559208007385733
-0.02529346753073649 0.021194385361050082 -0.07421413717637682
-0.03435573596053589 0.0018302393799152774 -0.08627263447812483
-0.02660081855814823 0.019735957621600773 -0.07410642298185482
-0.023056052842352286 0.022461090642790366 -0.07881471329058345
-0.029968927062632926 0.01399002375221892 -0.08360678654252666
-0.03218549075206299 0.007089017291617242 -0.08063491408412958
-0.027639768736094358 0.01824273916000444 -0.08468389701279745
-0.033333855131769966 0.004008322269473703 -0.08988511437830585
-0.03432852600769164 -0.0002501350474471467 -0.08330690090663609
-0.021263069487781075 0.02477866960238414 -0.07197555294474342
-0.03437790689768556 0.001399012185380083 -0.0731322091509451
-0.03346524034347348 0.0024498578367214644 -0.09068484963279685
-0.03404254991671633 0.0027478954279001747 -0.07574064328118851
-0.03335685733543842 0.0028956718504352923 -0.09122142947820297
-0.03317298644663091 0.0013972038871581313 -0.07879103822727015
-0.023294437354889265 0.022054677971510978 -0.0803202698074455
-0.031995058840795995 0.01009488344813557 -0.08727039730353317
-0.0315592725905226 0.010603097240296162 -0.09606907769656894
-0.03174721207984264 0.008198048942222019 -0.07893107272962331
-0.033781411567593594 0.003365851127146387 -0.07636096904683314
-0.03163735813496771 0.011678346082023658 -0.08627922272062902
-0.02489731674610931 0.0203519518282596 -0.06931979719820543
-0.030370165663650847 0.013203397933305515 -0.09487287115789855
-0.03120638188156171 0.011846138989113197 -0.09572334116932182
-0.03233954781805158 0.00853566753285882 -0.08973566300817892
-0.025186415070706087 0.020976785828003528 -0.07344024197335032
-0.03393716701779743 0.0032532297854186176 -0.09562751143528028
-0.031076289542002464 0.012383089579359055 -0.08837254051156447
-0.02929043721177639 0.014815764092728176 -0.07820793296623908
-0.0329030011727299 0.006039810652305379 -0.09807980517619214
-0.033901594480163055 0.0046842761315940805 -0.07462193915900582
-0.03354654035417346 0.004975334118680832 -0.09466994499885764
-0.022242634460914415 0.02282125003914108 -0.06993512134994671
-0.027256911017054124 0.018808193651938167 -0.08825595879086362
-0.025657705797582062 0.01968610659225497 -0.06949071344824491
-0.028198007940786564 0.01691065908398853 -0.08849546762563669
-0.03343742993554727 0.005105438931100529 -0.09601033223558672
-0.027359211055110993 0.018720893363370922 -0.08570549026574337
-0.026725862122429257 0.018133295572331044 -0.08213097121501228
-0.027166821839303995 0.01855368686894188 -0.08960686657752522
-0.03398289246927311 0.004215024421289631 -0.0753599993283352
-0.03302860398316022 0.00639133525280939 -0.09691524908330734
-0.02886057589165749 0.014824253283131913 -0.08031775721848378
-0.029834575827778577 0.014440542512724263 -0.08391912461303494
-0.029966490736941256 0.01440031616515635 -0.08420259310638592
-0.03385586910754372 0.003654656076320644 -0.09509775970504242
-0.026851827190306703 0.018266833732866434 -0.07845174228737795
-0.03396796598815531 0.002904091678166161 -0.08322878560313582
-0.032556205552333954 0.00398687914145427 -0.10063680217488258
-0.028871413168555925 0.01522205933697592 -0.09307286142937085
-0.032923400976745294 0.007200967191856642 -0.09442255404760946
-0.03331888335410715 0.005333130949091413 -0.09662105183940004
-0.032960336536056505 0.006165768285563512 -0.07699411773517442
-0.032741523997350204 0.0064092667483365085 -0.09829783462222873
-0.03313008868148864 0.006038293922733605 -0.09701838901385466
-0.03207503647148709 0.009437187051743378 -0.09373537387647202
-0.02286801076497235 0.022440116726111434 -0.08119645849668757
-0.024188459685124977 0.021153536580642736 -0.08120877571206872
-0.03285347197655569 0.005848699569422804 -0.0984549944002583
-0.02888610333962921 0.016829573949246224 -0.07192071124117452
-0.0315125291668659 0.010756948655031977 -0.09408354208250737
-0.031146402996414874 0.011625370730371938 -0.09342169663373895
-0.034443987051175975 -0.0002903215025038054 -0.0744217750428433
-0.025950581992300558 0.02036644675470828 -0.07598417520066453
-0.02514420895331045 0.02145853347626172 -0.07486076588712827
-0.03370578533455794 -0.001657123129474542 -0.07707028455756704
-0.03326693354444053 3.49273244792363e-05 -0.07893339434186258
-0.03349971470877424 -0.0017644559413463375 -0.0776972277844572
-0.033015504179489084 0.004587505733884073 -0.08139265527180756
-0.027598859672574135 0.017990843047138914 -0.07096699972916387
-0.034091568521949396 0.003863297973222657 -0.07513976417017766
-0.022685964811662872 0.022832969825650622 -0.08222111871835568
-0.029129973083746527 0.016271900047782964 -0.06833787416397255
-0.024699529733260814 0.021431088547005397 -0.07703039781438002
-0.03395441904515171 -0.0024054969937951014 -0.07655857262426397
-0.03342138595296822 -0.0023924763191442953 -0.07804856773792528
-0.03042548283482337 0.013559475905489404 -0.08926403049579898
-0.03031187785910612 0.014204289596339438 -0.08638244831760991
-0.026936464591852047 0.019055719270297117 -0.07252114960214678
-0.024490105985486038 0.021426872315222716 -0.08395461741535647
-0.02918839800740686 0.015932093290503966 -0.08818344665446236
-0.02193782944753426 0.02345728988089836 -0.06880762480773758
-0.03164796094268141 0.009581764318778321 -0.09821514950659835
-0.028896771823143277 0.015446082081162993 -0.09087574777153369
-0.03263223074758759 0.005225015988372689 -0.078350272384942
-0.033230983921942556 0.00494544097248824 -0.07690358463717026
-0.03292630726425972 0.0042816129342971325 -0.07778246503717273
-0.03378434932826691 0.004629704079397711 -0.0835617608678445
-0.03340535858396768 0.0063588327294901645 -0.0760922685696482
-0.03268394081731998 0.005777569785938381 -0.09922249915798723
-0.027079708399474874 0.017764581885986883 -0.07912709748571535
-0.03393003754966496 0.0028159663629899216 -0.09584591218665789
-0.02887244608609154 0.015155932222436724 -0.07897321640421892
-0.032666209966039854 0.005669438623985738 -0.09941205524946838
-0.03202952720758309 0.010974792258275776 -0.07436174021829123
-0.026156275601967826 0.020084068657054928 -0.08641758415125918
-0.03419169409803774 -0.0015766778493488843 -0.07608341131618013
-0.032708187095172384 0.006873260258178927 -0.09803253301488883
-0.03292785831950536 0.008409738818833432 -0.08442314905115963
-0.025149035707863254 0.021327961743877875 -0.08766950669761378
-0.03337914915160854 0.0049290140601240045 -0.0971544165886284
-0.030490101500635292 0.012410403796398795 -0.07804565460051771
-0.032907054470133486 0.003011154883807089 -0.07895368116022633
-0.03322414621948495 0.003521022049601482 -0.09902111752449427
-0.03309054002578466 0.002080104326324822 -0.07912342741894873
-0.03304986806234861 0.00853846039969363 -0.07488773088459366
-0.03078012391087978 0.01246051774098497 -0.0836540623624968
-0.03290296500509589 0.007359247277786826 -0.09549167627828534
-0.032702930662213504 0.00936107400124126 -0.07377842502351868
-0.03377819454748469 0.005107758736422238 -0.08678084218034895
-0.03351151079827815 4.2704971871846756e-05 -0.08073620888507894
-0.03330070631813211 0.0018774365191577252 -0.0777085184448805
-0.03402213198060633 0.003922890526060483 -0.08549795038251332
-0.03287450241039103 0.0039467213583148746 -0.0803096569507359
-0.023433422994093928 0.023086502347131492 -0.07421683492984144
-0.030737190122693412 0.013366323994735673 -0.07621501608318185
-0.029541898372378125 0.014466518057272363 -0.0905698781082729
-0.030978444016143268 0.011271339384459478 -0.09103216100855029
-0.03220602683991868 0.009108779213821359 -0.09426387941527793
-0.03359797556246825 0.00366044235143889 -0.09749852427140188
-0.02931777475224924 0.015989957493177345 -0.08601437712622692
-0.03019182130909002 0.013036579400217596 -0.09141501598247115
-0.03358615054610382 0.0038532499721420296 -0.09657837309787218
-0.02899359859894908 0.01559662777155742 -0.09008401131155779
-0.033741437942176614 0.002749471498620426 -0.09734683291538185
-0.027598281133170605 0.018149772315952967 -0.07706449706800064
-0.033852745428727155 0.0020480532573527665 -0.09727726234727173
-0.0316528945613523 0.01067309282533512 -0.08965472770804409
-0.03197135148449117 0.010010367352944652 -0.08941021060427484
-0.03125731955934481 0.01267524889221293 -0.0743508665730322
-0.032026161940192296 0.0094046471246168 -0.09324570690131787
-0.03247099203705719 0.005071582174666498 -0.10046935094427101
-0.02665558340622315 0.01948932210472091 -0.0732593621025949
-0.022263143769070383 0.023195865089167933 -0.08127755726147144
-0.03384270814597914 0.0018943550622450662 -0.09749852795339845
-0.03258405182456873 0.006133985516216267 -0.09926493493328888
-0.028739425261137146 0.01701495290705713 -0.07532669759993596
-0.03399357562135883 0.001043090851366746 -0.0968309826370041
-0.03268419659792088 0.0030253009939140278 -0.10074470160908608
-0.03335878502336203 0.007453387642602505 -0.07307254626910337
-0.03172569151100282 0.010798357297629171 -0.07667029073036338
-0.033160185966348614 0.008063949248462644 -0.07258267420897188
-0.03005824195957346 0.01519915254593441 -0.07298466954877629
-0.03265501721001932 0.008216876972404981 -0.09557844417149816
-0.0328744284663731 0.007374753555093283 -0.0943879801233595
-0.033261886228601156 0.0023444580786433195 -0.08058869590017709
-0.03208019534284285 0.009298783629979008 -0.07701892449419502
-0.0295647297212497 0.015305539145142592 -0.08812532661023906
-0.031959395321902034 0.01070468955506607 -0.08645669178380311
-0.030313718806036907 0.014610079965528886 -0.07331821859001837
-0.03448167240822361 -0.00020070869614294997 -0.0849813198138907
-0.033036815318344716 0.0017773628858356644 -0.10034652602300267
-0.02100109627836237 0.025264696234550056 -0.07574613799936304
-0.03319033486562508 0.0023345954984056337 -0.08024812105097999
-0.03056335059994373 0.012250094541465424 -0.08145633912009975
-0.03397676699771343 0.0036961924039318247 -0.08819639786449239
-0.028490554692021372 0.01704926037098545 -0.07059692995048013
-0.033166943313583414 0.0019109274995930186 -0.0794750672612286
-0.0329530298835859 0.0033393237587928284 -0.07998446890547034
-0.027454186717216972 0.018022281568809362 -0.08977526021687625
-0.03089232620451378 0.012189069738928898 -0.09359191941097827
-0.02807854185931942 0.017229531312065217 -0.08896585262505406
-0.03135994144355489 0.010537574039967829 -0.09097227612383657
-0.03425032297377578 0.001961277342220007 -0.08800021237677548
-0.029651207072844837 0.013559540376973388 -0.08154637066005205
-0.03136643552121032 0.010702372716226176 -0.0972993656049268
-0.028156884764802662 0.01667707235803518 -0.0780932831356609
-0.029211889211850875 0.014250182297779235 -0.08086015066720609
-0.02662001711859535 0.01965041939553042 -0.08470688336067914
-0.03398706100102959 0.004216493412840682 -0.08401773666674264
-0.03316278816206636 0.004658233671853236 -0.08985099481818105
-0.03240325091495626 0.009390052931320173 -0.084013967649263
-0.034425804166357044 0.0010707360771566843 -0.07469636026459776
-0.02499788741620012 0.02032775062295056 -0.07902190933070567
-0.027896121364848137 0.017132573268932937 -0.09055489117228367
-0.02576462511983952 0.020498284268645715 -0.08702436994431852
-0.02992833897570891 0.015356024186516881 -0.06822955911372518
-0.02423611412228495 0.021463483829823025 -0.07207952237245409
-0.03121439228937156 0.011107707921940555 -0.09724975483109279
-0.033454252706567024 0.001525990760700285 -0.07736434005504099
-0.028148902301101963 0.01763924972030972 -0.08576587390113892
-0.03086436134227379 0.012659877542679925 -0.07668340822351268
-0.029196489550224112 0.016274867142458387 -0.07561674281198058
-0.020984175532221344 0.024138326938417325 -0.07990040192679382
-0.0282658239107346 0.01747844144631583 -0.0864896167839545
-0.028443311970126693 0.015789200473535936 -0.07959163322528752
-0.033997801770963954 0.004298068157744504 -0.08714939859289682
-0.031764337732045865 0.011847707753367753 -0.07307345773460616
-0.025593635451541127 0.02036741572509151 -0.08988782634012046
-0.029936241693577562 0.01296460462407074 -0.08005258469824213
-0.031048460236340225 0.011577869704934242 -0.08263941191779885
-0.026687568159767347 0.01924096851465249 -0.07703620857681123
-0.032793704380577826 0.006234157545298861 -0.07729775320092523
-0.02960982675866565 0.014003540105446619 -0.09305431398542727
-0.031403167773388106 0.011513656595843125 -0.08912865426260844
-0.03277328324810437 0.008707500391829246 -0.08653346671028206
-0.0322054575182043 0.009745863422513563 -0.08401629895802674
-0.02595227185662677 0.019579516518314966 -0.09040230717560982
-0.03295315128652246 0.00234350638011458 -0.10034364282240053
-0.03218129599822646 0.01093839815755494 -0.07134141954077591
-0.026470568022678782 0.01982953998356419 -0.08838636967384966
-0.03159344603613431 0.011730251882567752 -0.07600031850604214
-0.03176443988158108 0.009785844934778595 -0.09033944738817798
-0.03241333485625874 0.006355646629022653 -0.07820742292054789
-0.02464705692300813 0.02080148760071138 -0.07117641790292636
-0.02042399039019291 0.02501807644394012 -0.07781375899034398
-0.028693833100902434 0.016127116629871353 -0.07772307324336702
-0.025764597445043287 0.019432683311583376 -0.0691714272586473
-0.025626719733676653 0.02043823665708283 -0.07330461005808452
-0.031018443146370842 0.011251413566965643 -0.07793143536126132
-0.03157335738937824 0.012225448789840453 -0.07255514427727883
-0.031005960595519935 0.012014862161300826 -0.09357268376746038
-0.0342492234177044 0.0010890983556496204 -0.08328884861056696
-0.0290359917184954 0.016558987068665206 -0.07001982777257731
-0.02878679645943994 0.016680632863338415 -0.06928828780478172
-0.033778710135533276 0.005438061576122918 -0.07398073000289292
-0.028390985612705026 0.0171750402654385 -0.0849631015555973
-0.0331954196012496 0.007453698413961036 -0.08543173369536206
-0.03426035013917311 0.0024348608175003006 -0.08617761436997709
-0.030476171544309715 0.012582486462076013 -0.09121933398558289
-0.031609931829932755 0.008740896420246185 -0.07963462688881019
-0.022249099020948338 0.022779557863647718 -0.06726839807126692
-0.029889253407427464 0.015646644961528088 -0.07133947426522134
-0.03337245257895477 -0.001482430951274058 -0.0794597033822357
-0.03262996561391899 0.0066225637638208 -0.09029437979569215
-0.030481915862978062 0.012675815846189799 -0.08284449401535621
-0.023322310390141182 0.02180658609489929 -0.07076667627031742
-0.028547904991551232 0.01573805546911256 -0.07897180537906165
-0.030772250491764214 0.011319605622628367 -0.08021987979204107
-0.030012482664829872 0.01324191783839909 -0.08224359812954384
-0.0334702189590259 0.0059630762726498076 -0.0885305917687421
-0.02354142433658936 0.02315692676417989 -0.07491745596453543
-0.025841892799204905 0.019940294807788646 -0.09011141751725056
-0.027158696645646394 0.018837041480747944 -0.08893825172122971
-0.02508745997796414 0.020614217169700497 -0.08303294220126405
-0.0313482375279553 0.012974901815845052 -0.06907457475514853
-0.025413036807737432 0.01954295081315208 -0.08003289361638835
-0.031061231569230012 0.012884743379921824 -0.08614471523409023
-0.025002108070331902 0.020154181563471242 -0.07964752619772061
-0.02636822765166602 0.019900250590255658 -0.07653621679058897
-0.03437573795738196 0.0010732524626698462 -0.08561983314258448
-0.034462544537426615 0.00044416573760469136 -0.08482134548488884
-0.032382330840182515 0.009390130565350038 -0.08805195437461394
-0.03354190717015099 0.0031167552926702332 -0.08230949442855601
-0.030893707076950674 0.010959941705003085 -0.07942110439517935
-0.0335935556856641 0.0041842558247703636 -0.08897664251221511
-0.033907269197453994 0.004916097594390443 -0.07327752040197662
-0.024680818246507252 0.02108658177037895 -0.07789752142991996
-0.023807487129090196 0.022565302674940675 -0.07632606826372976
-0.03376588807492363 0.002159871156712253 -0.08250458166502077
-0.03254781317476578 0.009634353198182323 -0.08554390910419649
-0.03273790901677697 0.003921216790780863 -0.07966111593937014
-0.033065945534475116 0.0021879752498965566 -0.07851280604773404
-0.02986250540238559 0.014942923126498944 -0.08718145431653114
-0.02239299721870361 0.02425453633767978 -0.07501919166882146
-0.03430330694099634 0.0005988498455277089 -0.07564815511864612
-0.030046125408670788 0.01435914732673267 -0.08928066815872658
-0.024954142770001082 0.02075679519263335 -0.07796423596454016
-0.03253596477709512 0.009277527197628706 -0.08419812887328158
-0.033181388991518575 0.004358013466118868 -0.09219411947778061
-0.03051497730805765 0.012925642389164218 -0.07734202076464065
-0.032253707658512945 0.010199757665083372 -0.08586461125619932
-0.031262762499961794 0.011403451865430226 -0.08329347549727324
-0.031484390738967014 0.011145446303702554 -0.0837253739422032
-0.033553881804528354 0.003873676927509985 -0.09694554610868773
-0.03291159401662498 0.007335384669541734 -0.08879299354767786
-0.03364625245349452 0.00334532229959725 -0.09777252801681945
-0.03324972416312809 0.007145268616806018 -0.07584574551497235
-0.023706577123761386 0.02193702437792907 -0.08320363421543354
-0.028020866015088363 0.017764821720043875 -0.07203575326247624
-0.032120393725637894 0.009554258281517816 -0.08354632737402812
-0.030277026209681084 0.013762329487131696 -0.0895252173038066
-0.02892813063285337 0.016685288870230717 -0.07595413310654939
-0.031060217909441724 0.012221789927421883 -0.08930064195888292
-0.03192110044665624 0.009150900696546598 -0.077402425754971
-0.03197021294718884 0.008975563009158112 -0.09020412138724941
-0.024577097382000843 0.02118532428929494 -0.0723226366147915
-0.033073904894378184 0.006316277594498515 -0.08917640768522245
-0.027513104444020622 0.018399467119094924 -0.07667954488405973
-0.03189281365822802 0.010796044534480001 -0.08485460247597337
-0.032169868301752474 0.007647465530528901 -0.07816707404534867
-0.028396285264436487 0.0161253282077157 -0.09162169960092605
-0.029587044862670303 0.014052741225254328 -0.09103287221308251
-0.02810775202509405 0.017326149563012375 -0.06933203728253938
-0.020733948241429566 0.025445616071109914 -0.07446049021635585
-0.021287585080902192 0.024968360203865544 -0.07397445610200173
-0.03320674733997152 0.0038849130070472064 -0.09078812847150171
