0.002553486719659116 0.019909363717046265 0.08039108594522751
-0.008186209410145591 0.014656112324802142 0.07689691981077461
0.008205682394080066 0.017661161199156724 0.07697240470670798
-0.006032913049258023 0.020939231096402125 0.06927456343541462
0.012558148789228838 0.01370467118496443 0.08334814179647838
0.009781796897048889 0.01689102597610528 0.0786707881650574
-0.005380876751131968 0.01780315712965554 0.07238772231828561
-0.005666043536965249 0.01730736967433898 0.07263058010527214
-0.006950447172800831 0.01575433494431605 0.07369738322290986
-0.009947991249127638 0.013962989146136445 0.0726745840675564
-0.009959616117865853 0.013277177409588413 0.07320787606461555
-0.003849212334370801 0.019091424324531522 0.0715853514954684
-0.009872631485938128 0.013514796986407663 0.0730373664422716
0.0022963479614451173 0.01834800027023599 0.07191779393447148
-0.0040582758914866675 0.02037435947733878 0.07024294752517449
-0.005732975869432312 0.020775454527533575 0.06957746036377582
-0.006737487312761657 0.021058144816620685 0.06815178701403883
-0.007575407487067649 0.021653295464423614 0.06713933988622187
0.009564252223058492 0.01717843803737403 0.08218385069559915
-0.008580341021180103 0.021671274816666752 0.06711195556850366
-0.010151730497920262 0.014732558561931102 0.07212561544098933
-0.0017971822975426173 0.019300836811515818 0.07132693964861778
-0.010534885690573339 0.014662874596615253 0.07170007441739085
0.0021537870034881645 0.018243848235218504 0.07230624560699417
-0.0037143556265134673 0.021603621910945836 0.06892501806019846
-0.006908327887492627 0.022211714678321715 0.06680142728000849
-0.0032161975750948923 0.02233756451844435 0.06827067300846068
0.007828155344860822 0.0178195101794891 0.07162213346951951
-0.001904624042938655 0.020386428413191757 0.07045687630758155
-0.0026353827415668118 0.0217903841229158 0.06875029940295632
-0.0003793568834465897 0.020196620048482432 0.07084961202648657
0.0066224189114711075 0.016965535679363944 0.07347535610718305
-0.006558422127694865 0.016282907693286025 0.07340592424242509
-0.00546107039287082 0.016968808348632396 0.07344922963391584
-0.005410255421791238 0.017091824867340642 0.07329787920059036
-0.0026637061908655474 0.01735824751231088 0.07517190303979782
0.008738624743461883 0.01581045047398374 0.07436893255453195
0.009689967264006307 0.017782102708902695 0.08091169738301504
0.0010366310672232466 0.018388261006299207 0.07271118615785115
-0.005012948827397152 0.017010467844178135 0.07420850521070915
0.006364052219043877 0.017163258413058494 0.07398115887552698
0.009481756485924787 0.014961537312415483 0.0740473765806488
-0.008039712996964658 0.015668294585914032 0.07255332028528548
0.004785574616784141 0.018123025029582993 0.0718176002015122
0.013539612030766472 0.012808700656964595 0.08516905697599936
0.012541157421350603 0.014239357526225477 0.08522985531867679
0.006822413363882476 0.017805396479389585 0.07193592582499776
-0.0006310509305612467 0.01618899173972507 0.07781269461353472
-0.0014793080307361401 0.018354241403857552 0.0723440098294464
0.012328367955255234 0.014583118048471424 0.08594871754930966
0.011658414409523038 0.014900865197599433 0.08443023257037989
0.0037070864167924053 0.01799234359563133 0.07887564375827982
0.0028190220237309755 0.018748937106547025 0.07138266925997801
-0.003498977763753296 0.020919903467562055 0.06971349217481979
0.012850251768535966 0.014020452706606831 0.08580524461363512
0.012120557301773392 0.014800556300273474 0.08525199311478576
0.012271001785754689 0.01440950228455442 0.08283959320123152
0.00983037941690508 0.014792647088966902 0.07363626131817537
0.01050050007179667 0.013917570006683526 0.07464319063036272
0.012084244750789123 0.015018923488088637 0.08253329755262909
0.013150856364039907 0.013224410329784657 0.08489004895987601
-0.008256427970764289 0.017562864130899573 0.0713904577927346
0.0028827285766577534 0.0193089669160485 0.07095341545797589
0.013989191584715887 0.012146341077909713 0.08518633908991437
-0.008858456994668874 0.013820927356636752 0.07423517577320368
0.00957933892256463 0.01728767594927984 0.07897067463778878
0.013827700789048637 0.012280455262079777 0.0849504543453265
0.012508837968915481 0.014391849546967036 0.08595608056683442
0.011660401169045933 0.015294720066363485 0.07180409492278256
0.006962812452872516 0.016901668094109847 0.07311967250796839
-0.008666132371374174 0.01975443261542227 0.06916453531036841
0.0238203111417729 -0.021354378513868563 -0.05416874791867866
0.02436457101695714 -0.020897013973301168 -0.05513918982430032
0.00984872201592763 -0.034341634433676986 -0.08962345492158257
0.015285152596149583 -0.030814247209686896 -0.07779051849649007
0.026574405866761595 -0.020617251509946546 -0.0646070305488982
0.02502078153225633 -0.024526646409766054 -0.08280413826686189
0.00992155206067792 -0.032620773123589394 -0.05419145533877601
0.024417187026380537 -0.02065843330902495 -0.05211144479499998
0.00993954337424343 -0.032430546247664976 -0.05274617885981339
0.011165233055996326 -0.03423972888805419 -0.08465400638258679
0.009646468337267827 -0.0329909197908687 -0.05630969066847223
0.01130120985524508 -0.032388512388991236 -0.06082511463533237
0.023945103459258852 -0.02117482500986874 -0.053469283674854665
0.028511086874957178 -0.020335784205075518 -0.07532866819289943
0.02770757614569153 -0.019801291649950904 -0.0641115133122075
0.009689942315103802 -0.03319022551029989 -0.05892336443181766
0.013546065042435225 -0.0316611221907551 -0.07768992931897026
0.009271533354733165 -0.03304338302801918 -0.054135487822488504
0.024077970528207465 -0.024913907224062014 -0.07695489929422919
0.009643632141206247 -0.03275954527609494 -0.05359748090981159
0.03406840250919963 -0.002330219216467725 -0.08241596732640397
0.033787448354923456 -0.00758364012473078 -0.07665406489189856
0.018707925365619656 -0.029195067300445916 -0.08025548192211875
0.01659561240779084 -0.02817629793067606 -0.060696681467822367
0.03409184923888388 -0.003387410686852906 -0.08284782302096202
0.010057048123895773 -0.032261637821020706 -0.050947402081539625
0.010312542832105094 -0.032058833637692095 -0.05113939032458156
0.012206683518604747 -0.030319485136558535 -0.04769268062658514
0.016732562898745494 -0.028874454731397922 -0.06370120950205899
0.03448321245001397 -0.0021439396414547236 -0.08485998057510619
0.021400227456339443 -0.028225621831249853 -0.08389964284727135
0.013871276633746547 -0.03188088071024597 -0.07995494638124818
0.009365517733076397 -0.03273234678189193 -0.04914695182441352
0.003409855798843936 -0.03463575865657707 -0.0553906673185114
0.030193162876915154 -0.018285719735793002 -0.08529364532020872
0.00973156253915528 -0.03309380868542955 -0.05842170347728884
0.011160045962932456 -0.0312545753953285 -0.049146847144177566
0.011405242786909643 -0.031055677463539263 -0.04894179457743686
0.008807402149700818 -0.03301655196331927 -0.04954670600695505
0.014934396040010522 -0.027929038977211666 -0.04524153214728015
0.03244061568185014 -0.010489655738226003 -0.08125647270462798
0.014270069035029916 -0.028504151649558503 -0.045365538260288656
0.014833253123869681 -0.028059394926718773 -0.04637141504979686
0.012425153944399516 -0.033194975079840344 -0.08155996220980997
0.013114580642044796 -0.02950046410947161 -0.0463567591340729
0.012923130671061954 -0.029681515663752614 -0.046765924224284945
0.009200371988850988 -0.03293910125875349 -0.05207882573232405
0.015035240813564067 -0.03197839820976051 -0.07304954704944802
0.019783263978185365 -0.029248710713765284 -0.08744023766000683
0.016814694506577195 -0.03005283963978245 -0.07933614196247214
0.023395466960668347 -0.025646891161734537 -0.08092949004010207
0.015833594527032542 -0.03200467425042876 -0.08446365247584978
0.0222327551385463 -0.02778410779273777 -0.08459188247392876
0.010680241978779412 -0.031670410338422425 -0.0486383632528516
0.03298877071089672 -0.010701668147014298 -0.08405037966874926
0.010976845361254968 -0.03410815701202927 -0.0821628881995684
0.013305247271673842 -0.03195704347599487 -0.07964989234472439
0.022821999336554964 -0.025730006143230535 -0.08022820000913815
0.008616201977730184 -0.03368862607500919 -0.057125710269496796
0.023882197294968537 -0.02623451396126035 -0.08448651008666425
0.012364022653413692 -0.03316097206832112 -0.08689846754223389
0.02051803993646796 -0.02907761332458228 -0.08479914201203485
0.00793410324453937 -0.034079642736322975 -0.05914711166516492
0.018681257303648915 -0.030269298487493986 -0.08820546739273513
0.008810417603395779 -0.03366415628191735 -0.0582726070004448
0.011857883158858412 -0.030569365794146437 -0.04721203399328015
0.016810407534554768 -0.029978741008008545 -0.06901480354340281
0.01500895066850048 -0.03253493435448361 -0.08410986571030113
0.00857765366696664 -0.033623486177473134 -0.05630579091840062
0.00984917086588693 -0.032375738195793015 -0.05005024280825128
0.020998393998449057 -0.0282741148474127 -0.07419502024852816
0.02546082630281996 -0.021520064576828098 -0.06545085382383736
0.022432498529455287 -0.022307415291147294 -0.05130385644652402
0.030868637081642728 -0.014883406074000245 -0.07844606662577407
0.025231532240515293 -0.020172781604504916 -0.056641936032291174
0.00800987875234625 -0.03356769926619081 -0.051489752511754236
0.011007474971108277 -0.03126442989654615 -0.04646836803514752
0.011050591692762214 -0.03129071027508672 -0.04728736954900076
0.009930396405984228 -0.03421897046975876 -0.08881071560826503
0.0037200654630582747 -0.03456243580655008 -0.05383194177077643
0.020649394790483694 -0.029122071018342185 -0.08631370367177545
0.010514559768079019 -0.03180380901801822 -0.04871275187126267
0.025064103534354343 -0.02457997470008347 -0.07556548420462283
0.018485489822521076 -0.030384418293074762 -0.08793791754788274
0.0027363276088650246 -0.03452669173105394 -0.05390064530610578
0.01418333134912406 -0.03014599440894563 -0.061565845973686896
0.01895698482547645 -0.028919171238158015 -0.0797682688578801
0.021848960910233972 -0.027675940487126547 -0.08365792231934113
0.0154701792987867 -0.03180743237968269 -0.07265700503095682
0.015360536249013998 -0.03174272426660538 -0.0714191703806622
0.027082229592787988 -0.022612868460308088 -0.0872454761944034
0.01182922345158553 -0.03311085072516555 -0.08100606485673548
0.026363611197244168 -0.019224395652751622 -0.05510440897160417
0.010336266127632065 -0.034421988851363355 -0.08296853103571186
0.006263156302962291 -0.03423278068365833 -0.05387567575733532
0.03398488793372818 -0.0002549840023854761 -0.0821184272481709
0.007369342439476007 -0.034064940954509036 -0.05528388052522193
0.02322069865161043 -0.026498351601171848 -0.08187462774264576
0.03239455586469411 -0.009550816196664685 -0.07905552723201584
0.016509688295257424 -0.03152549899182573 -0.08831488759953676
0.007913812905328093 -0.033585528702034226 -0.050934969082350554
0.01623883823246351 -0.027400692658317086 -0.051527373098283605
0.01686811345111782 -0.02695456790024857 -0.05370398341475072
0.01424083584814796 -0.03137213137770697 -0.07882691219599178
0.02156012429842246 -0.028359288625619296 -0.08520009090787373
0.006677789885632722 -0.03424876257565163 -0.056005346868063105
0.007075688694028965 -0.033869622218019944 -0.05066250583945266
0.0143218249423104 -0.0287013144957003 -0.048046667988051454
0.0070743874676098845 -0.033835325422322704 -0.05016479474326335
0.015634395227261632 -0.03207092184687091 -0.08305607576061787
0.006940406149773157 -0.0337280465604448 -0.0489647155985954
0.024893376534711104 -0.023842346428902712 -0.07828991743935468
0.01486893019317167 -0.03222501021085423 -0.08696715772249791
0.027870852187090997 -0.0219104684379942 -0.08495794078163851
0.005787141593057807 -0.03427720055073782 -0.05297831532678557
0.01459860715764293 -0.030721554309130185 -0.06512633505179745
0.0059879125474891675 -0.034166770968575726 -0.05107210692575597
0.019854646394920773 -0.02613891398472601 -0.06315884774499639
0.033857789526621086 -0.008624288517691538 -0.07602024548844673
0.02338196012212182 -0.022356242868816975 -0.059394189208146854
0.01987506089213036 -0.024243764752509604 -0.05026304601230862
0.01928369350889378 -0.029579490710404555 -0.08718126262091967
0.031615647902950725 -0.013757997408087252 -0.05790374666745724
0.01232791715475569 -0.030238648863940717 -0.047768633059437446
0.01270814567697219 -0.03002430553929057 -0.048411352742753794
0.017642443774365812 -0.030939616486921895 -0.08417481742563293
0.012094107957068348 -0.03371620261310988 -0.08630697569995358
0.013139764466723648 -0.03288521143300797 -0.08736338289063855
0.011407982618630817 -0.03408290397870722 -0.08604981010103244
0.03184641588495898 -0.012841868769788106 -0.07706707953398059
0.03467846992193564 -0.004351052557834866 -0.08656256397848915
0.01799853055774688 -0.030251702055147142 -0.07448256923725981
0.008668272582375782 -0.03385596986186064 -0.05967212035430719
0.01578282765717723 -0.032076598455087715 -0.08590812931922225
0.03187053266184684 -0.012559022726314945 -0.0776034985090785
0.029528516724533035 -0.018932446088018622 -0.07567100628173866
0.016691296267619005 -0.030638695511887956 -0.07597942442075048
0.029042887539507147 -0.01854533415105013 -0.06840175401053382
0.03229507249639464 -0.012394370350351208 -0.056226737070590435
0.029635914945106503 -0.018113103932332675 -0.0763934678218542
0.0040345643264265135 -0.03496756741272661 -0.06062874477151899
0.017093990210780556 -0.030124504469606773 -0.06986101152605133
0.020867378519833252 -0.02899906104244294 -0.08597642251339475
0.0168622711978108 -0.02934577422760327 -0.06725429399589797
0.01327793225505318 -0.029923284726199657 -0.05339007831952503
0.029428917501977226 -0.018372871214063956 -0.07643272103380207
0.014733819449605532 -0.03202878825205088 -0.07473127288671284
0.03128064228901617 -0.013644213887500303 -0.055938898239264956
0.026110251757699064 -0.0191164441004972 -0.05252572393117639
0.013283958914360726 -0.03222812677695697 -0.07618273971830804
0.020432538114431423 -0.028688046879089504 -0.07252494415096605
0.016998697189391673 -0.030068161895574107 -0.07723393784215095
0.025921631583081965 -0.02063980859580894 -0.06206759423028971
0.030712780688618 -0.014937368884766124 -0.07897357058795876
0.03148668766993529 -0.013747770099212365 -0.08121297901445687
0.023345387089030518 -0.026074520586698353 -0.07283784625000317
0.019783215854640643 -0.029346116001554477 -0.08788321477461203
0.012952589319738762 -0.03270361178147827 -0.06962775381366074
0.013860334330733165 -0.03155628315814778 -0.07903830661162628
0.024637882890298654 -0.022937107131373674 -0.06831665590400872
0.031949052604664435 -0.013606870463875268 -0.06559853075736871
0.012930624233030853 -0.032067307312008866 -0.07940626881464682
0.011085306164523393 -0.03173825397817346 -0.05428022527158168
0.01563928231646165 -0.03136055058305567 -0.07532755299371156
0.032688866282742576 -0.008673645284327885 -0.0804481468514703
0.0036321246917959396 -0.03499014407895913 -0.0630429491054725
0.03175211426674149 -0.014017112044699166 -0.0615301787233286
0.02253518490395684 -0.027045089845541166 -0.07293303598047822
0.02497124941739794 -0.021150640115744083 -0.060420710194265016
0.025197923086993347 -0.020962723167603035 -0.06025518297584346
0.012151856795430002 -0.031626550806608617 -0.06076192876981317
0.016111860683398392 -0.03187750237835784 -0.0860854830996148
0.018411956098907934 -0.029039866560340532 -0.06856154031845274
0.017407756912412413 -0.031147293761293375 -0.08528046169439843
0.02170997358173431 -0.027738520226631386 -0.07463326394798447
0.021526166861115387 -0.027891751760316316 -0.07404530111534019
0.01519646792640435 -0.03156015501796926 -0.07559865897884807
0.021759929030928174 -0.02369530587426634 -0.055197652342713684
0.023874537666262373 -0.02603454498825609 -0.08392523383656995
0.02285023732002829 -0.026294999586056033 -0.07705174514964262
0.014601148462850669 -0.0290813688256314 -0.056446922724740174
0.015243285172433941 -0.02856016242755756 -0.05655917260356561
0.025945509559965184 -0.020442091417975986 -0.06060855582163521
0.03010278048262511 -0.016296755280498204 -0.06863872581457356
0.026834171397656863 -0.01850064389109417 -0.05247933680850056
0.01769065049054179 -0.02942109699652542 -0.07809720083225212
0.020015298710515727 -0.029000698659464957 -0.07255085030901855
0.011392316374170628 -0.034087861088682676 -0.08353337358975638
0.0259956132753358 -0.019812250122558685 -0.057096809156938606
0.021020465666613877 -0.027279670912396015 -0.07701589785521307
0.02876501792434985 -0.018777447710432542 -0.06819842602033746
0.02461637074104863 -0.020596383910606662 -0.05417511712667658
0.009795933949478832 -0.03431845162431355 -0.08867139015069514
0.011813320454607203 -0.03391426638042189 -0.08274727327440096
0.03161045625842633 -0.013340015092730586 -0.05545926591247455
0.013807525932327227 -0.03234184886412178 -0.07476651715370553
0.027963877498030684 -0.021185870165581384 -0.07462944001346605
0.023699615820717945 -0.0254823509486918 -0.0705454741269017
0.008276937985077849 -0.03439085833399727 -0.07496743335893838
0.030710924975639885 -0.01682231743108973 -0.0738860529932209
0.016839931911377445 -0.030681958086919894 -0.0757268621023211
0.0213674865564491 -0.0254978579794054 -0.06555651356261871
0.010474325763264795 -0.033646962875723045 -0.06766693068578275
0.020011972359740157 -0.029668565170686306 -0.08569105263389162
0.011097728672632236 -0.032957635004770204 -0.06419460087087986
0.023654764483452228 -0.02234733512293814 -0.06121070245411672
0.01973031292624738 -0.02988715780330355 -0.08581073685177967
0.01348031236388634 -0.0320944796088009 -0.0677704486042326
0.021527463383371047 -0.026948408234387204 -0.0698256155908035
0.01820823376511466 -0.0293516318197266 -0.06953732510833667
0.01638158386419855 -0.029762081265899302 -0.06752929101022057
0.014409734703327983 -0.02930190088906933 -0.05705054492166106
0.014086169938371466 -0.02952169891135461 -0.05639820362742741
0.02755790630341061 -0.022287643323940516 -0.0867615545445195
0.00548566158502439 -0.034581888815065985 -0.05855104764800008
0.00652241968367269 -0.034487662879713166 -0.05902107184296615
0.015420308373451753 -0.029583984372638733 -0.06321394716173709
0.010181437766339976 -0.03208043683642549 -0.05014763362821227
0.020404511466294205 -0.026019970291725623 -0.06466254139294107
0.011617628212047312 -0.033266805867447825 -0.06899086955112145
0.00886881016572102 -0.033801804838827644 -0.06013612179477856
0.008498343037815907 -0.03347708854691054 -0.07695284324054619
0.03318085709551962 -0.010806848362803908 -0.0693362445647876
0.014782051477386815 -0.030810652826446704 -0.06646389973255884
0.020580235988930703 -0.029012023116559187 -0.08279646903936543
0.010693854550788758 -0.032920529864284946 -0.061195455948641314
0.007444895715927671 -0.03436466696131383 -0.06433320436189743
0.019943461165523434 -0.02509061741295694 -0.058738649090355616
0.028097361993024775 -0.021601878372357806 -0.08501666730779468
0.028317637369128533 -0.01984843718472846 -0.06951518761196529
0.011293929596783818 -0.03361561893620383 -0.07332779074480264
0.030458870313483342 -0.016827852154536915 -0.06698524013875104
0.03260522676363038 -0.012548865068671509 -0.07290185478354308
0.03167115610183135 -0.01402416974030079 -0.0691099343884383
0.023106773725675656 -0.02662161296726312 -0.07423444165967953
0.020829152158156252 -0.026494771607269606 -0.0676707072872723
0.0060161798359821845 -0.034718629172744736 -0.06313115706432224
0.007456372364041041 -0.03388906325830916 -0.05356429389460825
0.007560880339140026 -0.03417632679945522 -0.0581607937266926
0.012388981275531872 -0.03306548017684452 -0.08825185532341745
0.008411391859991704 -0.033674122054046844 -0.05558901566553384
0.016929062116937538 -0.029244198371990757 -0.06702662505579442
0.021753623529207844 -0.024337065133930167 -0.061953586594305256
0.009070931766645751 -0.03424656191071091 -0.07042728394946977
0.010336136903044352 -0.03391074344484491 -0.07103861188060355
0.03320599769307017 -0.006309459324093276 -0.07923884137977573
0.026514023699484877 -0.02164181556966893 -0.0692038822216863
0.029512004267918834 -0.0181359836706601 -0.06574577807869553
0.008955699631655482 -0.034344533240702746 -0.07275749010763902
0.011572381032124426 -0.032706288104790635 -0.0653375230689006
0.021292292510600653 -0.025824770226548967 -0.0666064624909661
0.019161381422567778 -0.027583726237699314 -0.0669138867519908
0.010443030190716393 -0.03403654033652114 -0.0878711037489529
0.02536057025745236 -0.02308738723334315 -0.06985568368266316
0.031380551427472245 -0.015050151926477446 -0.0663656364682605
0.028083950486831138 -0.019444511393092664 -0.06766538699209616
0.009532419256719514 -0.033571922883143035 -0.061917005295378386
0.032280549730378874 -0.013549965600785963 -0.07402115304097637
0.009723348290133164 -0.034123564669179755 -0.07231568005862368
0.026832599915337554 -0.022559348459262715 -0.07304485145057585
0.022124196553827115 -0.025446561395671086 -0.06769836966848676
0.02571748993533125 -0.02084598661521076 -0.06228677138296645
0.024398865550400564 -0.02418721257287175 -0.06991420347006777
0.001994637409469712 -0.034476012993995254 -0.054478056604651784
0.031675361995509854 -0.014528928464727855 -0.06473172949851104
0.007571638178807972 -0.034189970516153786 -0.05889102127445232
0.013362060058013851 -0.03142635009775236 -0.06463894608682821
0.02094168865269662 -0.023946043972456046 -0.05209084861740557
0.011998784037974537 -0.032339505051792186 -0.06373008058308259
0.02420285370142585 -0.02515290671766995 -0.07125593621900857
0.003547195095115527 -0.03466945851285752 -0.05618297354379271
0.0345732734051044 -0.000552752615296623 -0.08713805736367462
0.008967849134197904 -0.03394521706371816 -0.06404703786634355
0.005354182611342383 -0.03476400428181811 -0.06236064640402269
0.020312079423684473 -0.028281867304072 -0.07075822239864021
0.01838437283731378 -0.027930026575319816 -0.06575705410712314
0.027285079482375674 -0.01879376434869455 -0.05671238429135169
0.006662603388964168 -0.03486778671322465 -0.06918554724836273
0.007133374461463543 -0.03468300062014268 -0.06990620254690022
0.02472083984452728 -0.02491937188031978 -0.07242718210757733
0.00640428913853325 -0.03451870308126647 -0.060938592161776654
0.009481131694792203 -0.03418754969860432 -0.07183989272487672
0.03306013430857646 -0.01097639894769844 -0.06781670758899153
0.018187367282227786 -0.029460498186716772 -0.07991767632330687
0.028492525631528712 -0.020366612122432737 -0.0754590303907825
0.008969352279938569 -0.033913787383150734 -0.06295369857408387
0.008994516551494672 -0.03410252701661696 -0.06771310926184536
0.007524686797295166 -0.033928844478573666 -0.054257175629942
0.029084045109699863 -0.018154383613241218 -0.06336336268558072
0.007263737856802047 -0.03429651014303086 -0.060614496988571666
0.02855317268755999 -0.01968422201986578 -0.08158716588207397
0.01693481637217148 -0.031362893091903966 -0.08374732832540996
0.0277470013809462 -0.017991495086460634 -0.054809191206091484
0.01890858243023199 -0.02673147219084613 -0.06276202791305893
0.006571474426833341 -0.03455299585362131 -0.061717146313384354
0.008852391998462243 -0.03479063505848597 -0.0829897382872878
0.012681080796829867 -0.032292694230056346 -0.06639934313478738
0.026640338590975504 -0.02260063338668229 -0.0768165710739906
0.009998010517644033 -0.03394427039755757 -0.08105803169530947
0.019820643682432644 -0.028350710134944848 -0.07754136760548903
0.018563636076983372 -0.027157507629853563 -0.06366202692154883
0.011589424001006616 -0.032625184407541565 -0.07969052720343564
0.004322323724827669 -0.034988209821608766 -0.06110398223854468
0.007145814136907477 -0.03484460921260995 -0.0724876091287737
0.008268212853189382 -0.03438120227637024 -0.06906835750109218
0.005732473655336427 -0.034694419720356084 -0.06210316482411582
0.012990687339226616 -0.03289607998601281 -0.07326822837938239
0.01349060030226057 -0.03204228454910327 -0.06746909216118863
0.03424021206488684 -0.003639169789088929 -0.08389116880329345
0.03274316953821578 -0.012492519194232879 -0.0713025770300556
0.01813918604633223 -0.030392371066129447 -0.08700761629492249
0.009836263545222245 -0.033613837146994195 -0.06358003379429712
0.005555052239871824 -0.03478274394607786 -0.06281426395113945
0.019361617739434237 -0.029499719065708026 -0.07442563062190177
0.009073079038224522 -0.03429888865196398 -0.07218413923356523
0.031033236831732425 -0.014848338199473425 -0.05782293899779292
0.014909484715819894 -0.03246382739106106 -0.08274377465484602
0.018772203229155796 -0.02498168204048966 -0.048672828904861895
0.023124325605714955 -0.023196106703636973 -0.06347048489450433
0.006826267509756173 -0.034562557592967794 -0.06258593957437004
0.016099112819818268 -0.030344980216606407 -0.07810168117609989
0.023636382611127715 -0.023424069871432748 -0.06645811640770447
0.00917978663721497 -0.03390988444476873 -0.0661300062870007
0.009624790636300645 -0.03385920081213516 -0.0668348171507601
0.010145084655694702 -0.03361844102821317 -0.07541069028767605
0.015564820586910272 -0.030541053439379164 -0.06797408222484227
0.018416689583614858 -0.03025518358064391 -0.08693340380803853
0.010344659282978034 -0.0343998086011944 -0.08246527270953316
0.004531558219850372 -0.03494622008542597 -0.06378165801165753
0.0068512316018952656 -0.03451923270757516 -0.06339823610703905
0.014121150153971803 -0.03174312021013968 -0.06777677022361045
0.009461675446529863 -0.034218523316759654 -0.07260032440479673
0.026882692043396106 -0.022377761750256766 -0.07643890117462235
0.014267446536606172 -0.031919030037859175 -0.06880833381003837
0.024339922433383097 -0.02139433204352734 -0.05939880641834781
0.01443374594788205 -0.0318307783176096 -0.06917261507297802
0.010243568749033025 -0.033750139624702746 -0.06861883454643253
0.005688012020219984 -0.03491757198510621 -0.06664264105383554
0.005749218588605048 -0.034905919317768784 -0.06608812977385876
0.007266133357419731 -0.034410402974780804 -0.06419028888344755
0.02057419488684014 -0.02749753386096341 -0.07745448577215491
0.008429860953644973 -0.03389898617524154 -0.0759742730267442
0.010901773460197842 -0.03220979600494333 -0.057600586632753886
0.026733764840910747 -0.02191675612759153 -0.07773497524728651
0.02974086147424729 -0.017951908586884547 -0.06670050962772882
0.012893560844328052 -0.031212600822606972 -0.06207756891718602
0.005579985566502096 -0.03491990637503817 -0.06488750671068574
0.0049483363953963695 -0.03503274602981937 -0.06541955521461199
0.010611982010041859 -0.03301434253326421 -0.07986212904256287
0.022569877274068683 -0.02452539016990388 -0.06655109058586076
0.028411111719264835 -0.01771388043254113 -0.05794298531317839
0.009194686505336426 -0.03391792912523469 -0.06509923495310327
0.02267314235019721 -0.0273200453255855 -0.08690641064554847
0.012480864846629263 -0.03243227324679223 -0.06692471809062914
0.030346707705777666 -0.016858976458526548 -0.08200783273000448
0.02729065607874139 -0.021767152023183044 -0.0763095283324996
0.024758445468528942 -0.02429970614748913 -0.08109525288077808
0.012573802298111622 -0.03266184544265786 -0.06853287157016205
0.00939517703204434 -0.03365244910596224 -0.061960742646434704
0.020361416933210755 -0.027770946180531247 -0.07729592817673077
0.021481196661270453 -0.026769980636176197 -0.07858525799808437
0.007894188149288732 -0.034353822036817694 -0.06577873981399421
0.020375114103028676 -0.028054097051749233 -0.08010026330820866
0.03271874756590283 -0.011269669354783232 -0.08251964531508107
0.024468741484846464 -0.025248294756482024 -0.07452414739613071
0.02048945575652368 -0.028964667823994875 -0.0879023642568897
0.020222559962685238 -0.02618228206157066 -0.06520185120612156
0.009927883747877593 -0.03404116876106105 -0.07209655694962863
0.02681230954838542 -0.02144700926352971 -0.07824019387521831
0.015270828890246812 -0.030113685523945822 -0.06428602559892033
0.007213264713574414 -0.03456687112391244 -0.06586932085734123
0.03199086776503061 -0.01190508973676072 -0.08128023770581043
0.005717543848219482 -0.03491066465432285 -0.06574570043618756
0.009261079973689046 -0.033889732090933676 -0.06580571069880412
0.012179367663649802 -0.03234888391619599 -0.06534106530493809
0.02306522404530275 -0.026090901934041427 -0.0704499687937577
0.025769908878891835 -0.023577906708003478 -0.07221169983284362
0.019666317514884697 -0.028884946503723898 -0.08099938188994982
0.026364859624512002 -0.023216873723231366 -0.07363830606323202
0.02679853783452494 -0.01949035122277413 -0.0590485702660494
0.02480111970207622 -0.024911870918354846 -0.0734848887421581
0.024908828234517545 -0.020357835118105176 -0.054932894913158455
0.018340136674552365 -0.027453405222645232 -0.06424902509330398
0.023315185556026873 -0.023928941650773722 -0.06708822468720327
0.0308764603178534 -0.016457160869294295 -0.07361097851076598
0.03003320809061066 -0.017821475510573108 -0.07190084759749898
0.03153704074316326 -0.013651333958232072 -0.055460044499498984
0.015858737541325083 -0.030635347155713706 -0.06903903692651817
0.025372441733667074 -0.024373822921548632 -0.07516539892001632
0.008283450557591549 -0.03442048414334692 -0.06957505297228482
0.017463653711542404 -0.027960199005949125 -0.06331606153594883
0.019585184224824335 -0.026486537621589163 -0.06393288215534199
0.019662162881865876 -0.02633284622622103 -0.0632856005900081
0.03383315053753637 -0.0025197983854879785 -0.08172010565324647
0.01979566822180641 -0.026384785973767404 -0.06422219142386631
0.02736648100428636 -0.01891227692134779 -0.05872930422873809
0.014983084467097084 -0.031494121286687 -0.0693852549143583
0.025761433282580848 -0.02391663228806624 -0.0736817041440885
0.01154588102037224 -0.033385282849041145 -0.07001891009470672
0.0038460268532606915 -0.03503326764775961 -0.06099787055534072
0.02578291775796527 -0.02268479805820804 -0.06984629662802612
0.03292234092844322 -0.01139448200550282 -0.0676327985582381
0.028683981276008904 -0.018817045946733477 -0.06790180082618749
0.016757428555749687 -0.0314822674790712 -0.08512094841734373
0.03389954451932195 -0.006653738302979439 -0.08404333847996076
0.012786832443683848 -0.03024952443101005 -0.05308595171944375
0.012842895195091394 -0.0301006156792223 -0.052487274353318784
0.007976768105635017 -0.03420493101904078 -0.060459491884606205
0.03450629512260903 -0.00502025491472701 -0.08693409709716125
0.007637198923850175 -0.034439967077296026 -0.06604775033867649
0.013704700966357154 -0.032118599767095676 -0.06845840072699035
0.00925693034941719 -0.03404928688675726 -0.06830480799408614
0.013019621199995644 -0.03216835821965676 -0.07667329287075472
0.008601849579547943 -0.03403447016946947 -0.06278314491772573
0.027323820874999835 -0.018670991593835954 -0.056140950366232276
0.026094339842511517 -0.022109673102642287 -0.06931364516341108
0.01741879954352147 -0.029234597867071475 -0.06817934160933456
0.015941849176409385 -0.031224954970536477 -0.07057307701001517
0.02168735320042123 -0.025014289703386365 -0.06435291121479587
0.032667726586282225 -0.012514169013070744 -0.07224632194594799
0.020239190414952448 -0.025990910164665183 -0.06371491159222833
0.01840026264303069 -0.029775120064371212 -0.07623464551686439
0.02282607482238784 -0.02381076604723975 -0.06491321982668183
0.027861315824488767 -0.021022912738658844 -0.07224864800864071
0.010672103533967185 -0.033809487722042 -0.0707594636974534
0.01020221979938094 -0.034017514925363895 -0.07361296844163498
0.007621255257025022 -0.03459316402489403 -0.06983593192707344
0.011466031936829473 -0.0325914993229794 -0.06308436571073467
0.009832244208459861 -0.03399071520910993 -0.06999896715560922
0.03305054212169691 -0.010962800593820547 -0.066349171192231
0.02658856446104202 -0.022863449041196096 -0.07358172143621855
0.016267538323075995 -0.03168119078991226 -0.08237412285789757
0.011919299107230332 -0.033157563792401486 -0.06932335454822978
0.008324790355217984 -0.03452569431926995 -0.08136571450269608
0.03418177230308094 -0.0026187230164424133 -0.08306418663127609
0.03422363622571767 -0.002506514312775645 -0.08343427352786098
0.009232836059442973 -0.0338630300798996 -0.06387804624112414
0.013715922430279748 -0.031348141621855556 -0.06498999703819522
0.007455000555545825 -0.03461717201342829 -0.0697608815936408
0.02929097746283278 -0.017980953653864186 -0.07703306831677205
0.02297799750928222 -0.025563324255078432 -0.0800700592421296
0.021842833113489904 -0.026513341793340278 -0.0792719802441339
0.032972275250092324 -0.011761247253483821 -0.0712431641083617
0.010235357830721587 -0.034514536490232874 -0.08557939590899617
0.03276165267746197 -0.011936206252435331 -0.0680872530937947
0.012837300358693276 -0.03178597528779228 -0.0644431738326727
0.022219690200006893 -0.024040374079240045 -0.06301273623707809
0.010825543426218269 -0.03383911668606278 -0.07167293272113139
0.007505808078726983 -0.03420837325870151 -0.08013942067612038
0.011753902469194886 -0.033974002180758245 -0.08486598080345203
0.029748537422228584 -0.01846792691387632 -0.07338018138827743
0.027305198604018262 -0.021423404676131793 -0.071377127479658
0.014380455684440206 -0.031303464752348374 -0.07811087072847732
0.022512424662749553 -0.023638465343660084 -0.06276007599477668
0.009902015692029831 -0.032998718674656854 -0.07807987535227491
0.028873058647876038 -0.017406405426518032 -0.05876367239388787
0.012505262719815202 -0.03305935864159879 -0.07122975183424984
0.024052921697290685 -0.023478711515295035 -0.06818686123133105
0.027292923919314305 -0.022002330823146808 -0.07471185415035624
0.02953666090994715 -0.018776859134774906 -0.07474120819446317
0.030653704579768605 -0.016025182510466758 -0.05999085293232245
0.030987118066776453 -0.015603500830972658 -0.06083826012435664
0.029166155005816277 -0.018288029306877184 -0.06444119845441854
0.029545198856619315 -0.018025329703304744 -0.0650628228967927
0.012726507250279271 -0.03291907038351303 -0.07446519851003852
0.03206676468036186 -0.0134288284581713 -0.06577459159301649
0.004657667426861994 -0.034934446708812086 -0.06362740322517199
0.020265580195242473 -0.02796111678766887 -0.07965854582676772
0.005725065596865876 -0.03458534726067117 -0.060106735018645885
0.01978550591302642 -0.028014026547304692 -0.06870499887292267
0.015184648834825348 -0.03072950384084657 -0.06755441901661643
0.007058458141316273 -0.03480139953774565 -0.07127205354873899
0.0123764700153165 -0.033047683560570106 -0.07042593256590927
0.025762096441905233 -0.021968055502291535 -0.06792513868370711
0.016062292730211578 -0.029734044318542534 -0.0645578759802009
0.014963423195637725 -0.030426016804102358 -0.06556915930794488
0.02832187280917158 -0.017664681448814258 -0.05746223765821719
0.008314075312105105 -0.03447393453687441 -0.07056999493343763
0.00844855164338108 -0.03415295059479407 -0.06703506833291167
0.01804407876647674 -0.027373337710352334 -0.06256594125204967
0.01106183599674461 -0.032884971939594984 -0.07693292205901794
0.021621544338597955 -0.026761716842206816 -0.07983457380174472
0.004828879098766104 -0.034812486469082936 -0.06058953196745194
0.027909174598755155 -0.020523399485333715 -0.07147829775229829
0.01520104255042775 -0.028862963437594355 -0.05850431330590193
0.01267228389020475 -0.032924163726983605 -0.07044803988019252
0.015726433228558396 -0.0316479954775717 -0.07187830450549805
0.01199195395252136 -0.033167952927085916 -0.07492615295881197
0.015873598642280353 -0.02984666446858524 -0.06493187481583672
0.027579011068642523 -0.0216390595622473 -0.07443919163133438
0.027703682495490718 -0.02152757952463312 -0.07413668921725747
0.011333012673225383 -0.032937674012828023 -0.06563801832897234
0.027801450057346116 -0.02039226582952086 -0.07072618544067083
0.012171677459579193 -0.032901351929179624 -0.0754787498289993
0.027135234484080423 -0.019642466413089234 -0.062104208889503486
0.014892362684303027 -0.031484849043892156 -0.06887154597742004
0.008930457608268027 -0.03331954415614922 -0.07714606912688173
0.012623402751411612 -0.032221214234497704 -0.0659034724026582
0.016096237212537536 -0.0314220273245379 -0.07235487785473874
0.025935536297117864 -0.02423205312617898 -0.08647194554492899
0.032919996463950725 -0.007453131229181013 -0.0799820906860078
0.028848188159203647 -0.01966972053054476 -0.07582615970732637
0.02904555185858476 -0.017019630358402905 -0.05795072805129129
0.017700816081385712 -0.0288885658210954 -0.06713082709874309
0.017703730068706135 -0.03014753793504857 -0.0706447190274959
0.023372403918443946 -0.0254543247910885 -0.08049751306680258
0.027891397066628576 -0.020367666250001366 -0.06963635459876685
0.017819631341021866 -0.029107410396872563 -0.06817555323120403
0.013140528845284652 -0.03260908449263252 -0.07509315751077629
0.026189665414553778 -0.023494047457051637 -0.07401134511890019
0.027593753800416353 -0.019374023010916754 -0.06274060011724368
0.01288182432251303 -0.032220240517886065 -0.0766747672366496
0.024425362251852593 -0.02524868283202672 -0.07488966532578935
0.016684773146557204 -0.029127649783082216 -0.06424744263620254
0.009367613233365735 -0.03415202273620854 -0.07004764699661364
0.017903880703948195 -0.0291421392652325 -0.068374536064326
0.02488057733817797 -0.023769779154072104 -0.07848897793675061
0.01891619816396034 -0.030262991094077575 -0.08629792521327265
0.019801104009058393 -0.02764010401826282 -0.06808020741163798
0.03368096300277914 -0.00701099634714822 -0.07687754406499414
0.010619757573555693 -0.03328275975507453 -0.06480373544445706
0.024527181246417035 -0.02526017555678517 -0.08372728933693392
0.03274634780621501 -0.011634673007552136 -0.07669313477048997
0.029102449376231916 -0.019299733350531464 -0.07476685982339722
0.02798932823076851 -0.020157260395627007 -0.07036072978330453
0.027853126002770883 -0.021264807199042973 -0.07282490626702856
0.013820501328131474 -0.030087206555874352 -0.05884553416197982
0.031227234636159326 -0.015475869275434076 -0.07635860174715887
0.02859210677323239 -0.01934918317825663 -0.07685825396268163
0.009634611127256753 -0.03332611872130246 -0.07642552984223674
0.010357575993163743 -0.03303147593316801 -0.07695137664173113
0.01049427291674157 -0.033874701536669105 -0.08859989291459902
0.008736695325777847 -0.03424210079104441 -0.06898697601511346
0.03354313334408275 -0.010009740346524264 -0.0707436188494762
0.030179675642274667 -0.018254005631775566 -0.08507840485150375
0.018287691759799676 -0.030283303233173076 -0.08705511369991861
0.009715118020861306 -0.03389189659970466 -0.08080220279671016
0.009995081548319866 -0.033105452918392855 -0.07695903747145184
0.02674693586370358 -0.02229868603116751 -0.0719909977886154
0.009148431185564328 -0.03434424631568097 -0.07340715579761181
0.00897778089612548 -0.03359843926179573 -0.07614221150240344
0.015947684432412824 -0.0296777505927004 -0.06417599962302285
0.028142285923154774 -0.017626933220236025 -0.056199279649820875
0.012927187319534798 -0.03294070150145947 -0.07299122205881749
0.016876461608621517 -0.03102454653108167 -0.07235673340486512
0.026161522964940405 -0.02098192273960576 -0.06583384118569008
0.03300000981311986 -0.01067543414858667 -0.07650087946284881
0.009375109435280513 -0.03315479139499582 -0.07796935471259409
0.012114638860837176 -0.0338271513731123 -0.0855297000878986
0.008890354773120212 -0.0343407294683265 -0.07166495375227311
0.027668915088820946 -0.02038686541583283 -0.07834207342267538
0.0015937941997312113 -0.0343837165358332 -0.053929888445651525
0.0012588145838109046 -0.03429198633847047 -0.05327743657421158
0.024620456866806185 -0.02274839436355117 -0.0667088453816288
0.017321797148945214 -0.031243359684250994 -0.08598541283011502
0.0224656066078308 -0.025666416229255428 -0.06915274557703613
0.02933661725739101 -0.018927411609746356 -0.08216291658152072
0.017931409446978814 -0.028760810591035867 -0.0670430365529128
0.014837026226972895 -0.03141473019931855 -0.06830938980336095
0.026635323005185937 -0.02058410582187587 -0.06723749341423932
0.010425512190240911 -0.03312530490574877 -0.06225440762029702
0.02879887276651115 -0.018082501814792658 -0.061075976884981
0.030291045138561137 -0.016701283218134494 -0.06764674823175593
0.01524799850660307 -0.03152267976978476 -0.08086478414352194
0.010526345068475062 -0.03279450699397091 -0.07869716567011119
0.014842041027120403 -0.03176439144688119 -0.07026281935323653
0.012649917777504138 -0.03306463691275766 -0.07192413938946451
0.016552040527646934 -0.031115712771334125 -0.08119891491173836
0.006356611049107663 -0.03450064863588542 -0.05897271936946156
0.03134032894919041 -0.013500229943307443 -0.05656007805409262
0.024682312841225018 -0.02142197910980588 -0.06117684767658791
0.033057654165911096 -0.011285568380210234 -0.06972428047732035
0.010249246076152144 -0.03287059445591044 -0.07860757041384261
0.028374174180903093 -0.019769395886544715 -0.07118878396721591
0.03091241178594887 -0.01574840965944073 -0.07010485047419866
0.005064568220720431 -0.03459799752082686 -0.058866819170903494
0.01400251014017349 -0.031653398404239384 -0.06689435231136238
0.014639200632887862 -0.0321148018023591 -0.07310532012933219
0.01604103228431212 -0.03138720735835444 -0.07314585858374589
0.006123615319904125 -0.034306544191693905 -0.05536069082825963
0.019502005204629157 -0.02852837213210347 -0.07968964909820755
0.008163205415535202 -0.033522282678784834 -0.07770112070328372
0.008785015692922001 -0.03351205447230846 -0.0793236868100484
0.018648220106185796 -0.02688423465853378 -0.06263925480603105
0.018173501246993386 -0.027100464561446862 -0.06183078839195082
0.014903037810100453 -0.03155120557473127 -0.07613861651932305
0.008571923367952048 -0.034053873584343 -0.06387047764651449
0.027953848469081517 -0.020512085190494862 -0.07650098873342862
0.02778451654723027 -0.020401840570834297 -0.07792921393367482
0.02640642341210886 -0.022871627225248423 -0.07662467853847922
0.03221970676028779 -0.013355498083454938 -0.0726167912203038
0.021550586786610173 -0.026875263406040878 -0.07999465693972056
0.032541050673887566 -0.01258623966344656 -0.06481902241091242
0.030474732548789848 -0.017147838005179605 -0.07627281245782366
0.01727606811555554 -0.030808419546448154 -0.072205704308455
0.015343881901949876 -0.03199238554104446 -0.08208840014287311
0.01670047684947394 -0.031093444362988405 -0.07327329216950693
0.026896732439370956 -0.020445164627269842 -0.06618600023949808
0.0116822725283133 -0.03344552772607739 -0.07247328584301614
0.027710000366241157 -0.020523879231540643 -0.07032124103185632
0.028373872730248856 -0.01921071963025226 -0.06759819090013044
0.01847288539353402 -0.028105091934057688 -0.06619247205060569
0.014804407738049792 -0.030186462688766194 -0.06358719825228747
0.030125621930619566 -0.01785920046777356 -0.08375806551410737
0.009781867921448554 -0.033640056366681985 -0.08042993451855024
0.0261239743320144 -0.024052298544420942 -0.08607357169885774
0.03152743342994182 -0.014385195308153657 -0.05994621487750316
0.019100677397229843 -0.02801206165980152 -0.06737547006034074
0.020357472208533615 -0.028247392301116312 -0.08052526272151034
0.02765376790423374 -0.02096543098567681 -0.07139210984748226
0.028849367353130165 -0.019988239772232408 -0.08247156464108958
0.021530626413246868 -0.024033317948655566 -0.05581051253746777
0.030903150321682133 -0.015782972435053062 -0.06114475031511642
0.028391786645297096 -0.019730685588025466 -0.07692853738491454
0.007890155298263484 -0.03376107714330155 -0.07915142999550209
0.028330755323241554 -0.01974874914341303 -0.07793922871702084
0.03217875133837977 -0.013527009133138458 -0.0734406467433612
0.024074588202567335 -0.023251457541248726 -0.06766628304630176
0.01866715244160312 -0.02939112163797522 -0.07045318177511614
0.029549627993996647 -0.018808447742002785 -0.07439593692775422
0.028502666822815124 -0.019499959112960877 -0.07791851446488995
0.007496945079654283 -0.03383073325504334 -0.078919742122652
0.026569368535917435 -0.019909022656217083 -0.06068538860299699
0.025399007138546856 -0.02077150227696199 -0.05980668262902028
0.01817879572234197 -0.028654140355058685 -0.0673364098351542
0.02839893339444652 -0.01911455054007359 -0.06591240176957544
0.022963949728517428 -0.023008839495023352 -0.06111216577655442
0.028952003808513538 -0.018589751869231456 -0.0678198718313688
0.022956284626942262 -0.021896012535362958 -0.05209490097429385
0.01731772844690068 -0.030915126841088873 -0.0816011465411363
0.026738546810904536 -0.0227531118107984 -0.07473134632540679
0.009749507950092842 -0.034179736877671535 -0.07397965681023982
0.025378100724303437 -0.019917077400410054 -0.05518488040622263
0.009083278096564448 -0.034430769084742074 -0.08152869527885223
0.03082899552537852 -0.014626209699193279 -0.05657480059708771
0.031226359254312573 -0.015637624249460243 -0.07291796015873614
0.011482963777078727 -0.03341462417856056 -0.07440598543542329
0.028149897518804524 -0.019441871016593587 -0.06492188230990605
0.006628531372058226 -0.034884945055759065 -0.06898092745474373
0.007761537505389235 -0.034278751744934555 -0.08048641152461442
0.0026094519544691257 -0.03485783380202892 -0.058296032644425545
0.0026057995925651764 -0.03445237347472468 -0.05324509595497477
0.01017305896232239 -0.03399596488533445 -0.07294922211135504
0.015357934909596789 -0.028050513009137603 -0.05208106534791431
0.009671203804151119 -0.03460231653874311 -0.08323941578217481
0.01605346247133311 -0.028365003803546368 -0.059737325840029706
0.028309189214757752 -0.019297082681135006 -0.06657836299525849
0.024790830324213274 -0.02214441768921982 -0.06481754342841366
0.014073550372874093 -0.02929407693387344 -0.053761980386617975
0.029555957274200483 -0.01782081717944163 -0.06867380569472518
0.023460656702318568 -0.02639297918801081 -0.0836292284132591
0.02988362998864559 -0.017729557576244483 -0.06971443904708592
0.026709152892871416 -0.019016813918798486 -0.05535159619431537
0.019788381266212386 -0.029299143055582053 -0.08212704850910554
0.027553449707485876 -0.01921160024434354 -0.061863456010218955
0.029007702680341668 -0.016874780869434277 -0.057428231348274336
0.0317919240369803 -0.012844521631815788 -0.05613097876923429
0.029781461912395002 -0.018483271090893472 -0.0737637734670656
0.030230305193610238 -0.018400095800101674 -0.08633109897709654
0.0068603862941256 -0.034762341745673865 -0.06836271103147602
0.014033084154162804 -0.03208366880381409 -0.08051149407323896
0.011353506423732732 -0.03309260103237015 -0.07561407570667789
0.023895694552074888 -0.025289058398843097 -0.07059058794157322
0.017040929458283293 -0.030919801008570936 -0.07297991372655625
0.025999516561794604 -0.02020509884732683 -0.059128123827260085
0.030004503686296077 -0.016439771041667106 -0.0679367446922864
0.011813016706119457 -0.03395211421762369 -0.08303503397013696
0.027657869291494844 -0.018763932299779792 -0.05960678120217246
0.028377315708001023 -0.018249951661664383 -0.05997872168541697
0.028424940480359547 -0.018412785010717095 -0.06127397147956245
0.01050720490901552 -0.03347515922993474 -0.06622875161473352
0.011863980595514544 -0.03271988913713122 -0.07616606317459186
0.02985774450530911 -0.01809474309104961 -0.07602831204389282
0.03004931713981012 -0.017957453711741497 -0.07530235000498893
0.029321082445546553 -0.017915000588383613 -0.07753688339400117
0.010739754494975043 -0.03278669162910709 -0.0778396370995259
0.011718568995196823 -0.03321171436245665 -0.07502467582513393
0.028956822993037836 -0.018918757957993387 -0.07647731739952074
0.02968496421056712 -0.017525794630707275 -0.06818969106196061
0.010624034658256242 -0.03317229890859978 -0.08018927722607452
0.02817018325222891 -0.018849249051888905 -0.06279796285279268
0.028491552004935625 -0.018954858430372822 -0.06458240833977251
0.026139313503004177 -0.01974563399358885 -0.057308899875354646
0.026036580875627893 -0.01975459914601061 -0.056912626473749645
0.009156188004183732 -0.033704486468253254 -0.06142156877768644
0.030325324699124568 -0.017560702667861635 -0.07570378354178044
0.019840382843082736 -0.025624692923636616 -0.06134696810146784
0.01740654752927845 -0.02835268304951106 -0.06416709622750319
0.02502112708254466 -0.02028139777456601 -0.05345372239945702
0.02954290173453668 -0.018146614986991137 -0.06662881003509523
