-0.04845417720809009 -0.008364107841724878 0.04063960735876958
-0.04841617927892268 -0.007725822664675103 0.04110492123603729
-0.04859666356054741 -0.00909559283595293 0.039990281995376326
-0.04842914097928905 -0.007745956637292542 0.0409529985152843
-0.04843803444109628 -0.007749722923411672 0.04123343846540212
-0.0485214897569672 -0.009738696229347676 0.040552445813892626
-0.04890059600307628 -0.008066541776605667 0.04194996829851032
-0.048635596184887234 -0.009364928367576722 0.04185923269509217
-0.0485997557592569 -0.0067611672637046365 0.04018962760899028
-0.048600445647649135 -0.008622863122746058 0.04180133396819927
-0.047854653432764294 -0.0033049015374104797 0.03896416034850768
-0.0475771866717212 -0.006704822604899251 0.038714580365177116
-0.04799321558405975 -0.00668413626937516 0.039136607864869596
-0.048512480853940596 -0.011236814118710099 0.04069311070486821
-0.04849376133545159 -0.011413988099983789 0.04151707450956642
-0.0482551148866811 -0.012492282231680824 0.04130599921976921
-0.04838117020645125 -0.011840254759615098 0.041021371232937164
-0.04857072023330561 -0.011162455651132712 0.041634288486485455
-0.048369173201044446 -0.004318121486650695 0.03936900748162426
-0.0483450364136743 -0.0062818597950046445 0.03945222811653639
-0.04856987328911087 -0.003913458361522749 0.039706909255758316
-0.04742186261082268 -0.006423469229168982 0.03856903922959029
-0.0486973469221841 -0.003654855656006856 0.040302231480869
-0.048672369185671985 -0.005571100889161995 0.04058802320807436
-0.04871048559292235 -0.004505613619991009 0.040794033923644404
-0.048644632403901725 -0.005373010951540053 0.04118684379138382
-0.04862034779644753 -0.006020087488991077 0.04145073530383386
-0.04868836467757682 -0.004689949908291817 0.040019252383911866
-0.0486370073534538 -0.005483914972922616 0.040043332542504764
-0.04872334407261468 -0.003857814268931702 0.0418039032777667
-0.04859270381352604 -0.006474246076642541 0.04058031334511104
-0.04764178338041449 -0.004880103272755666 0.0386118788291781
-0.032232236721270416 -0.015317456161227812 0.0381772599225316
-0.03008551354662568 -0.015476214615807397 0.03937544548412558
-0.03102913632457637 -0.01600852140457511 0.037795309070420405
-0.03114746946632884 -0.01542310038482036 0.038947785894077595
-0.029690464035519663 -0.016447541397674126 0.03772497847035876
-0.03257403792658099 -0.015016016124942626 0.03941326501403623
-0.030297322733654528 -0.0156945948032777 0.03774561480567711
-0.029408119957789157 -0.015060804352832873 0.03825787187856756
-0.03355870399383216 -0.013586291130571226 0.03928916188531768
-0.02734613868051091 -0.01444997883105301 0.038787573037397424
-0.030880345485388892 -0.015499496480045599 0.037855636073739235
-0.02848722008000219 -0.01507543151220381 0.03797561866926284
-0.032843345335154 -0.015275328446974271 0.03918705628200881
-0.031562186500988076 -0.015340557973491133 0.03959428993720036
-0.033546592806782 -0.014035723838371225 0.03928720676548628
-0.03027338719641274 -0.014602650885183166 0.03983501057291381
-0.029222341255868513 -0.014785310137622062 0.04008835725583914
-0.02965679172522514 -0.014622924430990423 0.040026797681059004
-0.029126820242039296 -0.015184049959882234 0.039161220378452655
-0.03228341604850082 -0.015303392246328979 0.03821203192803893
-0.03133556883873423 -0.014891257212513742 0.03976641089278868
-0.02982286501721364 -0.015341807649147372 0.03895552252940183
-0.03381208787093143 -0.013101426808697053 0.03922776811956396
-0.0280894402763053 -0.01631081750873311 0.03763309417416612
-0.03470368078367357 -0.012298126373594873 0.03823061783718636
-0.027821102826289728 -0.015114803560171891 0.03773785685673666
-0.03144863169625405 -0.014673406776517151 0.03981153715947931
-0.028546248973203875 -0.014953026583634038 0.03923953665646443
-0.032919400072988485 -0.013208185361765578 0.0385140294880518
-0.03446724362847972 -0.012459473959099764 0.03816910974936527
-0.030332738612532422 -0.0139328447470155 0.03965917285727262
-0.028902157612232315 -0.015066589431393183 0.03818018441034844
-0.029817203270212006 -0.015241004888369322 0.038703192780170224
-0.034001251954803295 -0.013816249523910548 0.03930675395650086
-0.029032021061999272 -0.015228778248145771 0.03783584352790194
-0.0325245798789123 -0.015383084206698148 0.03871156758353172
-0.027079281888340995 -0.014810324483749852 0.03775291352718567
-0.02925394383171341 -0.014992471371446991 0.03980223501687115
-0.03180094424875891 -0.013942958752760071 0.03958299624340095
-0.02941725155973381 -0.016272386150504702 0.03764478025319252
-0.029564011463500878 -0.01530004437771238 0.0393422757630031
-0.03187295961308051 -0.015268393612389845 0.03828176245950753
-0.030041759132716978 -0.015346233498527876 0.03776171149578946
-0.031447498689079985 -0.015434746297325427 0.03802839983774129
-0.03069539825535168 -0.01517035280927229 0.03828681451604686
-0.03128836688706465 -0.015331658886864248 0.03810543113435532
-0.031230677624025257 -0.013786699359031776 0.03958485192219423
-0.031102544056317648 -0.015372722328575441 0.039463503799588545
-0.04369652167870777 -0.0071747351820586405 0.038508966010768364
-0.042434055528850705 -0.00787300400466231 0.0386978200973294
-0.04718290379546752 -0.005807534069603448 0.03826783898374058
-0.04269531320250315 -0.007685568701312467 0.03860849641185583
-0.04242678713097598 -0.009118670471486403 0.038300384425043354
-0.04591705057256687 -0.005829206735427051 0.038162295323107165
-0.04727129103041678 -0.0041014829180622365 0.03841358211321712
-0.047488632419402044 -0.004205508365016573 0.038567318003211545
-0.04201978463967457 -0.00776552298388051 0.039051500489255125
-0.04343845247500001 -0.008717878361377836 0.0383120494610972
-0.046862340736752967 -0.0029359272582477358 0.0382180298921387
-0.04762339519855753 -0.003723606103885672 0.038737962085193374
-0.04659989142270612 -0.005179534755227347 0.037973047004731135
-0.04586381430373029 -0.004790333139919673 0.038393087087394605
-0.042418323830433965 -0.007305225696383573 0.03884600007730678
-0.046247501208799745 -0.007828975211185864 0.038039592132383004
-0.04485793407738061 -0.006097976464100577 0.03840271074854817
-0.045818759855898776 -0.0036560374575233473 0.038315106111137524
-0.041371592087616746 -0.008268835415350426 0.03939796301580335
-0.044898156000049524 -0.006500705012778951 0.0383701788622615
-0.04075330092441441 -0.007969702275494912 0.039389708180139746
-0.04064637094905571 -0.007672035985083592 0.039336600568757006
-0.047377490578788976 -0.003229277784018476 0.03851256659786236
-0.0457449683476885 -0.007773253131439961 0.038197906123474776
-0.043479312620999494 -0.009464658073741356 0.03827971602253981
-0.043929166490121276 -0.008455256182675428 0.03839282677647792
-0.044525074818224146 -0.008330773212231867 0.0384247127488064
-0.044521313632764736 -0.008161604876412317 0.03843681222700774
-0.04661837227383177 -0.00418832972990929 0.03800639439487832
-0.04391279642656769 -0.007676676972752829 0.03845249181541756
-0.04516370083075185 -0.0061010412895666855 0.03833172876875511
-0.0463020639119934 -0.005960404557348543 0.03796587908314172
-0.039191289571109775 -0.006734463262557867 0.03805726688376246
-0.046552355345028114 -0.0073299326513585426 0.03790739701202656
-0.039614850608332884 -0.007012330214188202 0.03892444641709458
-0.0394807154644962 -0.0066348433857892465 0.03864653407944085
-0.0393445267499238 -0.006557747429780818 0.03819125389942789
-0.04534215343937802 -0.004409037210359264 0.03851519798562925
-0.03945964450877433 -0.007205618217735165 0.03884507705167509
-0.04522412243340598 -0.005417602056132283 0.03846430407547333
-0.04312614428957569 -0.00829879527737223 0.03841647101927853
-0.04037688559699221 -0.008808207520641806 0.039395671936424854
-0.040721534001480326 -0.0081467778757311 0.03940764004383323
-0.03901284003908734 -0.007523546467214105 0.0384617964390863
-0.039675880093983706 -0.009350791056536918 0.03926637328672618
-0.03991637473718168 -0.006879472343631637 0.03920085635526292
-0.040449233963136266 -0.009744515098047399 0.03946188732187387
-0.03990782272751699 -0.009255755448763007 0.03931722102248603
-0.044633040047300454 -0.00894843081690012 0.038382081540921265
-0.045921472199996274 -0.004584020400491941 0.03839588547341747
-0.04476884800477386 -0.008682917406725246 0.03840321040494872
-0.04225496102908331 -0.008188202493241236 0.03871373256422375
-0.04728578109595633 -0.004496042337812689 0.03842981685931077
-0.04114252249149987 -0.00912759798999414 0.03927098502472783
-0.016660882789492466 0.011035153951810341 0.037598143780647866
-0.014688706933003637 0.012763020783005568 0.03741085848298583
-0.011285841255679644 0.023101774991015886 0.03750565598910212
-0.007375298700191185 0.025552756853659705 0.037797810170537564
-0.009159502170794072 0.011709122714259779 0.0388515934195248
-0.0053333575401839145 0.007331713509701845 0.036643482427541944
-0.006819718528060868 0.018923175131774887 0.03759640882072591
-0.014732540583328277 0.015667176322166892 0.03769478965351522
-0.013930157440091784 0.01287933132920764 0.03729304815928656
-0.01631895640057868 0.010313503485730492 0.037561041137914065
-0.01782631582747632 0.000266603632425413 0.03715036803892366
-0.014272149850779391 0.01228295680273394 0.037374943535890076
-0.006747608955562252 0.010601767760740422 0.037816290404450136
-0.01658457330449152 0.010010486685748669 0.03752102964855295
-0.00950304418982965 0.012301328957906093 0.038666655918521135
-0.018014237373008474 0.015037901822903661 0.037610773304574865
-0.010699869488263127 0.022422542189002654 0.0374912104238822
-0.01752359396409432 0.0067303992361533 0.03741323036534118
-0.015684419656110865 0.010311264013416192 0.037572337360364305
-0.00952715010282431 0.020123499592978163 0.03728009028450652
-0.01797205241266315 0.00536799211168206 0.03726055209966127
-0.016620072452215338 0.001436920487372967 0.037041727482270144
-0.01383182836697725 0.0008098934637133543 0.03915059478769985
-0.01890434626726986 0.008819853232602547 0.03747332243480653
-0.019232026250624232 0.010538200101843725 0.03756020727278703
-0.00826780126200049 0.021542674259180526 0.03748502363593832
-0.008225103788673815 0.022491821983099087 0.03748050194453178
-0.014676380119785785 0.02138662358917366 0.03772370307905507
-0.015441651866026737 0.01546918705771933 0.037607955216479486
-0.012880822868146586 0.010116446759798468 0.03702340838550596
-0.01003413193093152 0.024207015102426288 0.03760119816780727
-0.004566143640115962 0.006568045331683684 0.03649825863300882
-0.00721697314419 0.01652757141867147 0.03696601027032924
-0.01850306880985597 0.003513171787849043 0.037214243172174824
-0.010479142748571982 0.004011623638044236 0.039357608784926744
-0.009157651326602716 0.025174354231339666 0.037921098834738265
-0.009712382510372645 0.022068572685314244 0.03751146478643902
-0.014846116155204668 0.021696168448376036 0.037777765588784484
-0.00971544072652214 0.003110918376968286 0.03958841348054726
-0.009368160884871177 0.003996215982787628 0.03960936046460678
-0.008868830746001477 0.009072800240449248 0.03834676825071339
-0.016846019467116228 0.022407631016668532 0.03753079526810102
-0.0069872196428889186 0.0053582039960563006 0.037315754602189305
-0.0065534000678874665 0.009151394789626772 0.03875361429409366
-0.010553149840414423 0.018937955591585585 0.0373906172150823
-0.0142295263785409 0.00809072146257555 0.037083356308281044
-0.014280989964698506 0.0006496400419417423 0.03905813006512092
-0.017352988120476306 0.013648748470111997 0.037688339013237204
-0.006467275952883449 0.020813471752102464 0.037455330602834985
-0.013466450162345291 0.01881699766586163 0.03887363909115732
-0.014034875128319692 0.019173868285638038 0.038837911584097315
-0.00743496483647677 0.02413429630310988 0.037628940560450845
-0.014039096527142986 0.018381017363488864 0.03896344993074378
-0.009302877857411164 0.018233951084239777 0.03713134582442312
-0.017437874568587003 0.0008811949977993142 0.0371843620608085
-0.009915216264229202 0.012394680978952521 0.03816345327285373
-0.00855421103324714 0.017598285481998936 0.03710244868123182
-0.010095210260746746 0.012147141977190261 0.03765230724569839
-0.008955374169427856 0.00969153313588004 0.038209990387086785
-0.012080810995209282 0.004319969838116942 0.0367314890078259
-0.013529413178273601 0.02334204804968433 0.03768548558445546
-0.008672077137210276 0.00960938411362094 0.037549541814767703
-0.010650931686212903 0.004532786244633993 0.037045506372275175
-0.014254898462157977 0.011297283830422061 0.037427956546441515
-0.017012939669384698 0.005671429330764923 0.037146203883088855
-0.009190104059358902 0.01026090870931448 0.038369608634753916
-0.014180357535646438 0.018664834709024764 0.038934398868918835
-0.01079462473601498 0.021314393077123933 0.037388335362205524
-0.011094952046819347 0.01341732773759241 0.037516090541179575
-0.01820690969794874 0.008979321814336564 0.03727393633071626
-0.010701200326642006 0.009646524562332334 0.03674025449396659
-0.010943801220499524 0.019629146731444353 0.03734438161921401
-0.008756554511988979 0.008476187626350749 0.03713021112140726
-0.01522312137797326 0.008378741767572603 0.037286049698352794
-0.011017937666742448 0.01856486827308021 0.037544268473021655
-0.005965585427380254 0.005113634970877227 0.03678730326055743
-0.01833008715459961 -0.0010705041429276197 0.037093232429700404
-0.005772411380242693 0.007123215613290412 0.036808594682593676
-0.019189339118626227 0.00965268675577927 0.037526298077043135
-0.015906119085897567 -0.0011179937450075616 0.038978398430455787
-0.010309915928057318 0.004994935891143714 0.03844755645713643
-0.009009021767782767 0.008873727478442832 0.03864858567434146
-0.01499565961488315 0.011135697368053518 0.03744665481801989
-0.01804606348126991 0.004207791328312748 0.03713567525728611
-0.011736140880041176 0.020881736580551667 0.0374373317793271
-0.012571187461410123 0.025246643794737816 0.038064500263045996
-0.018159734173151507 0.007338456710784057 0.03755835097583042
-0.008939769620658261 0.008458473336771221 0.03843978074418973
-0.011317920101203405 0.01953616364345037 0.037437707181414745
-0.01743145301229279 0.0031475006809804675 0.03713370761922527
-0.01552692427414308 0.0005484890792612419 0.03696097130688386
-0.012045679462477239 0.02049090991905667 0.03746322536967996
-0.012108696562436058 0.014098068884979408 0.037581873474810276
-0.0117988430414068 0.018669734398718406 0.03824257025978979
-0.00875217002653007 0.008445000882525746 0.037386390341777834
-0.012350010874934952 0.018934761543057326 0.03788390607794326
-0.00935083596173742 0.0245955474394362 0.03772402493602353
-0.006351423686564363 0.011248364464712318 0.03699443576449122
-0.013993619298862557 0.006307705492810615 0.03721412716864684
-0.017203768884954382 0.014442717813447185 0.03767924522368646
-0.01154176082499127 0.0179426349858371 0.0387515463496708
-0.015809774283356753 0.011392466524948418 0.037573736422021164
-0.012053398501809398 0.02263278486290236 0.03756225925077834
-0.01353639980446793 -0.0006506823221168454 0.03971249872139404
-0.013781511301015735 -0.0007231808052150322 0.039734041265905774
-0.009846059412694584 0.02064141184873205 0.037431382595733316
-0.006964107247665788 0.024388621026979796 0.037670133778203566
-0.00716035999214327 0.024914393751961975 0.03770604755075528
-0.014001036805102653 0.02029475017502084 0.03728622650312437
-0.009180703532942924 0.007364216270730214 0.038201081941468755
-0.013157325193276673 0.025622384151702232 0.03827026487846802
-0.01298202981646875 0.0016299259233803064 0.0392562924599006
-0.014943954841979617 0.019834450068303144 0.03857137454968977
-0.014565891911448406 0.01951187115004005 0.03873744784885835
-0.010006694266114136 0.005019243997132386 0.0391135966007227
-0.00951516258017646 0.0081619603662538 0.03669380665800632
-0.01329956680081448 0.011113550329456049 0.03726618548002439
-0.006211397266021334 0.008195984668365843 0.03672614328868125
-0.015805417475848897 0.01359088789980184 0.0375318088639032
-0.01878660594266289 0.004393381051269546 0.03730409705888228
-0.017385375146697444 0.01947245614721698 0.038992743437877855
-0.010663046110516675 0.00302110259545596 0.0395387877839584
-0.008560242847996549 0.014932895231988085 0.03866997134553623
-0.008042971605748938 0.0181483481571773 0.03722889137793402
-0.009221953481993301 0.015952025606537995 0.03859509481644076
-0.01618393649471656 0.015590896886473315 0.037577431470593406
-0.010186290763204157 0.01037415136229592 0.036949149255967345
-0.01599096468493986 -0.0007726971860159723 0.038018783659113105
-0.0123301327067671 0.0005808460686895081 0.03968872542478255
-0.013735795214713666 0.008915692157921356 0.03701857198372316
-0.011077035255831712 0.003820054826986107 0.037475037047944595
-0.013584258671472178 0.0015147406528909515 0.03853776119005073
-0.019078335749721394 -0.0011103660478757266 0.03711344461710461
-0.013538895842807064 0.0001616787979642749 0.03959329219404222
-0.010445586456008689 0.017868240418365492 0.03762527764278187
-0.006895266145254083 0.02011960324941953 0.03744006591604429
-0.00992654489173794 0.016922992545533255 0.03849009546947291
-0.012727278773962472 0.00018667131717948658 0.03970614924873445
-0.013637674066081547 0.024375211890658485 0.03782876789036487
-0.008547204418371833 0.010594954011346778 0.039165881050902705
-0.011344585071937712 0.001267954745487374 0.03965081171661286
-0.012187142911507132 0.009365797788132355 0.036744128224983186
-0.012511020504992946 0.0015891274353491873 0.03946066147852613
-0.010033436115572052 0.004261593763091079 0.03946056874943181
-0.012483214113866336 0.012890248639426541 0.03732773700637387
-0.014990660368558811 0.02051022693826663 0.03739708882527276
-0.010228616282458915 0.003938788114128279 0.03947015184606213
-0.009553662806781478 0.004110325268678598 0.03956538590574056
-0.014860832913762735 0.01942062135842427 0.03882867672856757
-0.009067771677921426 0.01911456448773003 0.03715356614000806
-0.008948347534670043 0.01006879682588901 0.038957634839314574
-0.006579245031638307 0.008501037627370435 0.03710101466595088
-0.012447389464210621 -0.0001753385381771858 0.039678045640259715
-0.01895230237568874 0.008175863887344675 0.037574600115848254
-0.006477575846801927 0.0069035005733788036 0.036932533046745014
-0.010304664014166473 0.01748521958314745 0.03790366352630591
-0.018248472852766907 0.006934324476974762 0.037580894481554473
-0.009618417221810682 0.016330143020635027 0.03868572588599761
-0.009214642729916993 0.01737879305527121 0.03729506090546556
-0.01216451163213792 0.01274468737997347 0.03730705838026065
-0.008662839294806868 0.010785557010916332 0.03914880291289303
-0.015965678752092483 0.0078095126024263885 0.03732872997182175
-0.008696389578655803 0.01588042874750593 0.03769631798837939
-0.009562336563360394 0.017568893646153362 0.037369555655265736
-0.00900510812910905 0.0043945203327020715 0.03960818700798499
-0.020314848696208726 0.017690573937356922 0.03878714216973071
-0.018446799896796977 -0.0021028423549252126 0.03746901677445203
-0.009248181014070735 0.016401931663579495 0.038043956517963086
-0.010815072114888538 0.018031992446692416 0.0378139335102924
-0.009455994438142516 0.017011246630168987 0.03757179872680108
-0.018361053153708316 -0.002854523375337325 0.038266238938232625
-0.007564719975633213 0.011331617817091823 0.03905164108089325
-0.016898183931849622 -0.0021150922754468744 0.03914234005917931
-0.012035248117299727 0.0002659987179541951 0.03967670932415286
-0.008977698845818876 0.007367116221921201 0.03711455171159288
-0.016071205494522633 -0.0010366589193162743 0.03852284597109635
-0.009623610815368968 0.007542987844560868 0.036699518813775034
-0.00907672173840368 0.007144860053727593 0.0368760772008701
-0.009190553664474198 0.016958304474530537 0.037474159257408025
-0.010022720726944705 0.004521103375967422 0.03938400321114523
-0.009042328011513208 0.015676550658482277 0.03857597637754237
-0.014739071201522094 0.00010513005642699562 0.039072941490646204
-0.015952428327916296 0.008697814414135176 0.03745231517759832
-0.011779898999785085 0.002989786578166991 0.037208388352824986
-0.0116689629311491 0.013967898573084708 0.03755705864331552
-0.010377088571133484 0.018421779207309003 0.03746285304617634
-0.011474938702963856 0.003258465259176203 0.03745661682641123
-0.004784364020169688 0.007177488400635579 0.03634993185497771
-0.014490626726526545 0.0006247850337451882 0.03852957298355326
-0.011924751046511622 0.02540647497281314 0.038187298425119115
-0.014572416051776109 0.0010376153960630669 0.03694568294934031
-0.014574490847809138 0.0005021769365729424 0.038355628461381394
-0.015036346445187584 0.0002639776784670007 0.037352535599629866
-0.01034045284463936 0.006068365338031081 0.03683563665826341
-0.01505041130840752 0.01484539862830627 0.0375509520584895
-0.011490033086078696 0.011830410100914464 0.037058009089621084
-0.010898547737160098 0.0042870699903853225 0.03707341836994505
-0.015782503404138518 0.00407918337845086 0.037103118422120815
-0.010263625564608319 0.0056219693766170215 0.03691509737241812
-0.00680113688598981 0.009023145388567905 0.0380553696661951
-0.009496745569924586 0.005653494194555237 0.03732998270678246
-0.012713244327260705 0.0011563646664221048 0.03953471457257018
-0.009704449481672097 0.005050471777065756 0.03933119105687796
-0.014278116164712588 0.01455867706115659 0.037426810908675286
-0.011801247701606779 0.005099561210111966 0.03690645982436326
-0.015456959595529262 -0.0003661806206320099 0.03834826225260267
-0.015101900695629413 -0.0007048113869063271 0.03931710616035167
-0.013398431956485593 0.0015760061841931668 0.037235579385474324
-0.01740063736634285 -0.002325222609280799 0.038893256526715325
-0.0072249252575816835 0.01931165534911339 0.037388919404759455
-0.006637134272504803 0.010534285469055452 0.03820217145046451
-0.013034576474329913 0.001863751068110063 0.03738679922435823
-0.009431352887277436 0.002477116705061313 0.03870428392858611
-0.01547208585151227 2.163943799967011e-05 0.03733108940302457
-0.008784378425200636 0.01557151604462432 0.03844253971308095
-0.009534992306443758 0.024181185686859553 0.03765424526123738
-0.008872585549403705 0.016651742742068508 0.037373164665326065
-0.012150437295092652 0.0028623658954087467 0.037005735406933436
-0.018691975395117424 -0.001987853278633911 0.03730993071023531
-0.01796429806072404 0.010000191170011496 0.03726025502658363
-0.01797797174143338 -0.002270674473876273 0.03786728507972953
-0.009552380618001175 0.005794921017847701 0.03714849175375996
-0.006998535653370346 0.006665000313784672 0.03745252749161311
-0.015352088254498955 -0.0002548174687213251 0.03865895582561719
-0.01046933651309366 0.00469616009352391 0.03821993950524057
-0.01033220290513576 0.004697525280482509 0.03783285797005734
-0.01549801317296253 0.0037633241233808483 0.037088007159483655
-0.006549453647203437 0.010129799039687927 0.038451096577775665
-0.011974146532037613 0.00270864604800197 0.03795118309485629
-0.016336544199379244 0.004345406387442276 0.03710632677039961
-0.011275455456327603 0.01217847118096358 0.037157635278454455
-0.007000965720153027 0.007568044291777846 0.03857064148883771
-0.011732909295593747 0.0032368921292129688 0.038680052485501576
-0.016958464092846404 0.007827158211020348 0.03739628484880077
-0.01645078457318945 -0.0013575557676042513 0.03825440645861147
-0.013884912155777886 0.023915028280521645 0.03772556543133718
-0.007110380108265149 0.02346418790411902 0.037568964078785
-0.013737809146903758 0.023135831558987362 0.03766058408728101
-0.0067087872819396425 0.011015359028496208 0.03867253897263776
-0.01766860266434617 0.0012235288179021642 0.037212463358922865
-0.008481315897090336 0.01598437260323583 0.037463446388258465
-0.017012548982897963 0.015802288558679073 0.03754948087514215
-0.009918446289774835 0.020038099251869883 0.03731220760620155
-0.007961798019060978 0.013755431400208167 0.03873356459140115
-0.006330614007599247 0.011913551705688514 0.03698860837104981
-0.00756834670037756 0.012884883290483626 0.038748726209415135
-0.00816370456829443 0.02285192693647417 0.03753435295965182
-0.01649575403051689 0.008862962786177583 0.03754115116786323
-0.011066921642714974 0.022082760137473664 0.03745212362118486
-0.018537492312645593 -0.0007425888320262048 0.03705119336117965
-0.006114165608657622 0.020144243247142354 0.037539953048372834
-0.016702419547681566 -0.0006440367589302115 0.03728663971247857
-0.019460795244763174 0.01000482794850872 0.037555290064188875
-0.012899902027141964 0.01178979998928488 0.03728276803211715
-0.007956253321917399 0.006183469478506188 0.03943516474781425
-0.006818875375698536 0.007388726484170582 0.03719603294663735
-0.006632689948688789 0.009636221973952605 0.0389205895867137
-0.018721768455756717 0.013634486884782403 0.03754851037498144
-0.014608129347590102 0.025778171270485387 0.03853204077200864
-0.009512657547186894 0.005472749318495253 0.03926531848253978
-0.015978282004572367 0.001507262564068912 0.03687319565671045
-0.006457407190079027 0.01664471350933998 0.037071816423171054
-0.013400824752276646 0.016950090706770407 0.038651309297250774
-0.011185745676812643 0.02233049021482406 0.03746900576431258
-0.007567061461732009 0.0070030296874946645 0.039334599947053774
-0.008916668544190879 0.021705490590126914 0.037481013001248224
-0.00771632635167092 0.012407079868614716 0.03887821318721456
-0.01857643708754189 0.0007762212599097215 0.037230851511191126
-0.00779006986657357 0.014136194211317598 0.038253415746584786
-0.013298536546695404 0.022698113721329807 0.03764253711369696
-0.013359146202359416 0.014865973284474436 0.03758213326333594
-0.019666823247481747 0.017120769122697103 0.038397387283702206
-0.013101315354703595 0.022123637895259913 0.037535740948229125
-0.009618255458992975 0.0031195479855954844 0.03956484136665119
-0.015915180334720946 0.024565266877559555 0.03792100427794887
-0.007220770460201316 0.01289931813878792 0.038559286072907935
-0.015985365925164002 0.02375585548257973 0.037741021295576535
-0.0071981841263799775 0.006476977339410726 0.038193719222382634
-0.010211570903505336 0.01963523143224585 0.03729228030177474
-0.016038320842356013 0.013171963358362702 0.03758110097630055
-0.016550913986572487 0.02335103304444478 0.03762433444865978
-0.009132071395970814 0.0030296288734441798 0.03903503571376087
-0.007333715374500069 0.02037495520295309 0.037375620856114594
-0.01638271257402213 0.023952382919939 0.03777781184626357
-0.014537407366880613 0.0025470750851493296 0.03665109431915281
-0.008318584055981482 0.003829481273324812 0.03858426140674599
-0.015356370293292667 0.016011031661220542 0.037622910097435736
-0.008019894065829397 0.005256158070679947 0.039246908831823316
-0.015299760444691852 0.001754275847500274 0.03673189666629142
-0.011090940274342551 0.01654827785593215 0.038959056746569076
-0.01852317291399761 0.0019111831242285037 0.03722987819050626
-0.011190108892502382 0.00392965368874306 0.03868833703444587
-0.018958229989893396 -0.0001804162446210218 0.037065003766421606
-0.007114375767289629 0.013628983278024032 0.037369857808160475
-0.01640127894867282 -6.48634833356077e-05 0.037045600115135975
-0.014883322875346114 0.02577697888264805 0.03854215098590576
-0.01667278620220198 0.014529112926454436 0.03763464978345371
-0.014887176155142689 0.016034779738782933 0.03774514740273559
-0.01351225039293597 0.025764125337039416 0.0384463320793075
-0.017242218060455658 0.02320209419821188 0.03764773397011733
-0.018064087730436506 0.009356228171497828 0.03723344258649383
-0.009276217121195246 0.005174102627469353 0.03949947528591074
-0.018717407300244644 0.014413611781584821 0.037522726814140074
-0.010010410291986349 0.023806531633809986 0.03746263134008005
-0.010626418781264153 0.010163430503892505 0.036789739016793936
-0.007246341050931463 0.014694723433692386 0.03704004565838695
-0.01489857603141053 0.024764074225956965 0.03795632312198882
-0.007604197246854975 0.01414621850875104 0.0377125699931964
-0.006233969221774895 0.01533786003659384 0.03694812258719449
-0.016864652133580224 0.021793356192964776 0.03747329720602142
-0.018432004703451764 0.011139977700879483 0.03762031316444852
-0.006565481491697061 0.014351774315252629 0.03684843952643698
-0.007432462074928234 0.016207411238750826 0.03695247398545167
-0.010251938881579171 0.008390041371542853 0.03664696004240248
-0.016742631359135295 0.01965065211491932 0.03887072942021778
-0.012336443465039454 0.00597008304474491 0.03702305501813462
-0.007921246889324446 0.01611658737578962 0.037110356122108036
-0.017057113687229068 0.010293719080909477 0.03739784763290139
-0.011861673971376132 0.018862398315241436 0.03755460150500481
-0.011274239344864734 0.007041839755378019 0.03670491441999904
-0.011459669375665102 0.005998748488692871 0.0369054540793763
-0.01144221515574393 0.00799372755331259 0.03678255543444746
-0.010172426171481102 0.009122978076452072 0.03674737073119768
-0.010336057860247183 0.006405630036232218 0.03680002923724754
-0.009426321372648228 0.0061720143099505895 0.03770750677289307
-0.006960616068946841 0.013855509456039727 0.03713223030814315
-0.011236259281812433 0.008667844416618345 0.03676985076251861
-0.012281155111806547 0.006787265624174216 0.036879911790806484
-0.010978888821187041 0.0063225930404270355 0.03677286410273938
-0.013745673815800606 0.003847179119023546 0.03677484277752591
-0.016351401146799956 0.023045034013142892 0.03758722545174355
-0.013120228480087783 0.0067618426991399505 0.037099305381727087
-0.012721517903522333 0.005326127635428555 0.03701840941606885
-0.007130002975356233 0.014182638062179823 0.03710793565662379
-0.012488696235274798 0.005102636431059431 0.03697268845482006
-0.007713667607010416 0.004783195152993082 0.03817865533025259
-0.008077006918973256 0.01638471805825345 0.037110137384573416
-0.010362617196500822 0.016414599628377297 0.038877439097436094
-0.010243033239238086 0.004825602908716382 0.03712068158053029
-0.010973016187678902 0.004699116089916893 0.036938192501758574
-0.013010637592439587 0.004590715436295303 0.03684407270761873
-0.009400811349467082 0.021684287989803413 0.03749507171001261
-0.015531851765787058 0.023236627798967513 0.037651321864475853
-0.017590540214531443 0.005344940457067916 0.037194131054846175
-0.017581125569832677 0.01075079129411722 0.037481796475188164
-0.014812206917534506 0.025416537955443776 0.03823860065813784
-0.006346227900455388 0.021590781944340692 0.03749044297392663
-0.019650685558634595 0.017637788579194822 0.038669062561399
-0.007031173034793811 0.012202123069407928 0.03798986629547596
-0.018461557295261725 0.005984345000417855 0.0374964781934537
-0.014690139828020702 0.01673084846104014 0.038224852181807954
-0.011734813099101567 0.010464716580124754 0.03674937140581464
-0.0151328176046088 0.0013374985265409867 0.036743025466564924
-0.015246227635628329 0.01654739953801903 0.037907866780385054
-0.013656793949207786 0.019143235061627815 0.038784681393842335
-0.006393020252036841 0.012534283418185355 0.03701488190177399
-0.006688207333760554 0.011363616503866544 0.0374681815519773
-0.01641264771288806 0.016847672243094178 0.037885820989803046
-0.007681423001097689 0.01440721750947145 0.037582657544947204
-0.01592864063652492 0.017144373363202927 0.03831652760970369
-0.014173271861784496 0.0018657811669299564 0.03667931560197968
-0.015194002840762284 0.016976772726336787 0.03825643073034926
-0.00852094747361198 0.01796312338730366 0.03708704231001637
-0.01363844622166386 0.014109289718599961 0.037320014924276126
-0.010059387872256461 0.0052342375237070925 0.038824455535975654
-0.015792982539268946 0.017028502519640595 0.03820469784125914
-0.007623273950165736 0.01432458716542796 0.03756477130601571
-0.018615104690017197 0.010094190578573806 0.037388427228443384
-0.007206883404565485 0.012867279707161287 0.03778729748726655
-0.008049321489407707 0.005571002403931195 0.03939531562124893
-0.012868508474940492 0.0155251030357185 0.03794219057790492
-0.00897988300226109 0.014218390822992331 0.03897002885126137
-0.011934171547521407 0.009843885211506693 0.03669704622237804
-0.017277160893037838 0.018806462346253147 0.03880015672944164
-0.019264448796359756 0.016887346637709716 0.038133965009454956
-0.009553626932355582 0.012577757072313078 0.038691327296888275
-0.0083740646336633 0.012078531480456676 0.03899742566842811
-0.007915218973033876 0.012656607146050046 0.03888385969131501
-0.008341857375076468 0.011979250516362769 0.03898909455615591
-0.01642161089345601 0.006668495552857804 0.037204152407447615
-0.016851587625371818 0.013154823496535949 0.03765981299593871
-0.01453421645593421 0.01699284727604981 0.03842850703939393
-0.008714686587413326 0.012939147806050209 0.03904109653816389
-0.008227747019060599 0.019970579270131905 0.037115359423907666
-0.010536124031805604 0.010518179918710607 0.03681598242803388
-0.01799941218758119 0.017204922635093472 0.03826378002118888
-0.008650877861447463 0.006946837106690872 0.03946401195525809
-0.009105791198654959 0.01400717948495292 0.039012183252281195
-0.017225545290477214 0.012838996834552193 0.03767661174425781
-0.018383857500858046 0.018153445953077902 0.03876409261731516
-0.018195272145268046 0.01745747927203747 0.03845900968036463
-0.009072769574610184 0.01494719255108012 0.0388672448562666
-0.009876434282948786 0.021479069496430518 0.03751015426882467
-0.008447008918394259 0.0034247583459890377 0.038240049760487616
-0.018252405402024212 0.01785385459694506 0.038693815970034746
-0.008008041451391149 0.013689306852897492 0.03876880859141528
-0.007593268843305256 0.00767844519295563 0.03930907487133704
-0.018416223158435167 0.018503921690372727 0.03882735523045654
-0.008516678331484232 0.006329045690919582 0.039528625321952726
-0.009102657658977113 0.012960812303975881 0.039010937998175794
-0.007248234849698594 0.009041635674670702 0.03915740808905394
-0.019191719010945154 0.012692610091240234 0.0375426489329805
-0.017548880666073623 0.019271936419149264 0.03899991440088731
-0.007698660551930421 0.009229134844667766 0.03918532549077354
-0.012687667263256656 0.015983127735511013 0.03797405677051999
-0.007649183901874458 0.010228139230416405 0.039179388425583564
-0.0158752944733151 0.006423755132405945 0.037023169942071735
-0.018371238937325163 -5.840141053565988e-05 0.037113111375425126
-0.007351572141436533 0.02291028472021822 0.03746442716413706
-0.01769229443354812 0.017822935137255733 0.03866404524734071
-0.015649151902093136 0.01528031879903436 0.03762052965851106
-0.011061251520312206 0.009826056783304558 0.036637206204399864
-0.01886564567024336 0.01903572258057365 0.03910520548506585
-0.013498632779200036 0.008751507365002822 0.03698081841243958
-0.018108167396085287 -0.0017562246119220224 0.037437187339561785
-0.007504270231696332 0.004754248575067811 0.03774436502901456
-0.017975771757992514 0.019004402586611284 0.03897741657283134
-0.009678971469245802 0.01306670296647125 0.0387526059409419
-0.007199153607399599 0.008764165878106344 0.03914420302341678
-0.009620858327075089 0.005863515125822807 0.03812395981687093
-0.007837239935943414 0.00792104256789033 0.0393272130086437
-0.018422888702112315 0.018923338324753725 0.03897903935907466
-0.01863188111274742 0.01699887162307448 0.03813088398978744
-0.010996873096983767 0.020143817679860183 0.03727433354884335
-0.013347778852461058 0.012436891320261965 0.03731848709217662
-0.010418430853898476 0.013398922500340185 0.03781893109963816
-0.01644906948368492 0.0007168824545774525 0.03695679972891947
-0.016820564264036168 0.01507180582693823 0.03763277929695294
-0.010337503457357495 0.013817478021571322 0.03829994195375021
-0.01861508422700244 -0.0026397982245232616 0.037770720952625125
-0.019321057121920622 0.012461261228196218 0.037536488754096445
-0.007723740397478588 0.005087529015908639 0.03863681545932606
-0.017169323934673252 0.02197474043939941 0.03750156924534075
-0.013942358733162527 0.0060235529891177935 0.03717064509669341
-0.006376346726911067 0.007794060778558288 0.036846232400743306
-0.015456420016248446 0.0007869584063463555 0.03685850099918449
-0.010585732194371977 0.021605358660322257 0.03747152407174961
-0.006414923700708538 0.008053579574471646 0.03684961506473437
-0.015824109873232756 0.019788272271422217 0.038721318416924486
-0.01045949066009242 0.005810273784895835 0.03686341544542895
-0.011411850408345777 0.015093693316987738 0.037958268622392315
-0.019144334428806413 0.006943182013666924 0.03759560673396682
-0.008183428027134749 0.017507294149422856 0.03703878552861278
-0.015009707991324246 0.0015833307414883462 0.03670115296661715
-0.018084144761665758 0.002493742401447844 0.03717980164129515
-0.01107086692602794 0.010784944511586337 0.03674430909527425
-0.016940181738405283 0.01356124690160861 0.03763900510810651
-0.008702378626272706 0.00567351311726268 0.03952095199310025
-0.01466720157603128 0.019858091633932397 0.03827630261415947
-0.012053453429866783 0.012225017602311872 0.03718533496310091
-0.011992275115598692 0.015246433757318205 0.037812040532016165
-0.008953202193416934 0.0037998669768757216 0.0395032505263715
-0.017143084855559973 0.015514343936192367 0.0375898303094368
-0.01730039987798917 -0.001462000337269213 0.03761454763636057
-0.017482412452726147 0.0034874082492861733 0.03714409051217106
-0.01886838118880394 0.003501592159920327 0.03725587839624596
-0.018909140290504955 0.0035359290684319525 0.03726392769257335
-0.007853973031315287 0.006345688245386104 0.039400543037267526
-0.013281893893969113 0.0027079770003447705 0.03664067339413415
-0.014789420298786743 0.02486027885552789 0.03799529827588362
-0.0056391946179015495 0.006897279701821591 0.03679353131268861
-0.0074284844664325635 0.0069024618460757844 0.0391940095472616
-0.007187906175859021 0.021483960062861518 0.037423428979050474
-0.014521750571603502 0.013220161523719944 0.037346016056999554
-0.014898098547407493 0.004899625131661923 0.03709894386718475
-0.013235950893254462 0.017518384643779677 0.03896287785532387
-0.017698089739900554 0.011889865497722082 0.03767774894762792
-0.005947004730204125 0.011681528427971469 0.036681146317445304
-0.018962757492935307 0.0017967148217668367 0.037219714593251
-0.011329641590032797 0.015602420825218233 0.03890069200747294
-0.009318748709109209 0.006186909346054568 0.03910596078709909
-0.010946274542267927 0.014768549045346425 0.03826409288147371
-0.013927390977820742 0.02494633308830864 0.03794231662807872
-0.015910480495770478 0.0004575835194418055 0.03691344175443068
-0.012186909130863155 0.010869954882195658 0.03697650765432229
-0.013409684366299985 0.024051746938111487 0.03780151257707874
-0.01772865790842624 0.012387147662050043 0.03768776798641489
-0.015419779852388477 0.008141897646767647 0.037286385803591615
-0.016208319674124942 0.019983467066841516 0.03857203913177039
-0.013992576600787662 0.009840404374819643 0.037193453154501274
-0.013948920537791504 0.010612009580763361 0.037319509320576594
-0.012450136566404113 0.01928076269709832 0.037601134293114485
-0.01445821929129959 0.01010467186234816 0.03732857324215378
-0.014211674925139386 0.009260401803958259 0.03715556393477671
-0.017462040607099973 -0.002267742920227172 0.038390476367601185
-0.016875047104231544 0.001284696428426647 0.037100590919042165
-0.01538620164512691 0.009193354053235788 0.03740820460353269
-0.010211270717619982 0.004708605126749164 0.03756078301022116
-0.014739124276049877 0.008458128880282311 0.03722046077836348
-0.013365107449669419 0.013409227104835861 0.037298005209289664
-0.01256811484831478 0.023912776544664532 0.03784338111623285
-0.014072876011628875 0.016283606589172186 0.03810954435328478
-0.007203356918533332 0.005112992414458054 0.03752469128299605
-0.017052505211436753 0.004843424655985641 0.037080748880887734
-0.012012387657851165 0.019223639338064046 0.03750982154707597
-0.012629972612668783 0.018857732380396088 0.03878052935118266
-0.006141801863505927 0.009850120005886406 0.036415339951402816
-0.015734090661302887 0.019464426722083275 0.038828986578086956
-0.012866990907394503 0.014153580706739359 0.037410240111840534
-0.0072618424084871375 0.017661818146281698 0.0374027655978489
-0.009870079122102695 0.02257183432135803 0.03751088960131138
-0.015483465022788048 0.006384816813212971 0.036902078361689426
-0.0070389008804441835 0.020563965698163773 0.03743893558286902
-0.013430087403719926 0.0035350568038579216 0.03660654714740643
-0.01852069990073827 0.009541289385992077 0.03733542749150563
-0.012831235714103996 0.019105094712447195 0.03862351618845798
-0.0171421292015135 0.011024109525847415 0.03758369842694971
-0.008541525886840545 0.023574898114360966 0.03766669720987366
-0.014124969639797922 0.01498539451120174 0.037533767445077686
-0.009037962000553248 0.00756308997951341 0.03750516005302222
-0.01450949877925759 0.005427804459982109 0.03710144389399285
-0.015619064850091412 -0.0001199097945280161 0.03737036262451704
-0.008043505389325413 0.02138621137492466 0.0374797918176963
-0.014337633518257219 0.003949489956483491 0.03696846511245985
-0.014570551250881747 0.024391670872699396 0.03782365042884097
-0.013582809032043671 0.0009135952361398331 0.03923487567284353
-0.013752984440870461 0.003274554224253889 0.03663270421445655
-0.006144002651240958 0.005664741682401253 0.03684570447562233
-0.012347320840778688 0.02441786814998964 0.037929044419698535
-0.01441351820457421 0.003529677009501616 0.03689697886901543
-0.015550890635928695 0.019158136845602657 0.038879628895776744
-0.011570848105948606 0.002926337145135222 0.03934319968429208
-0.014523084094832632 0.015910722209247434 0.03777619179356598
-0.017017998287309082 0.006831345856874068 0.03730760811433421
-0.013528961452617918 0.019496672753174106 0.038373778741408175
-0.010861979322714127 0.011877033897276798 0.03719846060868658
-0.008405477676915785 0.02470467504474708 0.03770602826195304
-0.009105874719681259 0.008059118500568733 0.03681025476971488
-0.011771586856315266 0.008978729665126372 0.03675779082332506
-0.01217068828465389 0.004851265067225341 0.03688359906157857
-0.015275537784311568 0.021107993091145364 0.037513997148832696
-0.014536699447800429 0.0027634605999037444 0.03667829074192259
-0.01844336025732396 0.014267415307648003 0.03752837356632358
-0.014812021473168836 0.01840655078389355 0.03887988379133758
-0.007416592898847318 0.005375686952888004 0.038118681358415805
-0.013755783067801166 0.021104622680554665 0.03752128452604634
-0.010975535929535757 0.011012288625609882 0.036817119202602916
-0.009776868549608547 0.024808904692594065 0.03781632624532549
-0.018061556702335894 0.006001215726969815 0.0374298681773861
-0.014259730054270614 0.022766354017632273 0.03756431924783184
-0.008143512673739882 0.017016456129038057 0.037000920668939216
-0.013341617286478707 0.0071929129392584775 0.03706893114265949
-0.0065876154789649925 0.017102074328299806 0.0372702335723895
-0.014113672756243353 0.012609719340100467 0.0373194728414192
-0.006776528218514971 0.021551443393863653 0.037467470617810014
-0.015154136592314389 0.003054116097455625 0.03691398208230583
-0.015344095843582168 0.011038557607386628 0.03750460764654053
-0.00618103931388114 0.006820588923947874 0.03688552413791389
-0.008485738631169883 0.0076420402070568666 0.03935845956295836
-0.00513264663504092 0.005440133276034683 0.036738934069167506
-0.017068902940851765 0.01139310976097739 0.037662904843507324
-0.012536268139357244 0.014150269519057238 0.03749142219330616
-0.006770031055415961 0.006939683706135886 0.03712968520675311
-0.01546333754431286 0.01442055120234852 0.03751615924327621
-0.01269413779431695 0.024788344002946723 0.037944433546602305
-0.019266482727093515 0.005807762534804693 0.03750368219809623
-0.012887075358787706 0.007571528021829652 0.03699765600568215
-0.01666236757052347 0.003922066789766184 0.0371200896242701
-0.008427490163637431 0.004325533491942385 0.03923360270319026
-0.009623019896626464 0.019607607120218352 0.03724319581704122
-0.006733653001149524 0.008767265331947134 0.03873168634617169
-0.01668254331762628 -0.00011704944544424689 0.03702323528332686
-0.011403024090017349 0.01589562784001399 0.03894530307785182
-0.006048472635714069 0.016377857644937703 0.03711537677949163
-0.009838657617762089 0.023341051323513072 0.03748425397144496
-0.01189197529583633 0.023317127626644008 0.03763774732930175
-0.01059520672284673 0.02000536828469787 0.03725946586166919
-0.01544548150319432 0.02242877277039275 0.037646096081047596
-0.01276281692855024 0.011918880551075267 0.037271524437362404
-0.015070264787539013 0.012289340307342207 0.03752441171385897
-0.013368279628223559 0.01780829480635343 0.03899231002497096
-0.014678804378303897 0.00169734033936084 0.03666954682485685
-0.008732741499550275 0.0032723314941848127 0.038729557930520714
-0.013075095779174232 0.013195541955595847 0.037285403817053864
-0.015550267165668286 0.013959928008698459 0.03750445155487835
-0.01650538920422446 0.0030674341924618533 0.03713920652125088
-0.014282861378353062 0.017191650484960956 0.03859272177205936
-0.014000760878530832 0.019563903563284427 0.03863527078374531
-0.011253097621558955 0.014159393855486443 0.037665071278033736
-0.006591047471307005 0.025475406153889088 0.03785329816908787
-0.014549373297931312 0.01748550780228425 0.0386725664994526
-0.007833151634497037 0.005761897524166386 0.03922960942917809
-0.01122851642132497 0.010952635527108755 0.03677056648187624
-0.011387684125884487 0.015403156927733978 0.03838019096340155
-0.008451419540951128 0.007850537926147053 0.039337865179934296
-0.012474486773664202 0.007946392167491767 0.03692875989438085
-0.015582402447839884 0.018273747251635306 0.03872590682276579
-0.009895886495241799 0.012890084764368526 0.03841048924072545
-0.017774108902565637 0.02132186209519673 0.037497159492116405
-0.01320686836923985 0.008591385490664927 0.03693168659840371
-0.012985868144041193 0.015207712784049468 0.037815252046973676
-0.006637534629223596 0.025278515467882505 0.037767163733826103
-0.012715595757517881 0.01468835732171324 0.03766403466375266
-0.016063157935771788 -0.00039998794565379705 0.037353721751315225
-0.018595874991872312 0.012130433502873017 0.03766674299859733
-0.01198910394624068 0.01690230979790176 0.03898752901770283
-0.006342667664434506 0.009069367426796466 0.03683731818209821
-0.014070849895329323 0.007291332012190291 0.03704903297092385
-0.014974034736746038 0.017419680927447796 0.038611494281308036
-0.012389207311395417 0.016361003719595726 0.038681773614653484
-0.029851549272278 0.02314959600887202 0.038363639719029494
-0.02613216479083829 0.025887175363101828 0.03850886680490473
-0.020156103573382295 0.026248117831462414 0.04017033894876804
-0.01944951011934091 0.02624063058931592 0.04095169153983905
-0.0415485452921124 0.02100434027168839 0.039881499574232204
-0.020944454127871104 0.026266065448701702 0.04087329167688257
-0.02937789016733751 0.023752278759804568 0.03864478316501038
-0.027355862533450268 0.01909314880390453 0.039945578450442026
-0.04191693797091854 0.019970688343448926 0.04009313432254216
-0.04251029907369436 0.01306237011914138 0.040337045466915064
-0.02928404636186671 0.02159849909855711 0.03819557545519443
-0.029751888529962984 0.02467312601266811 0.03861704498996858
-0.04152407857927132 0.018216390462197 0.04059053088087668
-0.04176102265246576 0.015844397289512667 0.04018852978303913
-0.03630902406841432 0.020336397225547934 0.03996565828524021
-0.04383869130336248 0.019065901503053494 0.04009027213849496
-0.04221312408746126 0.013542044502826023 0.040049519447207436
-0.04078399749731235 0.02065126202677739 0.040253411878417154
-0.035022982886157954 0.02445438558760081 0.03916488155192132
-0.03468540700452209 0.02022278937255276 0.039922012819704915
-0.028843483713541635 0.02543060619786633 0.03859468700796027
-0.021500419802472755 0.019402317372564985 0.039428676195550155
-0.040570238857670714 0.010705989163560775 0.039383412079517885
-0.034765725299158494 0.0218551185642234 0.03994889524717432
-0.02813017886088312 0.016005265124502295 0.03954821689010472
-0.032054436956642146 0.022897197520727355 0.03860568336106564
-0.035337781252429694 0.019952148631283632 0.039828274168257655
