0.01927649535247057 -0.025315517635355694 0.0004976731646016623
0.027490158998496793 -0.02516432782763551 0.018957761508833774
0.037328899664552995 -0.023866881340928778 0.0027120001042739324
0.04581319887562636 -0.016569688037855357 0.013778621970306732
0.014832022991744638 -0.02501769486290483 0.014095355410231457
0.014288512162989417 -0.02499625473463822 0.013980522091811342
0.042909804483142244 -0.02017330244441895 0.024877510014518517
0.032130044936750334 -0.025248937727705426 0.021727553090089533
0.044284216285321115 -0.01959069818570734 0.02223715814715183
0.012422314615311012 -0.024992941880639417 -0.00027421063622838003
0.011599376888984773 -0.02493820405425011 0.00047645080432459316
0.01669315514174168 -0.02508458481809534 0.009153066597432431
0.0433974311182613 -0.020048681964484404 0.02417387482659834
0.026800365375712967 -0.025781222293916353 0.030555096159298738
0.004092558138870524 -0.025025835534638066 0.006312419195838342
0.011271372418834098 -0.02494804878930749 0.015118655180493372
0.005941909480475722 -0.025179861188759367 0.018065504706566288
0.027864294419908266 -0.025790812498912182 0.031155329834729472
0.0428492184162183 -0.020659538349897304 0.012036257036096374
0.03397858189096174 -0.024497915129072033 0.017318339601000706
0.010296363008698418 -0.025058576732437908 0.01976113469525761
0.021644072225793967 -0.025288102245940372 0.010489863408638713
0.020482128261529335 -0.02503390355020458 0.02453570412970004
0.012095029226861072 -0.02494141434922962 0.0009390327156761856
0.021341637334945592 -0.02530718114813136 0.010857665721564633
0.020380595970680506 -0.025278134647702406 0.01142740496056692
0.03063308506915525 -0.024282750920524468 0.026822974483133272
0.004652977336506588 -0.0250447491045456 0.008796863107646727
0.043956790573074334 -0.01967427055396253 0.01920064012794459
0.027702541645009703 -0.025222408076581326 0.0010216074233405851
0.04307107789044615 -0.020708452790832717 0.0283092728280148
0.04538339194840972 -0.016923157201459715 0.012525340107178935
0.008712388258646179 -0.024909900598914847 0.008076047109304466
0.008979629028509373 -0.02493397045291236 0.008546444467548797
0.013775976097526722 -0.025006416858229234 0.007491023687090337
0.013309489737331433 -0.024940169414195634 0.006107961989041818
0.013575403452824082 -0.024951985988870592 0.006483617640266342
0.027402251591403477 -0.02494137642778685 0.02868300932892458
0.026145197583295858 -0.02518408512992074 0.028573623862031675
0.007249443816920551 -0.02494009663547592 0.0025236915335458674
0.046072031924200105 -0.015621096785130038 0.01172181652789132
0.036949660165041864 -0.02399553782321481 0.02377699646928964
0.029156004274681846 -0.02523084736951543 0.015593689307580568
0.017461580433115895 -0.02509675012001182 0.011578585609785577
0.02773126181234945 -0.025256534804776604 0.002044300914814043
0.02676284708493145 -0.02533058423619647 0.0021463876487269034
0.0025886792330216657 -0.0253133100966847 0.018146909254770943
0.009387346852133535 -0.02497095826145166 0.01365352685516551
0.022005540852860987 -0.025297887914140275 0.00979436362961602
0.026570936392877047 -0.024925183714326397 0.0269652689327175
0.02591431658108151 -0.025126483551168352 0.028024947933887243
0.03268556511007736 -0.025482605733497678 0.021294901440462692
0.027916707948628532 -0.02525095053666345 0.0218946166760454
0.02582082192248119 -0.025399608302289253 0.008770135589349212
0.03502151686280761 -0.025093615226560808 0.02153191268670797
0.03869659231225286 -0.023114745855003845 0.03289336772126878
0.010593529057267886 -0.024946817435598012 0.008299768895037099
0.0328812292094462 -0.02480315142936842 0.015669553198046558
0.02152885139596722 -0.025272420282788345 0.012953673668071798
0.021232396928584443 -0.025259552279514118 0.013208530989818286
0.016497513044834742 -0.024939219611439287 0.02074588106847576
0.01604140022232007 -0.02495941940684017 0.02064644880074719
0.03861176516932682 -0.02327846158043443 0.02197517172488228
0.033779278059721696 -0.024706226103955897 0.013244425020278595
0.03369862094763505 -0.025209454018784303 0.021948273173658706
0.012854110409413179 -0.02494528902018714 0.006926853584332762
0.003819367534437396 -0.024949247551390358 0.005363869686083697
0.030755306832516958 -0.02494789876151985 0.013529206219273308
0.04019244249177666 -0.022795209038225146 0.015590947759759211
0.019671153139913234 -0.02526361184084357 0.006443359934906058
0.012800787496556077 -0.024939134783532293 0.006758076639516128
0.037223191042260434 -0.023918302531790246 0.032636853268693304
0.028005045019378914 -0.025097513397173712 0.01937117429308193
0.035310689947690176 -0.024977744294889706 0.021500696246321754
0.022576792920281488 -0.02529024652487241 0.021418385757738894
0.009393388648708537 -0.02489218512664828 0.0005607324664195815
0.020916182692735555 -0.025176426459190562 0.01822549002764782
0.016847384264397528 -0.025065642132671716 0.015536654916397568
0.029433638423560653 -0.025688079702577537 0.03219849598480084
0.02462821006274155 -0.025400815130158898 0.01941519254266812
0.02410479233401653 -0.0253732106629782 0.019503751838558413
0.025027069616295125 -0.025429758950843356 0.019431526305262313
0.03734072637909287 -0.023920583529179685 0.032999296886911486
0.019539197618047493 -0.0251401671365835 0.02007971029398726
0.03746912452584718 -0.023880504501238683 0.03324812576584813
0.037766693873077 -0.023663967348275944 0.03277947741009352
0.036205817201409765 -0.024411044777430127 0.03261015700114664
0.03844158988840881 -0.02332090700083702 0.03323324159149003
0.011734258010511863 -0.024898130023837877 0.008546178004635715
0.01256185741247837 -0.024928733691474945 0.0022733431368772293
0.024023901307418577 -0.025255227570402647 0.01677574382318478
0.0025179865164415183 -0.02528591269575024 0.01557239700742562
0.021627859510253682 -0.025349717240369968 0.004830014804105205
0.02149416890007909 -0.02534325606114788 0.004904670748001172
0.038697429181467034 -0.023206803362200466 0.019578276547058016
0.004626265499736142 -0.025161504779932932 0.014293050459036255
0.04002280458087866 -0.022705801565229174 0.02047762355652954
0.027413740189746533 -0.02549653153636152 0.03023220646635784
0.018588771974179852 -0.025164805378342075 0.012841600647632052
0.0184678802733289 -0.02516034180126813 0.012606224030005277
0.008398816058077678 -0.025066569848703486 0.01590399881547018
0.01617071667754479 -0.02505817116815167 0.012562334488718107
0.015007500025075561 -0.025020599166565845 0.012835310316156905
0.029482672711548856 -0.02518335283961781 0.005684710844994526
0.016251787664085658 -0.025057991066557705 0.010578527673441755
0.03526545314459591 -0.024597778960753464 0.01826422330351449
0.014370390036083789 -0.024994202009905653 0.009598709917976874
0.01581361987833211 -0.025045953836557826 0.022064698444135777
0.03577018779705779 -0.024533557647259292 0.033569235539221434
0.046097160985945865 -0.016075668401374463 0.01347554974480272
0.014593391859312115 -0.025024978160982515 0.00845097028220115
0.00827351193912067 -0.024903124986347107 0.004471792190966247
0.03474267362023012 -0.02477686015815421 0.03321035972583347
0.007044439383862639 -0.024882288536583134 0.005065939666202053
0.03464230459880928 -0.024760060310031543 0.033522268168782884
0.021590489634912953 -0.025196507723060497 0.01703054628507446
0.030673984917517973 -0.02509689586728038 0.003719305505800006
0.022016361323080356 -0.02541118664668754 0.0005011289832246351
0.02110815082826477 -0.025379671632668563 0.00040346488178605577
0.015478795041139552 -0.025024384216860786 0.01003587898112205
0.044851923828499576 -0.018092435225901975 0.013460369005891471
0.04489654745751487 -0.017985415154473106 0.013257254240195911
0.011517290842971583 -0.024941548262623327 0.00530502695961211
0.03292971355565722 -0.024856446652028647 0.005224774667711431
0.03634265653574517 -0.024311522307824324 0.0036940772643788253
0.0023484458246269923 -0.02520575248560214 0.014693116307338081
0.03934592220915021 -0.022827414837288965 0.012268926699089164
0.027840221020144724 -0.02497422154493613 0.029062643108336582
0.02854773463998925 -0.02494647156545826 0.029430602203635452
0.021360897575608852 -0.025251641741546503 0.014586857915209491
0.020721973101364304 -0.025208899130022833 0.014383226657326088
0.019015845118123733 -0.02518696714334027 0.01364712751229941
0.01988349245790065 -0.025170113961322023 0.014429508298771784
0.04373468327733966 -0.019682520018217672 0.012630615320116176
0.02199023058971487 -0.02511391900000566 0.023311771376794327
0.02914204359380732 -0.02513648162665392 0.009591320835892978
0.029143888467146273 -0.02511027951627222 0.022916560021219494
0.01651242615003702 -0.025132586752603457 0.0021422871866310232
0.017121842636149402 -0.02521192780301319 0.0030594463961207403
0.016824093112778077 -0.025175148030213618 0.0026779102101479333
0.006628733365492935 -0.02503898765975725 0.012436166530320626
0.029789263698957145 -0.02552219071993804 0.03168254562541337
0.030367520727717822 -0.025471423606263977 0.031878769717703065
0.025148680199290438 -0.024965109625958555 0.02726820152584374
0.025565846625912412 -0.02505606167049438 0.027584137840209168
0.019319676599386257 -0.025088065101854795 0.01960047282956965
0.025703172790137258 -0.02525921150684015 0.02399752885392312
0.03402529054516805 -0.02458824906842321 0.011563434558928463
0.011154894020493392 -0.02512273816246944 0.022283319696647316
0.03091263352507684 -0.025085391199659184 0.0087257297585527
0.030981233066043022 -0.025084681693483234 0.008566422017571247
0.011852497250434517 -0.024932036833758255 0.004559717856021129
0.011263458338513752 -0.024923323892895317 0.004820096928112182
0.010938879214070576 -0.024950365177822807 0.011401338255088616
0.03345498380467561 -0.02514143834307092 0.022049875784218086
0.029235037870277217 -0.025199804633912786 0.030557454348345524
0.0289405670848299 -0.025437035611622978 0.030966817737502206
0.025940791153669263 -0.02530560262122574 0.02475040409095797
0.014559653710552832 -0.024996700768797696 0.016196090644319722
0.030650749856007447 -0.02508973307307873 0.006927920451110362
0.03077465065754964 -0.025079168604657073 0.006776979464753637
0.026770783980946507 -0.02528969080819328 0.0071868506482500915
0.033273449835576674 -0.02467754522716354 0.016502376147267413
0.02797696141630508 -0.025267972862582616 0.009562188525062357
0.032385083205495185 -0.024924053347915948 0.005750420027388591
0.031470423288934554 -0.02494935153074558 0.002178200177732829
0.032030553488473786 -0.024900569110949074 0.002238892926277825
0.019525975143780218 -0.025210982767599935 0.010678687999764113
0.019218639170876885 -0.02519562062324105 0.010866912281685449
0.026217263422733467 -0.025295525643460562 0.007229027145307591
0.02646742094458462 -0.025377005412048195 0.003942109162309973
0.027610977605222794 -0.025321045868792847 0.0033990723667077912
0.023656018892645216 -0.025342173120082787 0.02207026702065259
0.008848530430882247 -0.024946422108547743 0.009498776931185154
0.04698064915916548 -0.014368203894265446 0.012529246895286445
0.0047637420209308634 -0.025169640998356065 0.01475979187976674
0.004429318592720201 -0.02519368885143528 0.015180259398235078
0.037798022971225996 -0.02373839940579428 0.010747647719170396
0.03788270116266775 -0.023724271529074994 0.01040226593998228
0.011964709666074262 -0.02496113169755238 0.01664985955905559
0.011845706198817328 -0.024961929874205764 0.016893447180135322
0.04606368774541139 -0.01657879702330472 0.018150275702554293
0.022694256801504675 -0.02539934679320016 0.007838557606160916
0.020098378259205147 -0.025277167714472987 0.012974905482318175
0.02612617662693791 -0.025393638458893985 0.014509137752751432
0.04151383430655954 -0.02176594324994035 0.020604216954579552
0.005761312328253179 -0.02502666764371301 0.01086145148542255
0.041405469916410295 -0.021884467359740048 0.01946481845954169
0.037953333512741286 -0.02357880453701528 0.002529180711719325
0.04762743777738422 0.0013158818004090516 0.022553167285034422
0.047603528787005675 -0.007448535585507399 0.021838100952945326
0.04780809075037569 0.008530510125258992 0.021025075601554716
0.04753121127543676 0.004757469978969 0.006035166758461474
0.04769901463242861 0.00573730436497945 0.014321094646176062
0.04751856561421138 -0.006357864464596085 0.016661895035326373
0.04774920835185331 -0.006757907946201747 0.005050762071472386
0.0477852708939412 0.009449501373848045 0.023542888900297466
0.047763976805791 -0.008702011896911494 0.005906411693407153
0.047676856152427505 0.00958616364725426 0.013321436325307728
0.047589773055346146 -0.0023264791882235333 0.0031089096271440897
0.04760045641582118 0.005882675389525028 0.01271831744177208
0.0475129760164666 -0.0015921851651994295 0.016851198624696022
0.04771754160380993 0.010358246172664965 0.023842713908741826
0.047705526940167206 -0.007191082338045003 0.006282942787444391
0.047566815746615046 0.001115954002371464 0.017711206883281153
0.04765725197662237 -0.00944500579097175 0.0197150648349068
0.04759369778425941 0.0021420193921829426 0.017046992801373655
0.047590273266968686 -0.0014922090578543463 0.028542880330478814
0.047696638847670864 0.009194233385485312 0.02155040320323162
0.047794085229684535 0.008792609614457738 0.020903805463689373
0.04779212618050175 0.007001739424537181 0.01980168099426477
0.04752279387386879 0.011934997733753906 0.010030802343909595
0.047689109172151335 -0.008742767071352315 0.006840475292337377
0.047474416941799776 -0.003576451877000412 0.019625202128716972
0.047746614471868565 0.0036884261422629907 0.021006975891065875
0.047679885000959245 -0.005866130400318638 0.006087674130599676
0.047739232746452184 -0.0030501080479400466 0.0019196163634211804
0.04749658972308846 -0.0002184459117706723 0.008163124887676785
0.047478666990221366 -0.000226695318467392 0.008377363315960736
0.047767799747387485 0.006398186881550852 0.022586874689483505
0.04758952649057921 -0.00011616140938343275 0.001845876620711227
0.0477499809498757 -0.007945282335756388 0.007822843426096925
0.04784293226851032 0.002077083726730976 0.02724611395582527
0.0475712002045168 0.0018619434731738586 0.025981021264950367
0.0477849266403495 0.0030607731462835588 0.02833601041075793
0.0477094405039555 0.003558295670451018 0.018881933604357706
0.04738731421920536 0.0032160648886616415 0.025754223449714748
0.047478035795359794 0.002421854385388531 0.007895934108452629
0.04773323834380973 -0.00473822670691018 0.004527308646529403
0.04770859683562838 0.0023055911843083477 0.026588604549109288
0.04770341670677863 0.002847778911068945 0.026728852877237374
0.04741094621957128 0.00353065453590641 0.0249555498736851
0.04752410508005726 0.004932213679042724 0.008218542167933
0.04751179004580176 0.002943558015143613 0.02622895880093177
0.04789083273439893 0.003985284175840764 0.02746696178665519
0.04778010954372276 0.009978928612326165 0.025611476103650412
0.04752605557720498 0.0011721695970966044 0.025181740395180712
0.04767374880131476 0.009174384195388421 0.005582569495272954
0.04776610641585271 -0.003549795797529588 0.002092853326016604
0.04789880245384935 0.00457413747428545 0.028301715480638708
0.047509154874310094 -0.00044661368192441315 0.02443988824580338
0.047488241192886825 0.0015471567186465104 0.024821062911026714
0.04754304775374986 0.012237970263757527 0.02295271217134281
0.04798059493052407 0.004769043141080132 0.028134828184239884
0.04773645264680568 -0.009835707825557104 0.008060085803471636
0.047679520305094245 0.0056900590205028615 0.025569468827968164
0.04764397481812062 0.0040513045043647855 0.026644781233209514
0.047548362181036676 0.0016317542724177553 0.013870703685002438
0.047709971424156644 -0.008266697748182495 0.008420886425526505
0.047553266036492174 -0.0008607279959110033 0.013820499559634821
0.048026848076632274 0.0054028030342806715 0.027489500399113572
0.047429833813180625 -0.002725183802931545 0.017561178691636353
0.047699965372421466 0.00589841006739833 0.025530633019370197
0.04781253213300524 0.004909592092491971 0.02677641342338704
0.04743976275510168 -0.0022450830295829556 0.024333421948041667
0.048059939022588385 0.0056382003278144755 0.02769716236092731
0.04753375089565377 0.010824976778127665 0.008634894936632491
0.047601217051997144 0.0026761339344739486 0.018361617979915493
0.04777944867364224 0.006800169563726789 0.02580671721595264
0.04752864004527767 0.008013174165937147 0.0070277203931014675
0.04766324474906249 -0.008958472365644172 0.019778696667127497
0.04770232069469474 -0.003821850610150167 0.005616625871623005
0.047856782889006744 0.007725995101945663 0.02572626528180569
0.04772757878189349 0.008236975678310336 0.02489901296457966
0.04769002464987118 0.0021094733031732506 0.026472034015599513
0.04778044776854171 0.006892952461297846 0.02591522580950528
0.047894256892914856 0.006595364410454121 0.027506284823461374
0.0477665181127537 -0.00869688235029492 0.007743198277336757
0.04762683188590481 0.006266666401493841 0.014950213424121095
0.04745183713969245 -0.00047317043220353845 0.017288283287672988
0.0474879747732609 0.0111069993217356 0.009167854383336678
0.047842287697296725 0.00864089474628157 0.025557799684882358
0.04785042316673122 0.006482634852924937 0.02695451833445072
0.04775854512723015 0.0028200702799558676 0.028403840586424454
0.04792149875649892 0.006741145734596718 0.027790499860024555
0.047570209024320007 -0.003973676919084373 0.008673937775978312
0.04764374749776583 -0.0015076428999953137 0.004250359893079441
0.047868017820002426 0.005448306362616775 0.02679990340779277
0.04751790479823745 0.001476355286988488 0.0254844416214544
0.04788902987959841 0.00829728177900761 0.026151903043713717
0.04778127768047197 0.00752047220004733 0.026536909432951398
0.047795618966533504 0.006893621237715397 0.02666153864566211
0.047602330911451794 0.007819786905899646 0.009120247141892197
0.0476425337045468 0.00831668817439464 0.00954941946694462
0.04740952642134879 -0.000995976472474454 0.015901404334950884
0.047825145738154606 0.009382777818013215 0.026806284545967198
0.04760382095644522 -0.0052476024541683545 0.00849160125086705
0.04760198124408903 -0.005586689950378994 0.008501520327153664
0.047581320321934184 -0.0022138129284999795 0.008032721523874516
0.0476266036772655 0.004129040817383838 0.02450262174136555
0.04785428508730532 0.008485113169243965 0.026873710118970506
0.04744257018667492 -0.0023722087356096043 0.024162706363917073
0.04763891853012261 0.012046947415487917 0.02202035781460698
0.047968135662340365 0.008641668111562802 0.02790139289269787
0.04775953869197788 0.006728641857954238 0.017709412557831365
0.04746361698485112 0.004380566056771398 0.025593880207738978
0.047800477680580315 0.007675981341283381 0.026950975403328775
0.04762374657180575 -0.001714590617194054 0.0054467882679233035
0.04740191778604882 0.003176297293154307 0.025899661050212745
0.04796923830103699 0.008472920319607587 0.02778161470694222
0.047688914514941484 0.003471065606835842 0.026855434140734328
0.047499404257728736 0.011885701248262806 0.013546617045115474
0.04754302625424828 0.00039284071692278805 0.017737574389962932
0.04767902531825295 -0.00794935904041239 0.00674470329096866
0.04788538200908199 0.009800408120222608 0.027648036995513596
0.04750371752318926 -0.0035290085342174955 0.014107158270673582
0.047572915887832676 -0.0011740386897385936 0.005108566613669367
0.047539125721296746 0.000727642633625009 0.02451059522136011
0.04756355997917172 -0.0028239772679314046 0.02606913645933631
0.04740869950614752 -0.0033856103147305075 0.014845846843011786
0.04780824121715791 0.010619831544387663 0.027991857071812065
0.04755828743864232 -0.0005654619911818885 0.01390189465898223
0.04750814982291948 -0.0011591728177940944 0.016741037727600352
0.04775765641133205 0.001698843358901235 0.028130023274592963
0.047753294801182775 0.010178056155315123 0.027139090625472595
0.04763614719467528 -0.00143991408847918 0.005474389812626496
0.047498306557911936 -0.001651648937340364 0.02511304244464788
0.0474680169990517 -0.0006155037062384955 0.007309576762203736
0.04770384497476331 0.004020618599938506 0.016695824173015395
0.04756569123130877 0.005017869895050288 0.025987759749742986
0.0475563890979744 0.0031698015680037515 0.028948720098147536
0.0475677287394141 -0.00198805164859232 0.0037588591714365627
0.047652369105726775 0.001808942054773546 0.028952838228405418
0.04801327931392439 0.004855083156973825 0.027467583641739794
0.04775043350111165 0.010793598002284686 0.027404655408461775
0.047891743425465906 0.009052093009704214 0.025879569115508323
0.04787159975872641 0.0016151091154909178 0.027542383180179514
0.047654456104388725 0.009534553157704302 0.014845254685321978
0.0474034928242304 0.0027912632725188243 0.025733228625335947
0.04785137003931661 0.007982951606657244 0.028367209544069266
0.047563945122665964 0.006055831005932057 0.00797595495250107
0.047574278616945506 0.010929654718339989 0.012255301696250788
0.04803335920617563 0.006186494620585446 0.02800233524610156
0.047491837482153555 0.012138658376489603 0.01667245800007222
0.04767259205967647 0.00892926991197189 0.008126001346918708
0.04746930282465132 -0.0029518190818110714 0.02334124193035615
0.0478928678982776 0.0095840487814374 0.027531040406526708
0.04767988561515324 0.007849404527304085 0.012115482892395696
0.04746848344800057 -0.005459010297555723 0.01459799018667625
0.04768709797886236 -0.0021211988189016417 0.02709887703247247
0.04771750129591925 -0.0016758651740711255 0.026800705730663062
0.04764687438546851 0.009158931299219209 0.00518036720951363
0.047520149031517994 0.011828346822568548 0.015276101742516595
0.047528387436653156 -0.004350410209897337 0.022337654717082035
0.04749861306154696 -0.005684188901149172 0.015085709910850576
0.04758813640509089 -0.007107696213353581 0.018645920902578737
0.047497592690459396 -0.001699900515111726 0.007483795905616543
0.0475437870620696 -0.0013629876025765565 0.007937904061204652
0.04745421905505834 0.0014106892569166586 0.013400178182605239
0.047435395642887734 -0.0007986016932667111 0.0143968939158581
0.047065013359894006 -0.013602014441822815 0.010182464368345369
0.04749715931049685 -0.0013262982948243434 0.018762467010477922
0.04751610564671923 -0.001572087778006297 0.018081873415297697
0.04755190947519754 0.011516441855280434 0.01145382428022074
0.047783785584197117 0.008792523449157975 0.013588469714705691
0.047420181273631574 0.00027108761296170016 0.01604222058023414
0.0475850909290231 -0.0015261337374928644 0.0019964673622524373
0.047767164131651677 0.008268863315187709 0.019133623986723854
0.04761125750565404 0.011358639362304145 0.023408616400114476
0.047529538762014746 0.004461682012074799 0.003317446782653245
0.04742126560954842 -0.0036433370095545594 0.01862611575284199
0.04770321515716842 0.0049046539277434915 0.01998427595437881
0.04750261043277433 0.00015676976949913064 0.006336305355077771
0.047747957449748274 0.0090575576819104 0.024447292750296452
0.04766854304904799 0.01016392849153031 0.01526414244900747
0.04774874841912119 0.009093792639351828 0.0244067067721619
0.04756753827024156 -0.001343766663401604 0.0026667099289561466
0.04770157708500527 0.007362020725529135 0.01493252223911493
0.047582124043357446 0.004889729028111033 0.011473485227439942
0.04771445173755051 0.004225565316861005 0.024111578317773046
0.04748306329408358 0.00425848781729 0.010688763290088442
0.0476238451213099 0.0033139550288578622 0.004341559997026897
0.047513502719021515 -0.005182121128131026 0.014316626985531293
0.04749853977998393 0.0009142639449942493 0.004127676328533137
0.04747514767593792 -0.0015019658055726122 0.014282337852659342
0.04767201943859581 -0.011037734028862638 0.021095588298304824
0.04772142753513982 -0.0033994008731114246 0.0026769389389923533
0.04774596845806392 0.009296784994269924 0.01906676529238313
0.047765387422995916 0.010011470929404414 0.02654090849678497
0.04770709785878703 0.003978878948045316 0.024130947861117018
0.04764045739860026 -0.01044992144308068 0.018564918037815962
0.04771484882569683 0.004174528202011843 0.021847816893730217
0.04757735580164102 -0.00177520962180162 0.002951227314572969
0.04768574892844554 -0.004081608408398512 0.00439772629422689
0.04751465822089686 0.00022283954800590168 0.004205745318267188
0.047640235920771996 0.007541718985214537 0.011433061339223538
0.047544073834882766 7.482394483650339e-05 0.004501677543410755
0.04747417534161627 -0.0037559244797587283 0.022926002208075773
0.04764061309259569 0.009129192685403935 0.01266543010197768
0.04754220989428293 0.011722346578647323 0.011208636327422819
0.04744722872216997 0.00110966952292423 0.0073476985154094015
0.04762124927673579 0.00362795262322302 0.015798358730187666
0.04761389446204588 -0.008278153604755364 0.017406270846932956
0.04744119056253867 0.012129536173632098 0.009252408090340697
0.04770275332607128 -0.0023311636033386237 0.004423804509983353
0.04777082009027446 0.009186448123976239 0.023763993872737896
0.04751226105928698 0.0006982151895835898 0.00497503147386459
0.04759973352142163 0.010159649448019798 0.009288812274116995
0.04766408831764078 0.010651614196053075 0.024313812819586195
0.047355636642326185 -0.012531501980389124 0.009669004852537173
0.047627163624649096 -0.007443757939664224 0.01911949789391805
0.047486169075840926 0.012472762981914347 0.01813194430455489
0.04761386596918675 7.379537124593138e-05 0.022376503482310645
0.04749721599681938 0.011877137433377911 0.013996295701770843
0.04763735687153059 0.0026442020327056134 0.021313775294136382
0.04755637296892226 0.0023553412349741213 0.015418011365876807
0.047535763195713523 0.010819422935220771 0.005477950579278088
0.04755524080175523 -0.000145777733149409 0.0025246934802010497
0.047653019513290186 0.0014139195464976896 0.028842923595679446
0.047556118881665006 0.0036454478413316966 0.015292411527957659
0.04755121524042168 -0.00111279650472124 0.028951300861557783
0.04773780465871856 -0.00031124785128277237 0.02717436871121158
0.04762663092397517 0.004577941653378235 0.01636861412325264
0.04767243054161569 -0.004736080245126524 0.007837087499210653
0.04767478512601568 -0.004842210727027502 0.007807230376130854
0.04763094401875023 -0.004070965194459287 0.003837861721737987
0.04757687277516101 0.0032449567571287107 0.004703923085552005
0.04770031464180185 0.002480213381737368 0.020647658976125062
0.04759490348686146 0.0006060305605367817 0.02856369052254722
0.047562826088577544 0.004546948634093323 0.011403626023153035
0.04748045465726154 -0.0017184905622059628 0.024785597860914707
0.04773460730786529 0.0074038849927898324 0.018268927654338473
0.04751328545333671 -0.004947780363627712 0.015574534006848016
0.04757362774063674 -0.0003470713730542153 0.005760918130262942
0.04774047843680041 -0.00021184126939209697 0.0269023234162596
0.04771881559506 0.010922618082843512 0.024814836434603846
0.047409787329427425 -0.0027817641217844254 0.021388226036277325
0.04737944450826646 0.0018405257439532566 0.00699985735298733
0.04748984219435927 -0.004296881576752938 0.019087250025162088
0.04774570414503159 0.000592248110864258 0.02645104427021772
0.04778670717444562 0.0062936117452882575 0.023827450084544885
0.04756698774074802 0.01150579899313492 0.016723683888875567
0.047556257632104 0.011459689387265127 0.0158365313464401
0.04749742338988617 0.0010818643234923064 0.003193978192787112
0.04748716489016879 -0.002775665798909929 0.019106328804165344
0.047455282783031336 -0.006065103626432868 0.017311896873064104
0.047655964627492844 -0.008699165088203753 0.019873268898374426
0.047665312555537104 -0.00591791251845667 0.007872524608759875
0.047565132233475166 0.0006561173415286197 0.0020078416361046943
0.04749992492097373 -0.004577382440461519 0.014231689693657266
0.04756958864513237 -8.900370946478977e-05 0.016781987779891108
0.04749422896661236 0.001893406391673352 0.005305058621444528
0.047742196779478295 0.00939833035484026 0.016301003375000338
0.047738835213580515 0.0065540695918485286 0.0016371409868939763
0.047438312502728425 -0.0051157430673953765 0.018376100159325455
0.04748937102022455 -0.002624404408918059 0.018023346604322917
0.04766056367725885 0.00927285994239997 0.008482727438110333
0.047707622305359305 0.008800597435331833 0.012169517837529668
0.04750448350427618 -0.0002791211106436033 0.01860876692388813
0.04759370433467723 0.00023225037923471384 0.021972695987084952
0.0475760168622127 -0.007114374980898568 0.01578108020333123
0.0477981534834781 0.00014506342350465655 0.02794405877788723
0.047615380263678904 -0.004116283615248866 0.006623032003405634
0.04770570102640698 0.00728787904727011 0.01343453444908609
0.04758024893743916 0.010767868726639084 0.012047204901323185
0.047509696648898744 -0.0017479207429107581 0.016771071491702438
0.04753927112943306 -0.0007685760445402726 0.016856344950022133
0.04756291585355082 0.0036312554977842837 0.0048196341481586535
0.04763999058904005 0.0005152796652499029 0.02560492966576119
0.047700395671257584 0.011249822680659022 0.02586347637415707
0.04748831030962651 0.0031366230103705844 0.00782297881453028
0.04775233984452229 0.0040205903785217635 0.021131172929603526
0.047578366924053664 0.0008621057018936102 0.01661471432313208
0.04777991991382992 9.531529045181592e-05 0.027295158196531166
0.04752655996477363 0.011419738530306301 0.014459075731530987
0.047706462009906164 0.010510408365969188 0.016795520190077216
0.04758048425424475 -0.0075184312438891145 0.01835012738928108
0.04744415829716217 -0.0034385490224498414 0.024231350872469526
0.047434083305054726 -0.0027506179375822804 0.024781957923465533
0.047604872554531566 -0.011590992672981523 0.01947709935687764
0.04768178992306879 -0.0006721505064942838 0.028091920006080788
0.0475932276685276 -0.002847052901926211 0.003440692625298896
0.047490944599147905 0.0030488754552469985 0.008176103742348617
0.04766934709850056 0.006594400092124422 0.012543338127224028
0.04782261341488091 0.008151755074456814 0.023356854474445115
0.047616358749570833 0.0008716330459495676 0.01902644260011889
0.04759792979008797 0.01054353019024817 0.0043614986992037905
0.047680866249143056 0.010202742191195316 0.019023184774172235
0.04754040458417537 -0.011967755577289598 0.021280641335338295
0.04750465580634587 0.01194931299630641 0.01909335574759568
0.04768480209093144 -0.010538725574533654 0.02055657127020957
0.047526074916118405 0.0024053348847111883 0.004834823702687918
0.047655317873812594 0.0002597534613043024 0.02920396149138693
0.047739068171254506 0.009709124985222264 0.01936505729845303
0.047785794805617135 0.008209668443708122 0.022729549706447555
0.04747305363407942 -0.00569690891675789 0.01827564076495906
0.047518809349379666 -0.006442222268535764 0.015183607817991798
0.04760953554200912 0.005584782710389928 0.01616505987965587
0.047713071279758615 -0.0015113241007518844 0.027070866168310642
0.04768839891473546 -0.006129480553320028 0.004069088065080212
0.04765152784066125 0.004059759687349139 0.018580697231998896
0.04754484712877993 -0.0002939720597618547 0.02496178006452835
0.04757710919858264 -0.0003139865047055921 0.02522034706668879
0.047482771805243934 -0.0008965540236181002 0.018663388384725282
0.04762637421083079 0.000852717903454311 0.02880157185636747
0.0476798776595743 0.008918586314004232 0.014834525852694656
0.0475850674966155 0.011210993443598877 0.015293821883993263
0.04764993481635128 -0.008976567531813676 0.01703766932738863
0.04763944005064201 0.009799158392583083 0.01218558664553149
0.047504938204975075 0.0029751318517600234 0.005098014171954164
0.04762311672951697 0.010935874740494702 0.022976754601960712
0.047729739252681765 -0.004678469626148641 0.003245561502519002
0.04746681669894019 0.003581201213984601 0.00867637425679098
0.047537708031991074 0.011391740241243866 0.010448643777992941
0.04753870824720067 0.0020257257798541118 0.0026891740663957144
0.04749230122456233 0.002453470488218999 0.004029187247261205
0.04748350352456772 0.0031545096187188433 0.0034635402343183267
0.0474811886090277 -0.0037667178627958705 0.019379666423775817
0.04757603181139718 -0.00048801796902893477 0.021929827532439036
0.04779833650550956 0.009441152699040636 0.02507415019164797
0.0475408420342257 0.0002884166774619647 0.0023070376807338053
0.047773264887735804 0.005943929283161668 0.019210472551835615
0.04760050157332461 0.001488015133613459 0.016804327532046272
0.04748302662461148 -0.004683587420692094 0.018799559722621678
0.04746126511143117 0.011852867728013378 0.00851907814300961
0.04768612510047976 0.010740010543244449 0.017661174220344904
0.04756672178348015 -0.006970110260508722 0.015275829899528873
0.04763399377922414 0.0015915519293897547 0.019309985288757048
0.04770543901299235 0.004812799113926821 0.02028272677541962
0.04774344870339668 0.004592170733423771 0.020610849592804514
0.047531717655997896 -0.01206832794590455 0.02082597879642341
0.047703750394744754 0.007136587776596067 0.01851383711159104
0.04748792299187068 -0.005640806925414165 0.022596128357307906
0.04756471232208484 0.00553285405094669 0.0029825086175129436
0.04741203819453116 0.0036550271728971392 0.006822508286550819
0.04778575071889727 0.008608073459299856 0.02430415198613948
0.04781710599637802 0.008825829754485454 0.022145823566859374
0.0474893038064615 0.004499300598879676 0.0037119506254435926
0.04776264147005648 0.004805693560369379 0.01677604427887972
0.04772256160149056 -0.0041304455167309895 0.005105403640343108
0.047525536036151055 0.004247561409368078 0.007556368998037062
0.04752786119417103 0.003295846605672803 0.016094674305656254
0.04758231624585114 0.0077492527610586 0.0023354614248575884
0.047460221535508995 0.012186708421140974 0.015360250910799456
0.04768527796554723 0.002022424076324969 0.017925085243043495
0.047681622002583635 -0.011032391563650502 0.021008073138044297
0.04758203450103081 0.0014764136642112687 0.02180205888236897
0.04741685263784523 0.0019049554054125124 0.013223553336027167
0.04748110334310619 0.0011811288933096225 0.008053664874121012
0.04741985395485544 -0.001225880960479566 0.013566284698816327
0.047494735538679486 0.0015239772205886454 0.01529109263183118
0.047618612175209026 0.007660859477181032 0.00975366961130371
0.04757572227870372 0.007144251825779204 0.009253557126945968
0.04746987749570764 -0.005136635734259634 0.015211554757587911
0.04751479767659698 0.005053545794534075 0.008450116671388572
0.047560577533993786 0.0035556200712503227 0.0024663092995757386
0.047483663927940276 0.00022712494574911437 0.014424345424081983
0.04777936404976965 0.005108112851523733 0.022473257030421502
0.04771457783234755 0.00421126080990103 0.02256547405837442
0.0475134214814339 -0.0016773790953935792 0.019572220058970365
0.0474971543405534 0.0016248415242390566 0.003968210869191749
0.047757975167009095 0.005535872556051143 0.01784069402437441
0.047739922762576055 0.005021519027439359 0.024203624126225017
0.04774303013983404 0.0034483496332660996 0.02127106549535014
0.04765592569959713 0.002161765308168717 0.019366155018726898
0.047661647859114226 0.008439747012545198 0.011935259702898311
0.04757735199336905 0.006601714320624207 0.008068493817960746
0.04763973603904384 0.002419949342744164 0.018969253532663523
0.0474691985842034 0.011461284634213191 0.009316438657735852
0.047512953897598624 -0.001184216326743723 0.02503893878171992
0.047675856558040075 0.010206427227768742 0.018302119112707693
0.04745414690457308 -0.001254420669432881 0.006857808959208601
0.047608837516964736 -0.007748181964194719 0.01640009450556791
0.04758949041241971 -0.0030570915421666957 0.006353434206776241
0.047496073458988416 0.0027328454415751066 0.013384541914273152
0.04766785012362078 0.003250243775463862 0.021422272278118236
0.04759794850828238 0.011376393680050511 0.02159166591963784
0.04777664491394625 0.0057257448132303195 0.023982629985326912
0.0476246463506824 0.008892900292343228 0.004919121315066166
0.04779665956446348 0.007435692233665584 0.024037946826097927
0.04770276156197004 0.010166674957792018 0.01415851838848655
0.047659497659110935 0.010806836655488521 0.023903993135126887
0.04751617915699328 0.004391603763584667 0.005901034700371846
0.04757842090289936 0.006483437416308886 0.004076165942048707
0.04753853525981694 0.005115817508743103 0.005368605442121275
0.047715765074539514 0.009966696895173764 0.01973252204529619
0.047506410307140194 0.004453384820111657 0.010908056594952602
0.04749211460313285 -0.006627513726059204 0.016290559975932564
0.04765201657447658 0.011518032020189486 0.024361419568768347
0.0474618031504163 0.0023891251026391487 0.012884788733599002
0.047557305286723334 0.004215670264049707 0.017356608828489346
0.04771704604693398 0.010838066466765404 0.026809300034074772
0.04760447890969904 0.007010633179202544 0.001948871112993783
0.04764051811780223 -0.007919504028389538 0.017043603685314702
0.04753811629582558 -1.2856355019009931e-05 0.02386899389831991
0.047795152127978316 0.005544341356920862 0.02113982585194165
0.04754785462020987 0.0051152871100958956 0.00616596160894298
0.047514445905837914 0.005050421959023572 0.00659284890102324
0.04750930980144606 0.004949718822020418 0.0034625585461222886
0.04763354019418248 0.009534912333629884 0.008672941776220511
0.04770744864662739 0.011627817500647326 0.026358325882585826
0.04762912269917735 0.00946221894211945 0.005618111886594297
0.04746756131964448 0.0010558579953043432 0.013386145920512186
0.047516244149240744 -0.006575086312927094 0.014789142636240798
0.04743703443146664 -0.004307999339690176 0.016224084058602074
0.04741711338618513 -0.0038670923761491634 0.017258123200030825
0.047612562850773005 0.011115408538940224 0.012739312456966297
0.047551005032133074 0.011887579175602354 0.02568338790407097
0.04753953369104046 -0.006057795294077187 0.017706672762584818
0.047500382331392685 1.6470835785243e-05 0.014394547492663296
0.04755947011915388 0.006269897462172324 0.00589372264017795
0.047526250199700575 0.005092936500636199 0.004184133335765104
0.04740258447032129 -0.0033258219672566173 0.021369069883285872
0.04746612669878031 0.012269856843262142 0.01874631806799964
0.047816332351602375 0.008895757324354936 0.017659022648892526
0.04746113121112536 -0.003764823419124174 0.01576301344518298
0.04747822607049221 -0.0018739983963073964 0.023728781044140432
0.04773860253380881 0.00856656562185847 0.0214359269829484
0.04755603903843478 0.005466349527873541 0.013070621885927136
0.04760300122419739 0.011075246541009472 0.02175992909457072
0.04777216378054002 0.005521874087370765 0.023989928054295822
0.047647263086434875 0.010890946271056003 0.013363246238022541
0.04753513359614852 0.00035312534404442156 0.016935894045606664
0.047595768889707776 0.011547771217171309 0.017730758255988674
0.047760719832573635 -0.005561822489309404 0.004244375111611992
0.04764706764510668 0.011047784755687622 0.018804766010638088
0.04746714291728054 0.005665994719996707 0.007100102742884015
0.04756025528553274 0.0068541645878869555 0.003132679488938888
0.04754437526738299 0.0062621606476313905 0.0034314446872075527
0.047677449316366374 0.01028646546085296 0.016589757303601956
0.04773469722581043 0.009447396396312176 0.020911150113261667
0.04748514770453073 -0.0020102713692138952 0.013703081774216412
0.047668287091498666 0.011497610506653958 0.025426250514915795
0.047646777658747454 0.010712939116273686 0.020575993099065222
0.04769410716130084 0.010587602520256742 0.02158439582388775
0.04755876449957826 0.006444050047449475 0.005011453847608255
0.04752384508397473 0.00647070110678573 0.007200432098172478
0.047516639972908455 0.007063786375717477 0.007440172629487364
0.04759754181163487 0.005922403730368958 0.0019695676726511823
0.04751871116252303 0.003253338688570118 0.005786156356017937
0.04780243382080991 0.008904538033770558 0.01796708845746568
0.047550766134701564 0.010428770466625475 0.006359851701625135
0.04754625573913447 0.0023338097027088335 0.0020737252839634415
0.0474960369901243 0.011191452509650654 0.008778966787091709
0.0475368032876419 0.005778703730773898 0.01037505749586397
0.04762383249515518 -0.008396978995423066 0.014982680873583386
0.04767776326572685 0.011145865982716356 0.02445930271838256
0.047554492316369094 0.0010474987849820175 0.024310906656655733
0.04754003290885697 0.0010599017011707825 0.0023976869147025793
0.047570183572127826 0.006650753286522204 0.006515189947199868
0.047597694262290755 0.0077251250946554426 0.008700682168096864
0.04756562164631669 -0.00833356295094056 0.02153896172043749
0.04749708405539983 -0.006286101402875168 0.02125517050489796
0.04780048828693221 0.008656637402006277 0.02004077739759564
0.04747632270183352 -0.0027451369923180034 0.020151863943411546
0.047696374255755 0.010421030996778088 0.020623491142034323
0.047601156327532895 0.007832419466073041 0.01072790263633952
0.047622437636456995 0.007904709134771737 0.005998933643238844
0.04746378489001318 0.003104670073355866 0.0075842972240730425
0.0477092810112566 -0.0038038416490213545 0.004716935867165211
0.0476634058307517 0.011021223562435296 0.020284777800194363
0.047619495282714065 -0.003233641984749715 0.00775375761303845
0.04781080369278683 0.00824451443307714 0.020969528746966254
0.04752766916381243 0.00028405504900218324 0.002912540028491015
0.047484260941001916 -0.0023155862698280632 0.016800227707404185
0.04763355682811287 0.007800175267215697 0.0052884214801412616
0.047543880159634844 0.007657278141676964 0.0036358528060980505
0.047714807895288536 -0.010151132051771813 0.007898043598275591
0.04762939086854449 -0.011165937590340617 0.0080984236827559
0.04772816395188207 0.01052255732202775 0.025049407498666312
0.04746968898645183 -0.00032516027277083154 0.0065731309461650855
0.047488560959843364 -0.00458723095656435 0.016437455297984724
0.04750131132957543 0.002630163894315406 0.003452865446841066
0.04746653636587375 0.0011307970833911842 0.014528533414121417
0.0477523761202492 0.0094938282262561 0.01699300283020123
0.04757085747467428 0.008222252301494704 0.0030451764327735645
0.04758957096651095 0.011495466957521459 0.023461725963154545
0.04764651717826758 0.009293603280818265 0.009206382961189868
0.04762614321634348 0.009862935199745276 0.012705331158496817
0.047718069028410706 -0.0027319424883763136 0.0044580601924232984
0.047815980881249984 0.008939108186544559 0.02304436936081409
0.04756128069035201 0.006751766611468588 0.009025456328627796
0.0476507444185928 0.011053553695913858 0.013111013506880768
0.047623908928704745 0.0019524672074195722 0.022785255096868885
0.047590057252098084 0.01153232592936739 0.020277075404004904
0.047608263876133636 -0.006290339425153454 0.00844209685906112
0.04775655994188577 0.006804879640420399 0.01880172817584623
0.04770740336224839 -0.00981042054233671 0.0070521520746242815
0.04776088273772419 0.01072144682108079 0.025475387554227305
0.04751121371760819 -0.00036409299494866317 0.020114135263180136
0.047661426923220396 -0.011064360295226023 0.020596137146091223
0.04758639009030772 0.010018538310486151 0.005853414806969637
0.04777676882133747 0.004986319693373376 0.023317671692991288
0.047494578665632226 -0.001261216510983361 0.020138037931668958
0.04750471714100049 0.0116418035655257 0.007862219093606395
0.04764183940659926 0.009286951368560038 0.00621971597252115
0.04758938728176252 0.007344122680478949 0.005118110933909575
0.04745256916099962 -0.00471464811440293 0.022683337728878726
0.04752909495444602 0.0027400328158253195 0.0028149356756712878
0.04767575578425205 0.004691040307176202 0.014170020625697595
0.04777157621737195 0.008896700339448489 0.022732233354128956
0.047649088507276616 -0.0021248918012738626 0.0018820887701068048
0.047595613206638895 0.006219845345742225 0.011873597923208225
0.047640541794109294 -0.00879641132941017 0.014685737932101442
0.047389713078508464 -0.004242451978106841 0.021402106663439127
0.04762710887883466 0.011563088201953207 0.01946606873484594
0.04776969360695503 0.009132367272078147 0.018610925834786712
0.047822992151231286 0.00969794783824783 0.026128880960404055
0.04751093303196495 0.00016974505844159223 0.01838011887579934
0.04758121812751625 0.007375021160872278 0.010249430095376879
0.04770000730434937 0.0034294339495496307 0.019034372985994908
0.04769517583072639 0.00950960701557167 0.015110784054232447
0.0476312617573552 -0.0027373276615546174 0.0024278882103004867
0.04762870076406777 0.007669465369251477 0.011288498821706522
0.04765370249645399 0.01058891237029068 0.01468518671289857
0.04741357765405224 -0.002972943562634113 0.01841262509461576
0.047666694251083525 0.009425862744061205 0.01456201902045703
0.04766755170433644 0.008911896923238795 0.005681022980726509
0.0474134721969154 0.0006724598717756849 0.009123438061943401
0.04750185361031188 -0.005808138731175254 0.01968083645226603
0.047777235262476236 0.008625654705861503 0.013900071515346805
0.04760087141248614 0.009963237494777667 0.00434782126208432
0.04772279635962877 0.009577470960659445 0.016609458005686698
0.04760959480455019 0.008006291850155193 0.004534376991074494
0.047634952495956694 0.005173945235170927 0.014507162152721095
0.04767393666921005 0.008823917720485545 0.012557357611479834
0.047694972115737096 0.00831289964056537 0.015309813211684932
0.047687650033357176 0.008173958896017512 0.016251912733986164
0.04764427276534793 0.0032266847031161743 0.018702117675262316
0.04763572711106599 -0.007821583186138775 0.01764014823350954
0.04760473583086106 0.0117112040706582 0.021387250094188785
0.047769701785809755 0.007569109679955853 0.02430446332270364
0.047682772319567135 0.008014673320007139 0.016004852301858406
0.04757522243666694 0.006500278946447472 0.010453021361967843
0.047842073996032214 0.0066591438470388915 0.022224312552416345
0.04752955892221504 0.011138138597322992 0.005774830357054914
0.04768786336501431 0.005859437730880656 0.0215966069878374
0.04775348196440691 0.005903990984746905 0.020192706628939523
0.04769168059258973 -0.005479796792549717 0.005918003713530482
0.047419807335305916 0.002406679066674553 0.00674381511033916
0.04776515118253148 0.007813818544392026 0.0168449098286487
0.04757369010911552 0.006579263988811823 0.0028272316560217043
0.04772912729609312 -0.00892680984695303 0.022097501673856476
0.04763880462978225 0.004448385175516894 0.021651978658443587
0.047687023907305996 0.005610101716152628 0.02479979166142192
0.047738754667929574 0.005413053526041758 0.019883492124615057
0.04751825502460563 -0.0009900144110236368 0.017762451783021514
0.047731235133403785 0.01010414385617575 0.01783314051660579
0.047504558504165115 0.001444741220763534 0.004544834783564263
0.047757760492807375 0.004800742648321007 0.01948573884535583
0.04774269102564002 0.003920576674788989 0.023469624380517556
0.04785633930248253 0.0010807012070006773 0.02782585879682783
0.04759431433411363 0.005664795516169398 0.012694432756673424
0.047767946898632764 0.008642609004708583 0.01718166393630527
0.04751866081554971 0.0009356640684595668 0.006156500964870821
0.04774193762648436 0.0036373865366045154 0.023002791904085693
0.047732386919235474 0.0038486703603771485 0.02077785664225318
0.04768166181583323 0.0072895491835773965 0.014811305764819621
0.04750926846694993 -0.0015044121210876092 0.018172308568900723
0.04772963794389254 0.004721409192327672 0.013881037372863734
0.04771364126545029 -0.008086536159722563 0.016827342251474982
0.04770529741579485 0.009805596923725237 0.021347351466997684
0.047532317924422945 0.002498312432560139 0.014311179967312257
0.047574860707451094 -0.005299047146506823 0.014084997453294978
0.04771243146825311 0.005045482389149881 0.014123479428987274
0.047597467222405 0.0024140615713197475 0.013985113442918987
0.04772863397395964 0.007031221458683091 0.013497140213300361
0.04764019709493766 -0.0031207149053339945 0.003916647740135038
0.047678034942466446 -0.008304425929672243 0.01642543905246823
0.04761165638368452 0.001479018190042136 0.02024011538284315
0.047705809383065734 0.009249474247879015 0.02177353652483819
0.04767113082734646 0.00408383867180248 0.015674119612750146
0.04762310498662672 0.005367014293108775 0.012166536211907214
0.047749120844901655 0.004932563171963256 0.017967486132224174
0.047757459855304635 0.003301003573723709 0.023204247900424663
0.04741393843311043 -0.0046140412032852005 0.017369123589172142
