0.04285989276135295 0.021396166962835757 -0.011101793809650626
-0.024126860991487656 0.026971971183702634 -0.010684392004670251
-0.02499321059738859 0.026834355563111617 -0.012564053845368973
0.042333574322852785 0.02141267428587951 -0.004675440430054528
0.047456594678006905 0.002621412843164253 -0.02827326516703316
-0.004448267267828904 0.024861838473864785 -0.038042645046563475
0.047499455953991056 0.008856304286155497 -0.032459152804252885
-0.02574104842573925 0.026803932030613 -0.010216246922582972
-0.02535414640188599 0.026889582178975278 -0.010876669246398678
0.045473816786315624 0.017666125486813622 -0.011274931711512021
-0.030095756256817215 0.026527238127992542 -0.011827908845064405
0.04369167200429762 0.01959101904540446 -0.016114507362967545
0.047290861864709446 0.0015033012790538532 -0.030695054742960526
-0.025322768504772622 0.026828710369831248 -0.011825122745622384
-0.025308527608502895 0.02689712840529726 -0.011060468683184863
-0.025814321884046802 0.02680171482567127 -0.012346629829092792
-0.01909694078291132 0.024941532930612728 -0.0411125928211034
-0.014012844797623904 0.02700237066485589 -0.030060764360003687
-0.02375858958548904 0.026985675789282657 -0.010614411278733155
0.044237858353462084 0.019348630710957226 -0.02217837333232807
0.04475194442748999 0.017644331535338693 -0.005987049921763684
0.04757326147476808 0.003950316412174953 -0.030413091598524247
0.04490017771238804 0.0186377819775437 0.019204250145792814
-0.025347226713049863 0.02680920686604241 -0.012435399286905804
-0.025515090619441058 0.026801643086372992 -0.012333576200125426
-0.003140989166151623 0.026856534758438223 -0.025585351848743734
-0.017116838382318825 0.027083573979745867 -0.02870666435111076
0.0475534056189631 0.007467369530741137 -0.03507838020411507
-0.020773869899408926 0.02698494077784353 -0.01104001645254419
-0.02101981659573214 0.026990261018018488 -0.010475610204921638
0.04558739462815464 0.016377695573018214 -0.005963124425555853
0.008796694557350621 0.02654556057753766 -0.006610835499325902
0.00859349086127897 0.026537302973140185 -0.006784082818801685
0.042284992164430706 0.021972561874692872 -0.017114591524659863
-0.026920506360222807 0.02678552913030351 -0.013258266404764086
0.04490269916729789 0.017885045013457564 -0.026793217291385125
0.04705206080655659 0.013641744595796724 -0.014993414134208639
0.04267085560775822 0.021126011608781747 -0.014759934682993869
0.0218419698458037 0.02570927908715248 -0.03874042828640964
-0.025201036236650144 0.02682374357604352 -0.012646460727146362
0.010273502214437596 0.026778764404654376 -0.024852530169269714
-0.024856673123237784 0.026907457898249543 -0.010291693957807914
0.042862035107190055 0.020635248745822437 -0.01547301746196129
-0.026987468778587986 0.02679527952337484 -0.012426316110674688
-0.026927670049935105 0.026746993499152424 -0.010649988981238537
0.04750955385725346 0.008627318590208006 -0.030614841589872082
-0.0022018952869001978 0.026818493771499023 -0.02458429516890576
0.04572178462219856 0.017348610619891278 -0.000617886600023677
-0.029947656429533016 0.026482749333375244 -0.009599128572770205
0.04758861518713572 0.005306790161033299 -0.030777547484264003
-0.03048542045016662 0.02642231043387193 -0.009602345952616675
-0.030792118951075576 0.026405226255613458 -0.009899791511582247
0.04513680139957989 0.017007635076348435 -0.0077358384223061545
0.04679706215295274 0.013344563978869618 -0.03289293138962785
-0.02854115451179407 0.026667074458307 -0.009561878549325165
0.047523683082976845 -0.001846138424540073 -0.012300590010667196
0.010200912256808206 0.02677057993186764 -0.02469043493801409
0.021342677137124774 0.026685723507602465 -0.010906064436877262
0.021102809867436196 0.026685682520127284 -0.010428360149430334
0.04553400978551421 0.01694121426234426 -0.0028874691160562915
-0.02455876764041915 0.026894833652651703 -0.011689867090151122
-0.022590781955031176 0.02692430925554392 -0.0125187458031672
0.04752462158140229 -0.0068589369003524275 -0.019034985464419802
0.018320523457452175 0.026173896464462325 0.01523351255793571
0.04414696407612016 0.01960050456755968 -0.02003716950127192
0.04765673881282742 -0.0011951806041819663 -0.034306243571933064
0.04436402759703584 0.019000623520756297 -0.021658837859249158
0.04385309805536773 0.01971858535945459 -0.017209469480488154
0.043508742680731266 0.020037258725907378 -0.017058603649308054
0.04379201745180272 0.020190522872982633 -0.019980760110295273
0.043742218843044085 0.020250466882832063 -0.020304087323817593
0.047246162800506517 0.012298035916571694 -0.021432098042836807
0.047301495188983314 0.011951333516473617 -0.021553467903686487
0.047343372686019965 0.011635046522571605 -0.022349296278370154
-0.010916859094128886 0.026857063939465808 -0.012985726252981588
0.044459564626691296 0.019255846719978043 -0.009819709132169376
0.04729287636283116 0.012551145320753767 -0.004920016709630619
0.045483522757738135 0.01720357991345258 -0.027090022867913365
0.04703132662666781 0.012555173004928089 -0.025856326955231435
-0.0074304592807876 0.026766161354273947 -0.01173941294161047
-0.018785352170252723 0.026989663349966476 -0.011710011286541245
0.04757564031643664 0.00541982191691772 -0.030061779905007236
0.02285613178654774 0.02705767536590861 -0.03115497301562891
0.04742296987523297 0.009597077015025168 -0.02756775579849312
0.042578376643612616 0.02169500269081638 -0.01754286240341249
0.04479041036208858 0.017683316199760105 -0.02650811963443732
0.04606259028575684 0.016368875852122173 -0.01690844569007572
0.04231147950811019 0.02200521022184012 -0.011943658703512085
0.04552406025666805 0.016556947492206927 -0.021189800980412298
0.020944460121611656 0.02610361647567581 0.016628436774099444
0.011749158025747974 0.026480247773327782 -0.0019881202291609753
0.04599041834684349 0.01610354005586922 -0.02735436039954725
0.047084459100185355 0.013064696671677315 -0.021586819359526645
0.047102687483417366 0.012978239961918468 -0.022162139404630087
0.043396306121127624 0.020789420027803974 -0.020036667788402903
0.047030061383406256 0.012363515255943903 -0.03471512556593231
0.04195586163540917 0.022156886469656096 -0.015032158040375134
-0.013559306601457616 0.02699512604828786 -0.03206044614992656
0.0439134366168693 0.019987039666788074 -0.021203341446863762
0.04384329440466973 0.019788640785309505 -0.017442668096394023
0.03878336390406885 0.02394596095892077 0.008197894600834175
-0.013157563561591736 0.026937147542576107 -0.014960252234481806
0.04756660338299956 0.005455379544940001 -0.010357073877194098
0.015582310595716183 0.02636644866548717 0.0018999796772449327
0.015394261384629515 0.026355972945856572 0.0036980959403878676
-0.030039393325579103 0.026495215673725953 -0.010591615539124386
0.047539628453813584 -0.0076314630760446565 -0.0191795661800797
0.047634000862619784 0.006435971187562846 -0.028189260555184698
0.004905446871165215 0.026471469516625955 -0.003990416177903201
0.008276068951418534 0.026298979183531336 0.010714197013013902
0.009173544089255005 0.026293121389685883 0.011299214646487268
0.012721894290157784 0.026262134535309498 0.006340973615553582
0.012578682430982615 0.026288907850225633 0.005967897553683597
0.012034110547020827 0.026293695926148754 0.005931537040074025
-0.028087451447276392 0.026698803556858983 -0.012985866256080617
0.011783670053765922 0.026244747621470152 0.006833328954989051
0.01182748360135013 0.026279672294957316 0.007527282481242566
0.012165663481720908 0.026244093349939584 0.009352856097168483
0.04756293283428493 0.006264913619564513 -0.002989511375564434
-0.019196703124095545 0.026979226073746317 -0.011527817487083225
-0.020148590773125075 0.026981377475571586 -0.011073936397575585
0.010882958227399958 0.02630499860841545 0.004784317480685518
0.001439232682034068 0.026602390346068094 -0.010377270177037996
0.011041975093283233 0.0263159678448798 0.0037975408789438446
-0.029024414821746124 0.026606683944772627 -0.010956431855016066
0.01140776103023977 0.02626666066131584 0.0051246875808569955
0.010738069020409462 0.026243115586643634 0.009388252454540419
0.04683238634955174 0.014608806128224187 -0.0017992481168302686
0.046838574136040166 0.014645883177150251 -0.0016689326467469337
0.005579710325284043 0.026424841213096996 0.0011862526043913114
0.00897209819162376 0.026275223140649902 0.008277714480143385
0.007379573803780967 0.02632060820020867 0.008737097218454113
0.04771788965856726 -0.008014606197976223 -0.008470070313557712
0.04672318458137728 0.01496769756993237 0.0038981408986440208
0.009459967640102632 0.02679293783941246 -0.019625053191017157
0.010169848647906179 0.02628219978197327 0.007856579274786238
0.008317460381642527 0.026307094862202743 0.009838812626917551
0.036512735173970884 0.025366817898379954 -0.014853802218758245
0.047478341987683415 0.0034073043737757485 -0.013739493166896391
-0.00893084530626088 0.026806269090215253 -0.015082050169578476
-0.009235843477676647 0.02681773897463885 -0.014488394273234988
-0.022378658041940693 0.026953950543246504 -0.028737046481076993
-0.03053635110068597 0.026391041529537293 -0.008535290663129018
-0.031175448444741252 0.026354477780167102 -0.01034157357958802
-0.008663101575110327 0.026828012794922404 -0.022891074642646666
-0.012824137359775709 0.02690164544254042 -0.019375221365978666
0.0057562600978612825 0.026387753409130587 0.005917091119991249
0.005933916035412249 0.026393525107042567 0.005472957844689614
0.009233124649631483 0.026321948503265226 0.002091895735846749
0.0086333740890249 0.026342740679122564 0.001960154185261531
0.008435307113908448 0.026307518080622618 0.003203651860706151
0.008263781454727483 0.026312280190763725 0.0034407919435264565
0.007723598033495091 0.02633578084027157 0.003519735617187513
0.00872154083682584 0.0263159542330064 0.0036375398437881903
-0.01569896420171283 0.026074618169486356 -0.03706048098049225
-0.028715018964526558 0.026648753022740737 -0.01067224701687765
0.00838707749088891 0.026319176495571563 0.00442610607231209
0.008315944450354398 0.026317986345191818 0.0038211214437447994
0.008028182501106101 0.026343121716219945 0.0045927306191228855
0.00863819327071938 0.026302389275030327 0.005528931517509333
0.008898118557379863 0.026844913864432295 -0.022360116071349828
-0.026332602367963778 0.02689558051517741 -0.017700302861355717
0.037307467959775735 0.02509599507842015 0.006448115668441462
0.011002843818448703 0.026264211019003426 0.008719589279182658
-0.019697379802709993 0.026965111057292813 -0.010647107272087964
-0.020068555632028758 0.0269168428490974 -0.01022267489108485
0.007028430247143969 0.02638916785114083 0.004626287961013829
0.0073197684983492455 0.026361562756216275 0.004011585495339769
0.004808586831218555 0.026467501362838725 0.0020913120552501696
-0.01331667557467726 0.02707008000851005 -0.03385456922621644
0.03144478943956695 0.02592771406477528 0.0088562455972903
0.04748836567329961 -0.0030719270198907153 -0.016299622149729905
-0.01217040159125356 0.026866918569972906 -0.0229703875259928
-0.0014024875697505237 0.026715404004835738 -0.018274313374727836
-0.0012056282590457508 0.026690004169328818 -0.01710682179934761
-0.003877593585754828 0.026131573176247147 -0.03614209885665296
0.04620462663257509 0.016039192008946896 0.016815512195928403
0.005097154607982145 0.02642772458733885 0.0037233478096225336
0.01041250963293045 0.026248336389924506 0.011083028173047262
0.004985870444489338 0.026451644572434225 0.005282931887388349
0.0005066853092588574 0.026568733833291988 0.004564214917868981
-0.00098806210348541 0.02661893473348796 0.006895136646042405
0.003126464780171847 0.02648443701922288 0.005819944736547716
0.010129254751775745 0.026338466811296514 0.0037012513299832534
-0.014062222618059022 0.01958466087775735 -0.040074190155583174
0.006337034174030431 0.0265066235735494 -0.005928703482521224
0.0020252868321945583 0.026623708806887907 -0.007526362499227623
0.0026288442086734418 0.02647679549599826 0.0032726072402207078
0.002547196609417082 0.026492161244247806 0.0027268398734384617
0.012133871408900878 0.026171376145688867 -0.037427744219406006
0.010599384965193503 0.026288820885586626 0.003174791504784138
-0.014870074312481704 0.026945976758637673 -0.027418325294418896
0.04759571430327386 0.008192145251827328 -0.012903447465105425
0.01317242790034562 0.02626641778873788 0.006253094482998061
0.013071535723658358 0.026288119044386056 0.005949747932145526
0.0022523885363920247 0.026494647937416203 0.006388361406958466
0.03663184235369114 0.025289996712008357 -0.006334774476915172
0.0010354122239754795 0.026528532184855538 0.004822017633232172
0.00935584201476039 0.026298561158326017 0.0029846904084191257
0.00952602334993 0.026309027857430195 0.002402879149254832
0.008929393453013535 0.02629750935881292 0.003283898424311531
0.0120883129746455 0.026320119469928883 0.0056330612511108075
0.03338811166478652 0.0257622247691404 0.006687852712673482
-0.000721764847304495 0.026627633571675483 0.004993110765754454
0.004142100782485737 0.026435261022939527 0.0031960204233677926
0.036503815749878966 0.02527342383722297 0.01110817161440857
0.01214024316249587 0.02628950475125258 0.004677020772676906
0.004255164539878698 0.02644123275644318 0.005894787296885737
0.04679455869680102 0.014653764649333429 -0.005669143389656406
0.0073803151731847184 0.026322320654546 0.007631446286793303
-0.0007997454719945652 0.026581803736964196 0.0073773810023874085
0.047801323214679316 -0.004075318304181262 -0.007737174137879129
0.012163850762873374 0.02623903652217125 0.00904104868211993
0.008939318479801995 0.026340570801410654 0.006675114490602232
0.04748119732509004 0.011318134781127009 -0.0028360216461289565
-0.02282146683023673 0.026944822563256757 -0.012853661776523674
-0.0007029460997406852 0.026822165583103567 -0.024424907841350464
-0.0009212791871073847 0.026831132445714254 -0.02484120357107952
-0.0021228805766326546 0.026665635685910512 0.006850438524963762
0.030253519084270743 0.02641236401152121 -0.009962623987469693
0.003422649605975157 0.026716547353645186 -0.013003590150128171
0.009836011921168885 0.026238734419196094 0.010209176201444708
0.03692623873000758 0.025118737555174832 -0.011077860678349755
0.0273264987512804 0.025979179126979626 0.02025185732815478
0.04740702045294426 0.012587718107495982 0.011835363559774804
-0.027444575504148708 0.02673261816848889 -0.013510489259404127
-0.027868876570881274 0.026695752248185156 -0.013575368963376768
0.00791102029378507 0.026322287185539733 0.007273759114644131
-0.018451884059902612 0.026994121671822996 -0.01038319659844752
0.0019103273599179096 0.026523586248733234 -0.006378757133206162
0.04761156412817365 0.0062108880816191744 -0.017125097123359533
0.04114131815232635 0.022452851025533075 0.013879647515899712
0.04629803957853214 0.015913532959634605 -0.00915851594693987
-0.004537512531096724 0.026639505402671453 -0.014011471412961603
-0.00048231736716671333 0.026586851336200937 0.006605671503571802
0.013216847146459924 0.026295714300655807 0.004724998845306015
-0.029094177459511972 0.026615941984521076 -0.011313683210949664
-0.012406429161775529 0.027139688910656455 -0.03502174745009106
0.00976008094131842 0.026263112639310797 0.009184150915199073
0.010400934273180909 0.02624606689200358 0.00947699290158083
-0.00840810821475387 0.025468256491203982 -0.039534412602633316
0.021005652813879876 0.02605817796114317 0.019787480437902835
0.04763850772446029 0.0028372763052274927 0.0016677592136231218
0.008277088183304984 0.02677925261044664 -0.01892345106351402
0.008194544708720723 0.026783510735126168 -0.019028953212368548
-0.0008430418932791951 0.026589599670698877 0.007812732932401202
-0.028153917747757197 0.026684890375728708 -0.01011062628076968
0.03311242005911412 0.025703637899957627 0.012323367447313138
0.04112895198834743 0.02207606125348265 0.011828558711128832
-0.0249428124789947 0.02683895320782792 -0.01207254362624944
0.03204381003368775 0.02579243029298956 0.019166722404705117
0.04754611715921189 -0.0007682839653188715 -0.011261156722657732
0.04750280245560831 0.0035714423076217607 -0.015286607059741119
-0.021115914328924613 0.026973088856344876 -0.03285619573960379
-0.021651498075239 0.027021442174503325 -0.021610161419513194
0.020699663447436963 0.026233977589885812 0.01814054781326358
0.04749706233204166 -0.003253687277243432 -0.016335651733670936
0.04769043500042858 -0.005384774196200144 -0.00468877976847336
0.044751840502040896 0.005929978902718605 -0.042395865146238484
0.03527212995012416 0.02245668116456885 -0.041557535580457695
0.04652424610130233 0.01555404467477809 0.009169434607732981
0.047450303790113585 0.0003201921265818696 -0.016193747212941468
0.045545634189011495 0.016490689840444425 0.018720654009530886
0.047396488504194215 0.010431039522568129 -0.03404880970900264
0.04761462622412572 0.001689061850726917 -0.0006798903147278554
0.020334224746918168 0.02616778047629595 0.015405650110210528
0.0013669194144277218 0.02651463231788868 -0.003389640908709827
0.0472649482858742 -0.003737034134917493 -0.04005651945778724
0.03580611164810548 0.02544953186412975 0.012943690610753905
0.036166410977392496 0.025387458916859174 0.01202482466123635
0.03578022533750496 0.023339629215151654 -0.04125788393961798
-0.013367505522078847 0.026914170302229323 -0.018565613896160644
-0.00967707058372572 0.0239082127906931 -0.04206119403627398
0.03565859306703888 0.02547822034757983 0.010800736964896505
0.03953272986213038 0.023301714386506026 0.0027327956616264738
0.04176766716747152 0.02237732602613753 -0.008205670044679605
0.03471692156059096 0.022295205903824084 -0.04145123125314818
0.03050139963902249 0.02601694999691761 0.008864295966717093
0.029807894763579836 0.02604889224062186 0.009689701791451375
0.03829962555208233 0.022388656550241904 -0.041335104796998395
-0.0143751284859342 0.025460734676311103 -0.037254773373060796
-0.01353886326022863 0.019851348603108315 -0.040138673407313516
-0.013232175681978865 0.02018206390916126 -0.040289412789612115
0.04516615050929177 0.01868370092461391 0.015140669036675908
-0.0017359729649470681 0.026812642060186177 -0.026065307552256133
0.019844281488937635 0.026563479421799274 -0.0031884063240600826
0.02020640227693376 0.02647797507212151 -0.0021693934804924153
0.022179844286225846 0.026294623839457867 0.01907827610935404
0.046410267971650314 0.015534309625838376 -0.016355117735480068
-0.010506026664000249 0.02687528205984301 -0.013771977284931753
-0.010540724471997161 0.02694435553096198 -0.028420792490248654
-0.010890942471114646 0.02694443830154758 -0.028678787475414327
-0.012218741430569802 0.026938505426103588 -0.01277294634621033
-0.01554224223655766 0.026367216558779258 -0.0367704777017319
0.029084449794929586 0.026070738305222663 0.014900547269283998
-0.006640512714882664 0.02678522941562111 -0.016165410996630252
-0.005752599549037726 0.026757092926154413 -0.016936884358118756
0.026925753965362953 0.0232227049936111 -0.041607844028924625
-0.003997480256249173 0.0267993966367134 -0.024449110622190177
0.004556502659993149 0.025726025209186237 -0.038895218945978166
0.02690171461702859 0.026330444139443555 0.013306649128872234
-0.0018952721518650938 0.025543544841590424 -0.04097552433057096
0.03363129670214039 0.022952987144547354 -0.04161037574304782
0.04503749425269402 0.01872841931892421 0.01428601453009785
-0.01967794291210922 0.024432327005316126 -0.04123043105101681
0.03455188568308933 0.0247065100746433 -0.041523320834289744
0.04764440322726783 0.00459949847132161 -0.001976176411146481
0.047418423058969275 -0.003824380421437121 -0.027729870688278827
0.04752634571063403 0.0008929821269752375 -0.010122764525890265
0.034237269299071005 0.022193138506460767 -0.04130515896787978
0.034553399122708564 0.024521290993358577 -0.04158796707373585
0.035385136183536454 0.0254821271053065 0.001827595708435467
0.0415314475492663 0.022159320311040197 -0.04124238215084039
0.03749527330779596 0.022023822902811938 -0.04138905810264876
0.01720033981590406 0.02650564520101919 -0.0013188430163042345
0.016801385445970964 0.02646978163629067 -0.0009170306936882094
0.029689407966371557 0.026256676946000097 0.0009617518988908598
0.00235566515264695 0.02658318019958846 -0.008134705158925098
0.03442764090364267 0.025301980946364152 -0.04119480146750217
0.046831237659427 0.014515361258804215 -0.002040490403049631
0.047011202108633174 0.014084976402591529 -0.0019179218602747507
0.026248127886983566 0.026240573092352913 0.013654627595381602
0.016975359563115355 0.026868410384303945 -0.021414767062756825
-0.008916910238303847 0.0234671914493965 -0.04186230672615203
0.0474825042534518 0.0032308039370000556 -0.011390036272270337
0.04712238056184449 -0.00011066136670726415 -0.03832466458394779
0.028274682807012518 0.026013287757485563 0.02059952927534273
0.04755337466342775 -0.008240609888268356 -0.020691300922795523
0.044049638915393166 0.019704223208911558 -0.02548424156386891
0.033626711008576775 0.025886588616316514 0.000778877432813821
0.04772714066289231 -0.0065058699804459675 -0.004631345845964042
0.001210857293969866 0.026782665374171517 -0.024278950461458913
0.04747510938029899 0.000663460441512305 -0.017180245673674505
-0.012440485899685931 0.027138840245134153 -0.036361485510612454
0.030885189462575076 0.026314411812263773 -0.005619994678652618
0.0334639912702005 0.025736768692401945 0.007169636076029597
0.04763602370068952 -0.005662397568473507 -0.004920531934729713
0.04749673265004618 -0.005532200405409346 -0.017780048230018122
0.04700309120106317 0.014066352541708928 -0.005076044744922802
-0.024490265087247075 0.026853879732726883 -0.0140521404379758
0.034096079479194824 0.025556259214010717 0.015804439443278324
-0.005706357275781149 0.02675189293049451 -0.018703453812810272
-0.0055935526460548085 0.026746141805445576 -0.00927121242550873
0.047472713266703326 -0.004031152474867031 -0.025333265329315277
0.047596147830314475 0.007247511922689144 -0.002685489843097198
0.04757514900459301 0.009453063786442818 -0.004687525086489161
0.04763583415692831 0.0012789597940599876 -0.008631018317875775
0.02159664239045954 0.02639203931196965 0.003836518842708479
0.02180593882280666 0.026396438028469783 0.0037996207406605326
0.038872397916940096 0.024260828610045207 -0.008924282184369381
0.04521012426413528 0.018414416708753878 0.014151398630474737
0.047657496284790955 -0.002798743022553302 -0.004676876727825358
0.03840822336083825 0.02441386810961921 0.006803664317972318
0.03220526459814665 0.0257643514505492 0.009466361621456025
0.031878038383012265 0.025809759842972728 0.01030379104268019
0.03556312553491697 0.025499917355046656 0.012148961602488618
0.045346145143256585 0.017058549392277494 -0.03959567533302652
0.04744630657120269 0.010550333788506713 -0.009705655722891511
0.047385864392821775 0.01077408957538534 -0.009125928655311146
0.04436914605428902 0.019081934564263398 -0.038457754011903406
0.0475597796692392 0.0037134609401333024 -0.029261929375059816
0.04732483444925131 0.012289645367991306 -0.007694098998411347
0.02172564541803345 0.026293448393859834 0.017739377281273037
0.021105719172951606 0.026212632322415424 0.019124431868599526
0.04752917163080177 0.004923744425615434 -0.015912162276698727
0.047731757875236945 -0.009042580303729023 -0.008353632813311876
0.002289568517893764 0.026593040323852138 -0.006905387508263485
0.03722466498782172 0.02479303994407437 0.016873804389360418
0.047535386389129144 0.004417921011396858 -0.015611757110603301
0.021528083995802496 0.026462401897635594 0.0030295374583856637
0.04755512686683423 -0.0021431017929933144 -0.004931976699230862
0.0288147464820473 0.02593934020397483 0.020262016892224677
0.0367774065849011 0.025130384833271693 0.012683279992174702
0.01664585052677819 0.026355894508006204 0.012807506220928942
0.047818624249152 -0.0034223355721145023 -0.007526524587249199
0.03238075130363467 0.02574278668783548 0.01095037140764299
0.047424040013412994 -0.00017295469740923037 -0.015958065752156015
0.02439983348066584 0.026036847241896584 0.01610335591069865
0.04736543648907034 0.012861383016321557 0.014106862590212314
0.04561773330258203 0.01761202793591668 0.01356000249522583
0.025483349210891196 0.02604811045787101 0.014297174099129789
-0.001547164643907922 0.02662082926468283 -0.00912907155891975
-0.0017149714070748224 0.026582767903882115 -0.008535716332275622
0.042566625581425654 0.020866716157965245 0.009650967075587935
-0.009477213810207632 0.02674684887406937 -0.007542086308832372
-0.013906085611650045 0.026900840342822797 -0.01182902948932694
0.04756766377295725 0.008982558727310547 -0.004790611106102641
0.047327996040257204 0.012862660972309557 0.007541411291706952
0.047585745357979645 0.008934325731002018 -0.012355264342727358
0.0013689010745225245 0.02651950578471053 -0.0038650568682918975
0.047482951177382646 0.0019358316816356648 -0.005713052540039729
0.035783543096408604 0.025555488077220842 -0.005735298589533668
0.03591435172874337 0.025607518691335207 -0.004703598757847591
-0.0045846635268622935 0.02663280975428889 -0.00964878194131947
0.0471452107840742 0.013087278351130471 -0.012230259965201122
0.04766239949932495 0.008597515811579946 -0.023094421846406997
-0.005594165083163146 0.026963421736653333 -0.030285135779103294
-0.005211990207233061 0.02692712908489263 -0.02996055489305154
0.047435576433266215 -0.004349105664757507 -0.03050516039719211
0.04722377960543908 -0.006110639509448473 -0.037212104521645875
0.047430694327161085 -0.003957191553928515 -0.02962163609064666
0.030030315425557747 0.026146719209439128 0.0061171320962257305
0.026503030004378758 0.02636947785632033 0.0019768878836183834
0.026243840831638974 0.026363385464967415 0.001835041770200647
-0.01489071341394286 0.027086484444923262 -0.03363419504624987
0.047536125350477756 0.00828257679323716 -0.010098340544335324
0.04726503003474038 0.012807038977253236 -0.0014598834032498015
0.04738988545400584 -0.0004082880806526427 -0.03242367536579963
-0.013345238601743248 0.026936834297113355 -0.009111678554504067
0.037200806186355476 0.025111773398213997 0.0020749033465165987
0.012066015180555252 0.026818455286651346 -0.018385259957927655
0.012303881581717578 0.026816531624235047 -0.018449336552054565
0.0474268564097818 0.0112648583629602 -0.006142482920012309
-0.01472761599536655 0.025741255919086003 -0.03905683774207357
0.02247300167313967 0.026214443999295428 0.02024527227169163
0.04444855782989153 0.019018713323476932 -0.01605806698374683
-0.014984489889137389 0.0269566561543114 -0.029584873027750064
0.03977103795790597 0.023770047124135964 -0.01253451099915183
0.030522992290022595 0.025993021392500305 0.010327164204415486
0.031217215164635086 0.025921705160530807 0.010156733651914707
0.047761354108579346 -0.0056002141641528815 -0.00815822483052048
0.04761098055916162 0.003390712084706093 0.0014891482101028275
0.04747582901684444 -0.004895558129375829 -0.027753842040092562
0.047585966596795044 -0.008110467358608806 -0.02091928110305167
0.04777561859391511 -0.005041702676348804 -0.008909197332816978
-0.014443665214344556 0.02694706464139738 -0.02839699936843451
0.047514342518391525 -0.006192919736450664 -0.018520382032568675
0.0476179790125639 0.0006162759479474099 0.0004210231572512629
0.0448954266679602 0.01920317746982085 0.01510607498379624
-0.004546280201397461 0.02677133563524218 -0.01822864045048988
-0.004672395626114049 0.02676333911875297 -0.018385970608418442
0.04741071935956779 -0.0031825888065567798 -0.03180370532683188
-0.013734119785745008 0.02701981149132859 -0.013943201908317646
-0.014059992758916517 0.027043950487033706 -0.014339285311987561
0.03586506644614254 0.025321654942345347 0.014273281938517965
-0.0010017585773066722 0.02680685234083831 -0.023250168247107888
-0.00035118183900561997 0.026806906786536435 -0.026607791279937287
0.045193127695826084 0.016187070553021526 -0.023852180319873094
0.04491467794612301 0.01816634229484881 0.006826086786871023
0.017130680041774968 0.02381992161330064 -0.04183881755813982
-0.026222113073589553 0.02685418936332202 -0.015779379900826847
0.04743215210236326 0.0005147828445301761 -0.02445469609543266
0.0014276643632427284 0.02672797947874562 -0.015053750972293152
-0.019903689065255872 0.027023660154914444 -0.018127237409855203
-0.020145638406080985 0.02701504291295044 -0.01806012522789371
0.02274771714776847 0.023604424456754453 -0.04183603144006543
0.043116494302505054 0.02042238930231794 0.008491437366333397
-0.00845902212487856 0.02685603587317902 0.003506494953312773
-0.007929301248665855 0.026859939441561877 0.0022116533603360406
0.04679950985951992 0.015255739050820666 -6.447486077656657e-05
-0.017781643756544882 0.02702881812528931 -0.00874143515213021
-0.016782626761308407 0.02705965923260854 -0.008551113101917255
-0.009427179549594716 0.02686422637322267 0.002059698471341284
-0.016118706126645357 0.026948711012479365 -0.008295562614180732
-0.005540869585232265 0.026795441358412633 -0.02292909104682531
-0.004980673175588981 0.026779714189980267 -0.022978889311295617
-0.008823573226126048 0.02686857192931328 0.001135393526274358
0.04753718050184655 0.0034939144469696734 -0.01771982543511668
-0.009236625657237041 0.0268825713586711 0.0008656775555515063
-0.01630661967955415 0.0269673764427451 -0.0075888223631266315
-0.016596663797616387 0.027015155287633933 -0.007596397934010227
-0.013503226718617886 0.02692657946879096 -0.008453792564300245
0.024982448121684358 0.027061275553087755 -0.03275924107615988
0.019921177228587765 0.027009885820248918 -0.030765809873305457
0.030837827254001967 0.026406889230080985 -0.011414140932621443
-0.009776725372965873 0.026850885131476734 -0.0020920726552488816
-0.008814332636425335 0.026840668617492965 -0.0016406876382942862
-0.01594752764399671 0.0269248586586704 -0.008116226251972905
0.023435266808416642 0.026921022943876608 -0.02228640314487592
-0.014947050672468628 0.026916996503993495 -0.007770311410161799
0.046698747098969415 0.01539407366472927 -0.001340484226139862
0.008266693602317954 0.026450762010401745 -0.004038308626161887
0.008537468292255703 0.026508750814216317 -0.003337184988461133
-0.011877273655907242 0.026942323217712366 -0.0024466976444075944
-0.018548250375225964 0.027011388925821243 0.00013901471158182408
0.047413487557261914 -0.0020972649979541054 -0.016312059511737857
0.001070077550500891 0.026811695920641112 -0.0251505885145007
0.03300664194848613 0.02572080332250778 0.01358127758038395
0.04669583655267713 0.014827830455406065 -0.003790107327241223
-0.01392509271871841 0.026968527881983718 0.002415554810232679
-0.012971928763365346 0.02692817996054997 0.002635485189325696
0.03280525527933071 0.026008206955678057 -0.0017250074896189957
-0.018544656438004528 0.027060603882097675 -0.005108322889589909
-0.018594171612230957 0.02705997713776384 -0.005624267926312561
-0.015217025628981043 0.026954932355587345 -0.008627380751666322
0.04750315223409332 -0.004858495439821597 -0.027022240370095076
-0.009214383276388212 0.026884418616112137 0.0003046696671213662
-0.010140836929790417 0.02688579034989875 -7.30855330067735e-05
-0.010321598057705947 0.026915782411093006 0.0006167695312519581
-0.010763788955887147 0.026906976415818594 0.00019344287552045452
0.04473322928776915 0.01903965594953315 0.011365074848477036
-0.015879902638804268 0.026986953146626098 -0.005958255179293561
-0.017451395761905828 0.02702368381459496 -0.00960082371756863
-0.01084410614032614 0.026920007087658734 0.0016873773444258016
-0.010369432765679077 0.02689642820232472 0.0023062852256615874
-0.011008976286383495 0.026928243923817964 0.001282567605932379
-0.01855916771174661 0.027056808483471147 -0.005006759690771383
-0.019468156325486152 0.027015421170673855 -0.002164301224586454
-0.0012686998991190883 0.026820673008626103 -0.026413940138603126
0.04691368745546588 0.014277381387565445 -0.011082145869779502
-0.012618515823846837 0.026877355653744293 -0.006920532897688538
-0.02139958378356454 0.027095517272961653 -0.03442264268396811
-0.01699207979261409 0.027017000851534356 -0.004386014250268992
-0.010495274303485656 0.02687707292591529 -0.0011034147771459403
0.04778118507304442 -0.004638697670539092 -0.008606987706750047
0.03147902541683887 0.026155748602880877 -0.001163388938684024
-0.016246928053510086 0.0269737584006484 0.001889812918152867
-0.016621072531675357 0.026992596121122852 0.0017215850696191755
-0.017045556325395263 0.027026046001562505 -0.009588565658889723
-0.010423155334139414 0.02690925895137016 0.0013244235449762019
-0.01609660828471792 0.02693910226551863 -0.005453403215056644
-0.018171022945828272 0.027001949607531522 -0.00033486887887579906
-0.015519003978124276 0.026987996049778522 -0.003283898708624573
0.04743014228694722 -0.005662028306317344 -0.025393029806014406
-0.017730503757661435 0.02706487989910937 -0.008151486752759314
-0.01735306850164098 0.027035969854518026 -0.007504578726234513
-0.01799324691287758 0.0270238635053316 -0.003813053374080493
0.047650163425393556 0.007825042225517491 -0.02231579902866935
-0.012394713599124842 0.026939800252505915 0.0018649855820511102
-0.012339296998623947 0.026945659970619956 0.0016674191502176374
-0.012685637454368574 0.026934261555317005 0.002231158570044128
0.047603114385278936 0.009450234726402617 -0.012301942666715068
-0.010325244388160954 0.026840313557361564 -0.00341488211837456
0.014176075375421888 0.026213458957957323 0.009826598971739936
-0.004997784013017986 0.026829069066735912 -0.025948790066355143
-0.004992518377990686 0.026834728952365737 -0.026141819436184405
-0.0076018592420731956 0.026841628922444138 0.0027811356752527193
-0.0067168589736660775 0.026857364475584046 -0.027290953138179936
0.047508434654814954 -0.00046742109286025284 -0.034493344679844676
-0.011905143711187623 0.026927874175046728 -6.615390485778794e-05
-0.01229782746273756 0.02695830341704398 0.00023741061091279357
-0.01712344605258423 0.02698968855859227 0.0012410762171645474
-0.017749783462053442 0.027017343030329634 -0.0040536596099142366
-0.0171406835402665 0.02701839663000216 -0.004652155840621892
-0.0183680961961466 0.027040553189908452 -0.00893865556810159
-0.015209725220594035 0.026941570317605305 -0.007258761448030595
-0.015660919985619543 0.026954325405848478 -0.007281666327236553
-0.014789359553339682 0.026344120732196802 -0.036646809543839885
-0.017853534666368485 0.027036857831746006 -0.0023148513511152815
0.0474155321893254 -0.00044080251094368505 -0.026752858406042676
-0.014784532476162529 0.026951426612306567 0.00256408372346011
-0.01665957246860622 0.026993028594458512 0.000558249896037261
-0.01725293290638275 0.02699138893608841 0.0006626273009751951
-0.013190616546707251 0.026980582222091775 0.001206898159504241
-0.011985983882702694 0.02695867181328729 0.0006651108447420841
-0.013432108327745716 0.02698693312847232 0.0005664713597090826
0.04745708519184061 -0.004691736697627299 -0.025664542335414806
-0.012913864808757926 0.02694679943359568 -0.0014700664153838858
-0.013436386701078083 0.02696959188424807 -0.0006950811438346837
-0.0148041277743477 0.026974515673695 -0.0027947577038636333
-0.015409568920759438 0.026984792530778394 -0.002699641411866169
-0.016933654198819856 0.027033541759511958 -0.0034990951510100263
-0.012864849638180522 0.026879093399141348 -0.0065255368778394055
-0.012481270049434844 0.026886471620244646 -0.005547677174108516
-0.01268734392351923 0.026907481664209344 -0.005081595826179355
-0.013025306068188493 0.026913723618268666 -0.005187515718722202
-0.01695869735101659 0.027025338990108984 -0.005311905980646578
-0.018999487688330187 0.027039295580050526 -0.006122951198192176
-0.018213616123503196 0.02701197663120346 -0.004065775103653363
-0.012833210468658235 0.026872490088454333 -0.007467702818603144
-0.012589981654051431 0.02694853707166676 -0.0037262194822781313
-0.012639353014049906 0.026953938685265473 -0.003607701095380258
-0.012067110384669165 0.026904537632180862 -0.0045637190918911465
0.03748813966092 0.024945501881282837 0.005828954335583928
0.03180125155714156 0.025869617525180296 0.018649368893124563
0.012578439100812064 0.026907652044292026 -0.03662859988400622
-0.016044765378436625 0.02700952207115015 -0.0013105704828087928
0.0378530831359806 0.024712310069374875 -0.00460471605602478
0.047554319826139196 -0.0038748633624184304 -0.013546797801860359
-0.013406753013132612 0.026846687291348113 -0.021157590438834507
-0.01271047391690738 0.026918620400168233 -0.021543555090424535
-0.013312103951894477 0.02687751438437272 -0.006609744027881554
-0.017631507060084744 0.026985195902235547 -0.0003044135245420537
-0.013999299101994028 0.02699324332640725 0.0015385552742330508
-0.015758925528427885 0.02698560518438785 0.0007993450475576532
-0.009814623106004774 0.02688890216502153 0.002949918100893931
0.04501835053451522 0.018108946807285104 -0.040159584557371425
-0.013583539424935561 0.02698061561407577 -4.412358288726227e-06
-0.014370597318094768 0.026969554004425342 0.0006154497690923775
-0.014467402565974362 0.026966212332789584 -0.005430456750787224
-0.02533654761783989 0.026857276088967402 -0.013624850522143789
0.04728795324206711 -0.00403166150193153 -0.022158799327684282
-0.023715520266514373 0.02330097170386851 -0.04142056408771386
0.04755664885868798 0.010346339263387537 0.001563604692595818
-0.011842449057780619 0.02691242288386907 -0.0009524368581063169
0.047479906542493996 -0.006345457559402255 -0.023578030717784637
-0.01213983865343115 0.026888465745386888 -0.007083516495231276
-0.017628735629405232 0.027021076638590713 -0.0013420890752344637
0.004884264704611365 0.026105596338573765 -0.03799704974252537
0.03480432438621363 0.02553239747638682 0.0034016135388460164
-0.01714948001264328 0.02703658894700236 -0.002869281415572823
-0.01726920736997618 0.0270429610582681 -0.0029719353441236504
-0.015895071885917867 0.01941490920722246 -0.040048001984908564
-0.015331684877754274 0.026973354387645546 0.00021682200092087777
-0.01061604847797338 0.026926272093856743 0.0007575948672117829
-0.01783446269704642 0.026984269454007795 0.0012062053843159104
-0.023874560415604484 0.025667764072293438 -0.03850391837766541
-0.01833019772761217 0.02704691732936358 -0.0070477389994949725
-0.018621285725390707 0.02704712107250848 -0.006744237340168194
-0.01756008481570879 0.027021983715761935 -0.006744799474832967
-0.01114775604273955 0.026875419704801444 -0.0029288666287555845
-0.0142571606016947 0.02690094815764262 -0.006788484253461595
-0.013895673116552409 0.026924490657171653 -0.0058277170687674115
-0.014128841455923205 0.026959943023329682 -0.000589551292018735
-0.019492427151832876 0.02702967951133693 -0.002459225729234868
-0.017372818778262508 0.02698985445995833 0.001564796491847072
-0.017632849038616723 0.026987287088028666 0.0015229307883166282
-0.011536217017019111 0.02690992535175918 -0.004021636066385523
-0.017118465507170874 0.02703846553233156 -0.005439439676361286
-0.012708352461993309 0.02694714131776918 -0.0005360866073068478
-0.012924108433927658 0.026955211126211458 -0.0008910893037969977
-0.010747574521846716 0.02686174027544723 -0.002887193332700379
-0.00893551078310634 0.02684377504234696 0.003538972927718985
-0.013104298076099093 0.026963253200180344 -0.0030932140379511053
-0.012848800565245906 0.02695358164517897 -0.0028694652336241524
-0.014341976272646707 0.027146509112897853 -0.035194100174505645
0.04719314118547911 0.013549904617209804 0.001001970492766214
-0.01845708217042123 0.027023889419083593 -0.0014101763187615254
-0.014691850630546701 0.026953868468085104 -0.0006775446163035755
-0.014648645398743878 0.026953092767729604 -0.000246950551187446
0.04332869550254869 0.020984878651588372 0.015562123898962117
-0.01658383868288977 0.027010590781147523 -0.0006125175121006671
-0.012372177105375812 0.026908954561805365 -0.015444498804764992
0.02593477944286469 0.026304889504496748 0.00567626485378638
0.03679182015040195 0.02523425559668575 -0.015715614682113396
-0.018271659358638465 0.026993100345145543 0.00015923591574934224
-0.00939434824665206 0.026851098861158208 -0.0008420808530353005
-0.00930088605829887 0.02685068238230053 -0.0008721928772158104
-0.012132137444996865 0.026923113812103328 -0.0013280301050400004
-0.010844695055834746 0.026902113595532164 -0.0006977720810200465
-0.011040346268783023 0.026917654671335257 -0.0003197657934296967
-0.0231933915032918 0.026919537573260134 -0.02696176435483495
0.04645950646528456 0.015386934848363249 -0.014108930289252905
-0.016281030606759356 0.027019587270870626 -0.0008884862532587782
0.04760653911427539 0.00758887357108121 -0.013278379369921232
-0.01516423847595368 0.026926222644954357 -0.004439393179180258
-0.017766731508811136 0.02705396739006194 -0.004974042308157686
0.033634484754484 0.02572295834470005 0.0075053624747795766
0.019539766681644102 0.026408875122946845 0.002396604981900301
-0.014554458485594883 0.026986570421084304 -0.0037979393246020763
-0.01414946894840454 0.026983661440983887 -0.0037842059565939374
-0.024658711591455554 0.025254522133912438 -0.03759800242276004
-0.01784077352866479 0.026979566481533393 0.000563439224819082
-0.02458886739270758 0.025867699147966095 -0.03874328425771966
-0.024752541663777175 0.02550900889064808 -0.03796611691729284
-0.015920227638972446 0.026980696777733352 -0.00018291789296266326
-0.013803888699111156 0.026937222861900117 -0.005300051790964078
-0.014206751748742382 0.026974332868057692 -0.004776114784359626
-0.00910552944605083 0.026889969031280662 0.002726191577090085
-0.017707689493326195 0.02706174429911673 -0.005911980697501426
-0.017552040358275397 0.02702275721437066 -0.006604075206663977
-0.01476062956957375 0.026952828433827625 -0.0053227652704871025
0.04749812678726083 -0.0052376118090436095 -0.016898733663011527
-0.008667362572593248 0.026782273322098385 -0.01373931441532024
0.04737459785222136 -0.0025560063406204884 -0.025563769794187202
-0.011369511852901209 0.026944136303354932 0.0011765876623983816
-0.011701284790157388 0.02693585729014779 0.0017814898844889051
-0.011319734836101648 0.02693024950022233 0.0031430941366923032
-0.011846489181766309 0.026875768450480227 -0.006774758302288933
-0.011853000623580391 0.02687679645856656 -0.00679833556472865
0.04756954399167116 0.0056961985882391835 -0.015006663512545124
-0.02283623675821697 0.025281529470653534 -0.03814222545054654
-0.02327699460236832 0.025589862170048893 -0.038760467790270016
-0.01720337626297891 0.027012450083541063 -0.0018077422175489092
-0.022340069402913457 0.026964155641761862 -0.02848453804055374
-0.023972070957760883 0.02687765321670055 -0.014054801159383868
0.007712933848147179 0.02646836485373256 -0.003027982103866434
0.047536115533566556 -0.006906166182339968 -0.019874886801125306
0.04750767603449751 -0.007400239187617823 -0.020781342511086313
-0.018318086652670297 0.027035160306097022 -0.0023213830335498233
0.003590063294164137 0.02678360272032156 -0.01683684991191551
0.047558604586650524 0.004517660033129927 -0.02037301994904974
-0.01576722661768895 0.0269858976183378 -0.002022888169607117
-0.015411545085975963 0.026979091860545867 -0.0010826234508840892
0.04752332932026768 0.003986979229592828 -0.017713383064892625
0.023876492900160678 0.02607055610544735 0.0165374680692086
0.04750391231729397 0.0037025337745901143 -0.02673709298554519
-0.01916123684688568 0.02703144746682377 -0.0010919021052252066
-0.018167964496763174 0.027023500031399125 -0.001233137477130554
-0.007206149632806839 0.02674592126486664 -0.019723550001440066
-0.01397232239677964 0.026980790980503024 -0.0034751982195674372
-0.01467015258186972 0.026984675177335226 -0.003341557218547598
-0.010559988491016489 0.026875280412415183 -0.027431646115269166
-0.010745426098642086 0.02690260621647656 -0.02771297409808141
-0.015480220218535026 0.027100093749946916 -0.03437216059778367
0.028571479149875127 0.026524930245315576 -0.00696972575009675
-0.000328573571880652 0.02215244534823324 -0.04113749240324183
-0.01030364243151163 0.026884364649314596 -0.0020792830221050837
-0.010171746011387296 0.02685640921324863 -0.0013288705031470004
-0.015601979054372887 0.026943591031698192 -0.004417797353089102
-0.012979672207678207 0.026938502745968807 -0.001832311748567009
-0.013554594261653995 0.026951595448372702 -0.0023158665525774124
-0.005934278787538643 0.026825372770940173 -0.024327922741566643
-0.01485973307645733 0.026913435948184787 -0.00766419380841512
-0.014681010591769652 0.026916646434794897 -0.0071920159247100875
-0.006032187518861065 0.02671724634459191 -0.014479035826931481
-0.00647978245026772 0.025069049575480645 -0.03655677274125212
-0.015419276257540176 0.02697756228001614 0.0013525019570113951
-0.01565673699756033 0.02694384055306661 0.00216723942665952
0.02193800568638698 0.027081991597809656 -0.034174648627832795
-0.011517809895838492 0.02689997928508398 -0.003604506389467367
0.04737338323859647 -0.001813260297666609 -0.02980284329188284
-0.007265104482683247 0.026804573959403416 -0.013713192216126702
0.03348942192202804 0.02597229740589416 -0.010043286143738867
0.047365917864474555 -0.0014330904783046747 -0.03038042860526287
0.04744555852343496 -0.005863695383060465 -0.023340552946569035
0.04718222268639559 0.013684010356549522 0.0005299110086715649
0.04745544642724097 -0.006415367191008583 -0.02282090225940418
0.0020341670136843734 0.025734552485402393 -0.0401431069846956
0.04751684164516591 -0.0008292275703070603 -0.032839919415493385
0.03065728117308878 0.02619292215388124 0.001956739631686587
0.047279445964461944 -0.0009916846550266007 -0.03177748670022973
0.04660420391765954 0.01547148728035683 0.010556903504566749
-0.022366901213646338 0.025419866704234177 -0.03861363109912631
0.047490902538640176 -0.00028483862502301624 -0.03286545461781421
0.04748195955924919 0.010627581797041312 -0.01590952171868301
0.04760999751649511 -0.0006847370655490671 -0.03308586941795713
0.047339211827420076 -0.0001909787242336506 -0.03180663447134169
0.0024617302249396837 0.026501261120759227 -0.004328599493937574
0.032878735360290914 0.02598657674484322 -0.005611551584688099
0.047423386618001453 0.001066912697926757 -0.03285304724842728
-0.002845746310081644 0.025640199537099312 -0.03721125887430388
0.04159146601935752 0.021759118915997085 0.0025281212976458215
0.04749315794696618 0.00044846964548298277 -0.03308860066772029
0.04637579055388392 0.009248065414893985 -0.04078437147106921
-0.006039218476016251 0.026731815983904263 -0.009102312358903505
0.017262477413244652 0.026117744689850224 0.0171653837787411
0.017731314903740032 0.026073363829116285 0.01758570742116193
0.008556367313753328 0.0265655366337033 -0.005565614460162919
0.007681728693952973 0.02647118415643587 -0.004151693150550656
-0.02165995883493363 0.025615888895564785 -0.039608547620601245
0.025358137348407046 0.02605201165335746 0.014311222325295105
0.03206713542813826 0.026621836921665074 -0.0353760668902809
-0.004521227497458618 0.02602376095051007 -0.03606762475724212
0.03857162074005013 0.024405459478594304 -0.013547034568246949
0.04769034210523129 0.003534044391397416 -0.00707334389939841
0.03155697715569294 0.025907086913802932 0.012013082251741762
0.0474984417752035 0.004278052357680041 -0.016208303575937985
-0.007591840629356817 0.02683964733469832 -0.02522432074110985
-0.021938944254767532 0.025604546425218918 -0.03950321761184043
0.030176202089518316 0.02602249912745898 0.010314102488160677
0.030248947225264562 0.026122980750937913 0.011519221241138411
0.020513429104877363 0.02685254526199117 -0.020173832506110472
-0.004099856692555921 0.026703487610294164 -0.013311930115906777
0.04745429469191433 -0.0010980188662093103 -0.01824041132844907
0.03997058060565905 0.023714212546738018 -0.009198256859826882
0.0024347148232919504 0.026687438420780762 -0.019057186512756456
0.0021435316311763054 0.026728082288908404 -0.019998182344977113
-0.024975148556274834 0.026997162481306076 -0.035611228662566885
0.04717234470770565 0.013556648237480009 0.012786866556127412
0.03023473735702884 0.026156128073946707 0.0047820861827511845
0.025319468391529692 0.026146448376251845 0.015739423192957566
0.030279465242159135 0.02638176987246899 -0.004773969756761089
0.030084541720389574 0.026378178998677716 -0.004336322521071361
0.018380069867410496 0.02681137079903133 -0.019346921074890555
