-0.032250333048183595 -0.006158281929322987 -0.031437983334643704
-0.03171174083019989 -0.008242421105158253 -0.029021286024128835
-0.03213222439364333 -0.0072550955744506325 -0.039126519798250464
-0.02999115225961574 -0.01305734509191264 -0.04511145179323159
-0.033073929541322655 -0.0019240761175851758 -0.03890097480480699
-0.02970315980928915 -0.012619886105225436 -0.04892026130653179
-0.02875377281469846 -0.01238093767672795 -0.04979559687309436
-0.03279043583663569 -0.0038893373211599373 -0.0386639618119036
-0.03208753855873457 -0.007151677338002603 -0.037532606377000635
-0.032967489413878066 -0.002649377969468579 -0.045117443654681816
-0.02972264812937313 -0.012114749525940709 -0.047332497912494956
-0.030637642652692282 -0.002908413982051031 -0.0492680447370582
-0.03177571832146921 -0.008408269007969984 -0.0367253812664351
-0.03183094932750695 -0.008226365003580646 -0.03706542913807523
-0.03133389426924952 -0.009860125309316474 -0.0397460073155749
-0.0303959674211623 -0.012312953228383567 -0.03672712054888551
-0.03058115824006759 -0.011852058885731705 -0.037630546635543466
-0.03277081125512395 -0.003079252033699896 -0.045789787306107166
-0.02529417382695238 -0.0019568428957801526 -0.04641301017110695
-0.03276620195901307 -0.00367511290900113 -0.036908671115628185
-0.032489490863408396 -0.005688174971404073 -0.03628981657060621
-0.03168919508733698 -0.008777929697791906 -0.04079352617410609
-0.031486206848810344 -0.009440500294151472 -0.03959438605715177
-0.024887157791377595 -0.002747025960653322 -0.04653289307276696
-0.031483950944001755 -0.009661406301355676 -0.04515573922697499
-0.03129979077768899 -0.010105555861420909 -0.041224739089386946
-0.03213394099829852 -0.007036697232034044 -0.04379385483704912
-0.031675984887929956 -0.008314906811232224 -0.030643980539342235
-0.030182702430499954 -0.012870730388133902 -0.036791786381647776
-0.031145531836857813 -0.010396619494352295 -0.040095559981652165
-0.031463337068123994 -0.009402817917977318 -0.03301785193077493
-0.029316889008794377 -0.003305245678244061 -0.04804918235787035
-0.03185296582783781 -0.007539953939336381 -0.04418139121894352
-0.032100218857044234 -0.0069602704387052815 -0.03450828464220079
-0.027066186220645293 -0.00501843962956446 -0.04684590593436212
-0.0327512188807121 -0.0041328475185506705 -0.03618860078012065
-0.03277366436068889 -0.0027023496036538306 -0.03462665664097925
-0.03281611945543129 -0.0032935620333188072 -0.03332138579866144
-0.032811095576817835 -0.003736017937201842 -0.045441983609116006
-0.03143344846917982 -0.007576756542860049 -0.046512736079912936
-0.03282485578190312 -0.00272205905985209 -0.035762692919216715
-0.031921202836950574 -0.007899619202273132 -0.03427058016741285
-0.03252448074138786 -0.005524263792307877 -0.035527568378302746
-0.031216699199374965 -0.010248948862874974 -0.03722338749693235
-0.03268592199875968 -0.004542814936056978 -0.03573096920903282
-0.0314975432496985 -0.009416580033347359 -0.039273518719679164
-0.03081264425655637 -0.006802186461638549 -0.04969176654072301
-0.032001812913923115 -0.006607507216205872 -0.048553673524657115
-0.032874813772705305 -0.0029662255964289785 -0.03312823078292534
-0.0316848017212893 -0.008137655487207164 -0.029993843862693464
-0.03275786746388196 -0.0035560055282649354 -0.03550678321374489
-0.03211603143769318 -0.006837318089504225 -0.04557351369066044
-0.0299569580216428 -0.013463641337781634 -0.0382495790163916
-0.03026136584898554 -0.012615751524875651 -0.03867667063795283
-0.030313759104335074 -0.00968560959171277 -0.04960182600183006
-0.031952749427171606 -0.007436122851532782 -0.03521124938837458
-0.031159843868164068 -0.010384048841244501 -0.03808559873130106
-0.031459823385785735 -0.009474293657562508 -0.03811156221331227
-0.029879157378080758 -0.009799105463990956 -0.049831844137960504
-0.03241235459699033 -0.0055107699487165485 -0.03358141367815312
-0.032136327857555796 -0.006684833700215037 -0.03290784055776528
-0.03294639358157668 -0.0010520376556395995 -0.04428531661209528
-0.032488037998339485 -0.005186080199080678 -0.04023899921031763
-0.03288811298387266 -0.0037912265901947784 -0.04108713109991357
-0.03168619886369466 -0.008751786218302613 -0.03981492731041746
-0.03254721556671758 -0.004674922224862732 -0.030061239709010826
-0.032250244118169895 -0.006560774811231795 -0.03714446365399485
-0.030732226554468167 -0.011455284101952432 -0.03777201018957632
-0.030667351977074382 -0.011929161481105403 -0.0414237389969788
-0.0330397688762301 -0.0030680347407205117 -0.04085258797390442
-0.03278047650215366 -0.0037371654652845663 -0.03240462219864669
-0.03285421970072758 -0.0032660491412827915 -0.03245888865296739
-0.032954563206400535 -0.0025697899039781487 -0.03756402218413645
-0.03192195859473722 -0.007486936156032541 -0.03182413600913894
-0.03117624269263566 -0.00859343024804975 -0.04924878568875336
-0.030614374977790675 -0.011729167202800378 -0.03931168083877359
-0.030061642687214705 -0.011645290861963972 -0.048944883072602266
-0.03289761012974522 -0.002966600663868191 -0.031216451283349007
-0.027977813233750044 -0.005075384351679013 -0.04756436865187724
-0.03174752823439965 -0.008236951895775436 -0.03154194268319966
-0.03303422670654145 -0.002898794458431054 -0.039579473939668576
-0.031484602689520455 -0.009416916565175645 -0.03729518794052282
-0.031210308743958904 -0.010321383719767775 -0.04050335181022728
-0.03297889254490126 -0.001792063485604217 -0.045608027064538974
-0.030454085559154565 -0.012172393889221853 -0.042462125353374375
-0.0320487719811881 -0.007126156182791079 -0.03464650775448276
-0.03225505581174894 -0.006257163442066461 -0.03113098186297104
-0.03054515330519078 -0.011941160204312464 -0.03710614877379689
-0.030136669512647596 -0.012973400819798812 -0.037444289887246296
-0.03163451706451173 -0.00894092527374626 -0.03871430455282447
-0.030853777523113378 -0.011427299778227288 -0.04151402177393947
-0.03249081153720212 -0.005337931599116335 -0.031106554759408656
-0.032774339152070495 -0.0034974951515259933 -0.0347360121286131
-0.03243768034786524 -0.005072421306019808 -0.04236414719369623
-0.031987858796942895 -0.00719618861467866 -0.03056723387238713
-0.03116568165490933 -0.010555697168751542 -0.04230268489046273
-0.03152472049610264 -0.00925249708313863 -0.03749147044440572
-0.030553003563533625 -0.011933137323323111 -0.037632578967064484
-0.03225287541963954 -0.00626847711899775 -0.030749665836553145
-0.03169140177214089 -0.00847418392905166 -0.03182277942495965
-0.03087920653931309 -0.01119354901756015 -0.03721106961413151
-0.03153503983486204 -0.006951368109972968 -0.046710563989800225
-0.030719633855199293 -0.011540608861882067 -0.03723004105407088
-0.025482133523206246 -0.0028525219650859337 -0.0464259464773801
-0.030219048572552056 -0.011281838921179005 -0.04727456639652909
-0.03216208358550287 -0.006495875551679176 -0.030148168119938215
-0.03317257839571831 -0.0017682418914328733 -0.043355392370952234
-0.03244803818783548 -0.004990384497931974 -0.042472512355400165
-0.03021453468121712 -0.011120068567387002 -0.0477449007345976
-0.031766018992349536 -0.008123690789897014 -0.028460227225943262
-0.02463652111143784 -0.0029343618839348146 -0.04663434484047059
-0.031690239165337704 -0.008071758886839059 -0.030550416808504437
-0.03132923301051658 -0.007198552425969635 -0.04806961755240818
-0.03280884752573231 -0.003872277893880724 -0.03894885843279262
-0.025328528536696645 -0.006475182225496439 -0.046707555447398456
-0.031539972423541875 -0.009275163084281102 -0.03974309784222876
-0.032682438181209625 -0.004249696195350302 -0.04521967011043557
-0.031771870812887966 -0.008450349172479433 -0.037957825448625804
-0.029429332087028148 -0.012855726724026587 -0.0475364727888789
-0.03122017311177633 -0.01019508859303952 -0.031990018392391906
-0.03233208801117997 -0.0020212866722948736 -0.04800859987698787
-0.030614259689913863 -0.011120047787132409 -0.04622940110852312
-0.032777896287473914 -0.0017687915496257456 -0.04613526125603436
-0.0245007538047685 -0.0038822638957911517 -0.046735695286907304
-0.03128649628812176 -0.010110850869159617 -0.041045411963191024
-0.03108562443558379 -0.007948863231851414 -0.04740989595616175
-0.02942499166669283 -0.01433186299396813 -0.048462495535285165
-0.029152241367244792 -0.002760734333035737 -0.04764150189965686
-0.030536255769611224 -0.012308631803282387 -0.04177139706000459
-0.027991617720165514 -0.0052831195198786655 -0.04881187167172406
-0.032143335672105436 -0.006783280197616681 -0.03164009190831177
-0.027485228450054307 -0.0054968003459705825 -0.048163337145361626
-0.03151282219763628 -0.00926407112693417 -0.0379944640655104
-0.03204399044945526 -0.007607341151084862 -0.04005679177990227
-0.03249194055959365 -0.004875921417732674 -0.04392198861539379
-0.0313097027175277 -0.009979240539328044 -0.04011041483138335
-0.03099244987772064 -0.01086327530613804 -0.03718284957014584
-0.03128665451913936 -0.009732146612898916 -0.03552065364174238
-0.024433072001940562 -0.006942655218923897 -0.04675625868100425
-0.03235995349832064 -0.0062309740154262916 -0.03601196062720591
-0.031149919404742186 -0.008807336814325738 -0.048209065072787154
-0.03103257559189125 -0.010806839022236512 -0.040813890696025895
-0.031082550021322986 -0.002253354729092339 -0.04948981181224025
-0.031474880646108684 -0.009077796558293426 -0.035295958630742585
-0.030670645040660114 -0.011648803975196303 -0.03823847945858232
-0.030600422193244093 -0.010361959888172258 -0.048758384280502526
-0.028233945123327518 -0.004964858851607809 -0.047962054392274994
-0.03162335763425208 -0.008934280235954455 -0.036629402809672126
-0.031308415807287625 -0.008619169141729242 -0.046206693181711084
-0.03168728861481729 -0.006470939202950014 -0.04896776767666168
-0.03093311227084606 -0.010979438439100032 -0.03344621936406148
-0.030663059911812937 -0.010143222151425043 -0.04892076558868347
-0.025213570102099105 -0.0061912435997291135 -0.04661118114563116
-0.030228038778410272 -0.012663593127184796 -0.04504018256878509
-0.03184129981635137 -0.0057557378852302644 -0.04646632330570121
-0.031790165185879564 -0.008384837236473066 -0.03837431728183206
-0.026081072649704756 -0.005060288467511152 -0.04668098359020893
-0.03138846049235112 -0.009702426265716168 -0.04084910866213372
-0.03198037487050239 -0.007104551857776057 -0.04448774575272849
-0.02836800162561355 -0.011553259322767058 -0.0495521056088469
-0.027557644417621062 -0.005487865161450207 -0.048649680901631756
-0.032710058961546565 -0.004202471236131678 -0.037482525923113075
-0.03280245391188291 -0.0033231584991772725 -0.03590842423753383
-0.033002840968556144 -0.0020413562613462014 -0.030898046571020625
-0.031221463596654588 -0.007841668937079277 -0.048107278826486556
-0.029794109647811064 -0.008499410848640936 -0.04966124964667643
-0.030417080398083565 -0.012120018384372962 -0.04570096285204362
-0.030030608389609102 -0.013267017336835114 -0.03811590765448995
-0.032383724348885215 -0.006896260439825105 -0.04042933223219819
-0.03224377207117483 -0.006240984162405467 -0.03360275728928831
-0.032811024348426525 -0.004400675923715299 -0.040562858056597255
-0.03103655400324573 -0.006137570317230692 -0.04956797035782052
-0.028818140373780735 -0.013077343427995828 -0.04972032271901209
-0.031858895188183016 -0.004754936286179069 -0.04887321918980907
-0.03050867689818445 -0.012034909180815435 -0.03613706158019585
-0.03029670081575233 -0.012548063778496429 -0.04256211618011922
-0.032788119820635495 -0.0033378438425765928 -0.044171914205533215
-0.030240899190596283 -0.003663827729775213 -0.04899825459903369
-0.03055851028011977 -0.007462196634578782 -0.049679660348784294
-0.026823681093800768 -0.0048664907669321005 -0.04670293779403019
-0.031863400571131024 -0.008074822302471207 -0.033500893021225504
-0.032577343080691 -0.004781206398509112 -0.04111449800915958
-0.032411113242721785 -0.005639938223841507 -0.04375198577076089
-0.03270591708587504 -0.0015693622854726747 -0.04691113958893583
-0.030490334286812755 -0.011944275775448028 -0.033770388056070896
-0.033050225724264706 -0.0019129872172247077 -0.0454395801835456
-0.03269049376738479 -0.004545761637517492 -0.03452271316544643
-0.029526525788250685 -0.012577666802100956 -0.048281237096124974
-0.03213661157512483 -0.006335195033710822 -0.032724292292954565
-0.03181836086113598 -0.008115599896956715 -0.03585145835367413
-0.03197794695465417 -0.007634387488221906 -0.038218459888771227
-0.03247190982638091 -0.0052198950843129165 -0.03030503658457022
-0.03248412420791291 -0.004934252313667422 -0.029911018449475215
-0.027054465831269133 -0.007314776869982045 -0.048326772330190546
-0.030096987462778738 -0.013033659825691449 -0.04017357709782417
-0.030177094557880327 -0.012847440104681163 -0.040290708704986716
-0.032602334085315474 -0.004422471323051678 -0.042052997592748526
-0.02935601239131709 -0.01468434191281336 -0.048236984759627274
-0.025421564395134724 -0.005908294204120106 -0.04666305984792223
-0.032847662770861964 -0.0009994590570747246 -0.046262827970929926
-0.030574022314442343 -0.007640856799557007 -0.04976762590740927
-0.03274409462158657 -0.004555508624984916 -0.04006148054901382
-0.03114015526457986 -0.010394863200224848 -0.03436972487141115
-0.029343330794538013 -0.013421833055004134 -0.049276498426651445
-0.032199543982042576 -0.007286145339267511 -0.04514303521838985
-0.03267587987637867 -0.004678120959107257 -0.03587631755320417
-0.03250482263182045 -0.005671514678827774 -0.03499447293997117
-0.03251768170815197 -0.005627566931528369 -0.04512490974214302
-0.031077795412295807 -0.0050721976981398815 -0.04963787918533004
-0.032777442837627874 -0.003605704074842472 -0.036228668956983304
-0.03276285939620665 -0.003880431012100705 -0.03580862166079801
-0.03297172280115811 -0.0025589423334499025 -0.04277971653277968
-0.029173447497748903 -0.014619767357404225 -0.046753864722367006
-0.02925131557436585 -0.013275382628203259 -0.04793769617497277
-0.03248124940693088 -0.006087871786286864 -0.0387528127577897
-0.02948807996170364 -0.013123108839460614 -0.0463435075397636
-0.03047492078462345 -0.011893470737015126 -0.0432723486905683
-0.0301950150544645 -0.012637571589632834 -0.04492809591619843
-0.030814677403137824 -0.011382395296932399 -0.0449336422396102
-0.0319624604688502 -0.00767431229538074 -0.033857648024041766
-0.03132601576295767 -0.009840486974797908 -0.03166240424236557
-0.033167070204678406 -0.0017709667949353475 -0.04370698117864998
-0.02808921325306678 -0.008366953466977245 -0.04874303712156931
-0.03302280832343613 -0.0007531898083879885 -0.04406336327534076
-0.029418050595599966 -0.007244818504174292 -0.04915537328012753
-0.03263816644603084 -0.003907213530310692 -0.04567262900350026
-0.031945502641539975 -0.0083141249635166 -0.04246272061788384
-0.029087114041167268 -0.008128249187744055 -0.04910341841599268
-0.03267848489030327 -0.004070415881544467 -0.04390119147088977
-0.031141884254119654 -0.0101768447476547 -0.03541961899556878
-0.029756675881875864 -0.006681747288267939 -0.049241707279079894
-0.028780697021349354 -0.006731414952975629 -0.049103796841023256
-0.025178228400190322 -0.006469480963327509 -0.046642671820813365
-0.027982790000286164 -0.006584363475763565 -0.04918711357372468
-0.027517305021475945 -0.006102437083773911 -0.0489645156108062
-0.02862846374636445 -0.008551290049571414 -0.04891131750976044
-0.02998805826147719 -0.005375851627355827 -0.04921694372290221
-0.03226147121387226 -0.006206330453699449 -0.04403965578865805
-0.032622260327617204 -0.004949376984733375 -0.03611172361599514
-0.027827219861910894 -0.008909113023467403 -0.048409366706957536
-0.030178418420405743 -0.012970061498052878 -0.041450457819847436
-0.028711288013127743 -0.005311006965514559 -0.04884960787154448
-0.028355648562563555 -0.009018317446504274 -0.048758246711882704
-0.02954315260793909 -0.004631680426533842 -0.04872323318332574
-0.027148580513894016 -0.009580885464304358 -0.04827090796234256
-0.02735621744815199 -0.009172692829885452 -0.04818674601956971
-0.028703471735726564 -0.00980371006093997 -0.04920179232049076
-0.028158337936258437 -0.004568435042406095 -0.04736062016683559
-0.02754358687678001 -0.002255617833371303 -0.04672380476236341
-0.027275203098964515 -0.007746993785594569 -0.0487201893962221
-0.028520957214791372 -0.007204490555686303 -0.04914902226580852
-0.029589533356970656 -0.00360041872323838 -0.04843436737091652
-0.030497156666984167 -0.01040516007533654 -0.047965502696832286
-0.024408823434640403 -0.0034109545293891093 -0.046771566749884266
-0.02746129140326893 -0.00569480064960904 -0.04802049337670382
-0.02727003680478298 -0.008856421124513764 -0.04828905816382934
-0.03299789927598337 -0.001734640891917774 -0.03759829694622014
-0.028751956665789946 -0.008220220242134818 -0.048961397914684596
-0.029667578378246358 -0.003963825950754048 -0.048593241827356456
-0.024255166543019506 -0.006210341814722788 -0.04674250227100335
-0.03320135640556139 -0.0016990574640672466 -0.04043022954525393
-0.029352704678440016 -0.00502120407127931 -0.04882608383440981
-0.027783107671206807 -0.01100838697353575 -0.04900406484585247
-0.029973595367083702 -0.003232534018126027 -0.04874507212218375
-0.029385086680701337 -0.012194213177877278 -0.0495064992488627
-0.029420120927973935 -0.013354730309181544 -0.049180279475358864
-0.02708249905954631 -0.010534256882702538 -0.04872575730826188
-0.02841136768041061 -0.005112941842534347 -0.048698100159426806
-0.03295485300376611 -0.0028317809040305556 -0.038627101239394904
-0.02786489416020919 -0.00758667875795241 -0.049151756443655194
-0.0279111894038038 -0.011346113928583514 -0.04920889367763909
-0.02918539514997555 -0.004917355795102872 -0.048707695093193455
-0.028528055143891905 -0.005025563415911755 -0.04847384455287434
-0.02731480913850529 -0.010080864129150583 -0.0484919173213563
-0.02780276615710646 -0.009267743001216812 -0.04826437116958518
-0.027286902015120466 -0.010412208390855023 -0.048617090248006534
-0.032375065814828484 -0.0044818317565146005 -0.046249633590414965
-0.029753088135064706 -0.00596152532167833 -0.04916468049089898
-0.032132573701983816 -0.007812681942877903 -0.04183869907125347
-0.029496073390938172 -0.005959335812521376 -0.04899034484560283
-0.03269257881348569 -0.0036985693499141867 -0.04424655516266725
-0.029208811356107034 -0.006858049024040678 -0.049046084349309384
-0.030916791836955795 -0.010905335104992905 -0.03511650538854518
-0.03133591727728616 -0.008703532210566366 -0.04846310401844847
-0.030072902428273 -0.011746913056886951 -0.046787173332655765
-0.030088136822441006 -0.011812567347823114 -0.04659208671012472
-0.029064473733505843 -0.01209871604293208 -0.04976223820888866
-0.032408568640486156 -0.004609754667129841 -0.04701578393815907
-0.03130301035551941 -0.010258624640821985 -0.041725956400838274
-0.03218020585086272 -0.007083878649569825 -0.04316789927880385
-0.032987129911592965 -0.0024804680000238086 -0.04253069060517874
-0.03049161565146285 -0.012106182320258979 -0.039797233888703196
-0.030650064072854175 -0.01187653722691446 -0.041034141933310626
-0.030675189395299965 -0.011722133307796926 -0.04052144995512873
-0.030679487189416307 -0.011644607095827002 -0.04023435337736293
-0.03151221043534113 -0.009136620825194867 -0.031300865553337776
-0.03245840755208744 -0.00621484254190662 -0.04077223283815826
-0.030926890245225346 -0.011111840380197085 -0.04259592537988566
-0.028277535298897375 -0.002939552501126632 -0.04723693378983861
-0.03022029068486347 -0.011220710282463516 -0.04878351267032709
-0.032389835249507094 -0.005447098293638974 -0.03198163879611807
-0.030890083452468083 -0.011342405634140277 -0.041259684604142435
-0.032114742399537335 -0.006842209949554564 -0.03352794640390102
-0.032268749286800125 -0.007144770476946796 -0.041724101212139396
-0.030792250497709235 -0.011485270090625107 -0.040904812971913986
-0.032193697898039074 -0.007388801321407016 -0.04050428141296332
-0.03104249251505662 -0.010862058081202948 -0.041180466466173904
-0.031056415812342017 -0.00943152540541737 -0.04847543212178031
-0.030404744371873123 -0.012235653169412618 -0.03893175791838264
-0.03136172072092172 -0.008589686556801882 -0.04906962180910658
-0.030442826972782458 -0.01218024581623927 -0.03837955715101357
-0.031415985926531276 -0.009706622570491904 -0.043116840284258565
-0.031704699678950135 -0.008553444842040445 -0.03462309923736442
-0.033137724630002606 -0.0015067940141679764 -0.030614096425342272
-0.030802139597255116 -0.005091559802296267 -0.04960914652964061
-0.030080717730879586 -0.011399927513766308 -0.0483322846631609
-0.028386724033050835 -0.004437795306343629 -0.04738347582900436
-0.0327129214991986 -0.0036895601877316216 -0.031029796191684084
-0.031763506141915435 -0.006164845938591974 -0.04720918402808742
-0.03192564062228994 -0.005751772944140028 -0.04769845645242673
-0.029293722346212282 -0.014323711082701994 -0.0478681632843761
-0.03206467187525253 -0.0035457250622751148 -0.04853759705835573
-0.032925003657432256 -0.0036601836008639506 -0.04211380269436347
-0.03117357783485792 -0.0018233670098195668 -0.049615984191898714
-0.029640150216005252 -0.009118840746662964 -0.049630462430322375
-0.03086096323096777 -0.009813982613221478 -0.047057785777012626
-0.032300275376886595 -0.003771814997329164 -0.048276271576859486
-0.03250622811692733 -0.0019994737998535145 -0.04754059515889522
-0.024863143047349157 -0.004424479376265174 -0.04655816922798331
-0.029635371078470373 -0.010558500304070795 -0.049879549352395254
-0.03272028567756781 -0.003915706146309806 -0.03232116439576814
-0.027239092327976108 -0.006771712496049199 -0.04791033404595779
-0.03267938600938605 -0.004473030593437606 -0.037221519610126416
-0.03266681061550255 -0.004576950166016738 -0.03699584470041814
-0.03309385332185308 -0.0026095606377765793 -0.04124068693899528
-0.03302335694286281 -0.0030346635481293934 -0.041857479899700664
-0.026872983531107966 -0.0030798782700506983 -0.046613144518904
-0.03243855475538488 -0.005751237884491605 -0.041102811966590436
-0.028489233281577448 -0.004902716778796912 -0.048113614937783496
-0.032308959071925936 -0.0040136425572442555 -0.047537865431930365
-0.03253070488223674 -0.005058497459278683 -0.04100095326227103
-0.0329423491454837 -0.003242727609921217 -0.04266037484353778
-0.03257619634498628 -0.001102163025918367 -0.04754122735843939
-0.03234236710904447 -0.006630022343619337 -0.045426031509196746
-0.031393905122649286 -0.009768013017260786 -0.033839403921998565
-0.03169837262023277 -0.007941918681039465 -0.030351089117091834
-0.030896430285454867 -0.011134676441408984 -0.044930905016791846
-0.028664843603127932 -0.014158815730732027 -0.04963096020254945
-0.03224748239628571 -0.004580553021100587 -0.04746890883444043
-0.03238060237959814 -0.0030143065238843166 -0.04777864524619337
-0.03287170109520776 -0.0036979868233489414 -0.03947520714578168
-0.029613998757782072 -0.013942852981401166 -0.04882925342450495
-0.029346036310697453 -0.013264247929136004 -0.047104278676503804
-0.031839713455806176 -0.0077983088483393245 -0.029056847277595128
-0.028124259698540363 -0.0026139325893767204 -0.04720109480042116
-0.030482978738888236 -0.011924479831365721 -0.04535683844655355
-0.030383920321427994 -0.011072623194820316 -0.0473008943126108
-0.032360981548072466 -0.004061919390743072 -0.04733712891673476
-0.024059849569624134 -0.004805288155598936 -0.04677078479673212
-0.03205784411743541 -0.00761754126023956 -0.043148562746911694
-0.031201390315598893 -0.01030530339553309 -0.03379737389874897
-0.03282825418031621 -0.00025232738514383967 -0.0466391830835848
-0.032946167472753696 -0.0008547391617676497 -0.04444098617736103
-0.02688101631069872 -0.005422535266388074 -0.04694002864102195
-0.03062953871335989 -0.011766653796101666 -0.03534964330436318
-0.03237207594497301 -0.004598467147588914 -0.04801874208549786
-0.031405189342263606 -0.009830020882930855 -0.045133772392028426
-0.031110310730188537 -0.010322976352102949 -0.0447631829899776
-0.03265668390034646 -0.0018033299635062828 -0.04663446829224823
-0.03220201205071735 -0.007012588743216558 -0.03870165374745657
-0.03056580060997393 -0.008889555814187992 -0.049702123729644804
-0.026458620083683434 -0.006179674372420545 -0.04683150756658394
-0.029221016888836902 -0.009195185800039465 -0.04940074495923326
-0.025890444296849783 -0.0022723949487019187 -0.04642461980509719
-0.027502991644503375 -0.005055797616865981 -0.04700953422149975
-0.0323408174603619 -0.004426637702458956 -0.04640688338334856
-0.03268525849761769 -0.002104577353119634 -0.04658563465223649
-0.028198630496323433 -0.013855592436616123 -0.049779721688918276
-0.031218945996308943 -0.004167951799122327 -0.04962444175697502
-0.030149964241251378 -0.013018551571874785 -0.04247629993077046
-0.03023593405679262 -0.012751250786164185 -0.03717992208436663
-0.032661099717738715 -0.00307496952276609 -0.046369876402598646
-0.02951298116172235 -0.008286768931640147 -0.04938995479565006
-0.03242163889013515 -0.004113004946807835 -0.04667030099500219
-0.031179845433418663 -0.010179332633249523 -0.034753061134976004
-0.032755485694114586 -0.0024229678831582174 -0.04619407734424996
-0.030621259736893666 -0.0117849717287809 -0.035488412458042934
-0.0321615892308888 -0.005262645298017109 -0.04818010998512336
-0.03223288434809336 -0.006985348855566526 -0.0429294751046205
-0.03274928691878494 -0.004620103782073083 -0.03980953576072866
-0.03217105487444936 -0.007565951078692891 -0.04165766445437132
-0.031570752555252254 -0.008555173256053306 -0.043847141428847304
-0.03258944707958461 -0.005214673256135453 -0.03768615097904593
-0.03218181827106381 -0.006491590020096738 -0.033068204534584686
-0.032203267616613296 -0.006783101249115976 -0.04360254536250185
-0.03065753593725805 -0.011137687023009142 -0.045943657138592775
-0.03270517204742297 -0.00248686407473896 -0.046468536458698875
-0.03123959137650377 -0.009612173798792686 -0.044393747666282665
-0.03283473498964876 -0.0025051732826840713 -0.04592872181118736
-0.031613958653129805 -0.008928644675589037 -0.043284412618779515
-0.030930192678447602 -0.010609371170750653 -0.04362509440432744
-0.03252551404839686 -0.005226832066447964 -0.039972346226176916
-0.028087695061027464 -0.010472379251691859 -0.0488402701634775
-0.03198759499554317 -0.0075360393744034575 -0.03333716247814174
-0.032766856662302224 -0.003136262822049385 -0.03412331625783072
-0.026144441763221463 -0.0046572423120328985 -0.046651319618159603
-0.032953771080858424 -0.0013865264208380228 -0.04567148043622425
-0.03193455245760437 -0.007685550021463339 -0.0359114252524723
-0.030053224560077946 -0.0114895354608115 -0.04854910172590187
-0.03294201455076486 -0.0024256099633526377 -0.045725033171129845
-0.03257674391309235 -0.004544268968910361 -0.03272364140437821
-0.03300896674155416 -0.002238017972446619 -0.03214350536063934
-0.032431762330083005 -0.004178216906065276 -0.04608031956634369
-0.03207663039124246 -0.0070784963419820175 -0.03590829702931384
-0.0322751565806954 -0.006509244868527402 -0.035845445610258306
-0.025790868401861018 -0.006663430319911317 -0.04674594254677957
-0.02997554522317077 -0.006479583227053127 -0.04934507011260014
-0.030634269420072854 -0.011613573638277868 -0.033799270496347227
-0.031352143679690324 -0.009786471532499234 -0.036238311764537956
-0.029960384976128556 -0.013042829586391573 -0.04340075163149873
-0.03262503863476395 -0.004554365075724495 -0.033600627393510156
-0.031173006479622456 -0.006743747116015556 -0.049485477790012125
-0.03296946901035155 -0.0025457826282867285 -0.03129431416314205
-0.03144132577141594 -0.009492599554408183 -0.036054713802719025
-0.031459697994738176 -0.009444600731859366 -0.043303104947180364
-0.028374515011583022 -0.003600189051639603 -0.047222930272175875
-0.03267660448477658 -0.0039192908043535 -0.04531946658204488
-0.030748939129039785 -0.011429046268218595 -0.03476982065553667
-0.02951743695242942 -0.013479452903735482 -0.04852016802946478
-0.031427677464615354 -0.007379308596316392 -0.046152938312654795
-0.028882020094390837 -0.004614400629352109 -0.04817530969476476
-0.03324581645220514 -0.001326841382193202 -0.029886383901182846
-0.029224251742407076 -0.00411104803964593 -0.048228315356433474
-0.031468579967468664 -0.009262191166218842 -0.044878242298078054
-0.031788100475572824 -0.008855728220340685 -0.04243969453162465
-0.030628573803335446 -0.011721629135652698 -0.04516069631781762
-0.03270948737037915 -0.004187548283300413 -0.03469019955607585
-0.03255541859528482 -0.00560829847528359 -0.04499985596290204
-0.031502209227659936 -0.0037086144545380073 -0.04944652916497021
-0.025864667295172714 -0.006332819748560843 -0.046739326351784787
-0.024770187089896062 -0.006903853825056977 -0.046692897542470434
-0.032390279304215966 -0.005793785504562269 -0.03417137928445495
-0.03238691777238712 -0.0058399476403483775 -0.03426591432959119
-0.03279474441121372 -0.004074538899790275 -0.044797785488128634
-0.031966515184280724 -0.00782397745639931 -0.04341846789962603
-0.029977019285048243 -0.0118385155045863 -0.048889724642214666
-0.03276049504232043 -0.0034669835425855905 -0.04438443138292785
-0.02707274558624762 -0.002839551977712642 -0.046661021422906644
-0.03265434481127325 -0.004991654363536463 -0.034652344774324446
-0.03284844723307266 -0.0029660178740130915 -0.029771032213319865
-0.03279206259726655 -0.0032234356100007654 -0.029722134718080814
-0.03258238433058713 -0.004505152286160927 -0.0326379849876006
-0.03162766115034005 -0.009020019870722845 -0.03409367687471617
-0.027766422756590033 -0.0024180609708805145 -0.04680304988338381
-0.03237314214899653 -0.005709820325213812 -0.030431784917859535
-0.024789998549152245 -0.0035899475230230047 -0.04655838990577642
-0.027276070431417672 -0.006613676867299401 -0.04809855578795205
-0.032509542075776006 -0.005462884389442821 -0.04478422502690565
-0.032656854745891 -0.0041594958619820465 -0.03188964644551754
-0.03232788184642054 -0.005517946940062583 -0.04542671047799576
-0.03081053191716959 -0.010416255227959732 -0.04672898211015015
-0.032995634539521285 -0.0030972284368869928 -0.04205587298221024
-0.03092782928591625 -0.006962020023393425 -0.049616074998340864
-0.032908423063755785 -0.0030082273500226355 -0.03803129181531369
-0.025942411799866835 -0.004887587535439129 -0.04672127132626179
-0.03291932666995638 -0.0030909228890163318 -0.04394518232403448
-0.02717595826268964 -0.0047505920933555565 -0.046828967327504425
-0.03255048503379819 -0.005362267425346637 -0.03703686873269138
-0.032453441549880946 -0.005020957915629106 -0.04443835760195893
-0.031323436628714695 -0.009941592019995438 -0.03355747925327699
-0.02983079428893167 -0.012806536366376903 -0.045971654938729484
-0.03102536268523445 -0.010391852633799105 -0.04606870920202169
-0.028993000803792576 -0.009591246948252856 -0.04935182500369394
-0.0329055967110686 -0.0033477074935903428 -0.043507377248424545
-0.029467136020265 -0.013449821717802636 -0.048385197481359644
-0.03300310627403163 -0.003150212343918309 -0.04071212429182117
-0.031263520481585864 -0.010084957859240686 -0.043059137590808566
-0.0318942898664109 -0.004873176987117178 -0.048792016699814075
-0.031762127735296075 -0.006161779663800193 -0.048833637164359685
-0.03151948472136645 -0.009742300301926392 -0.04239012757209769
-0.030759723215372868 -0.007417815000206199 -0.04960619285726903
-0.03258474821178404 -0.0036046687533163703 -0.046197290937726176
-0.03158499492807056 -0.002878891370891613 -0.04944675548577279
-0.03111964018412043 -0.010259197900861047 -0.04351023622354479
-0.03144753284650112 -0.009258541971200183 -0.035119628426525995
-0.031542173222870756 -0.006676911329399035 -0.047975153121189676
-0.025488561816900422 -0.005781522727970041 -0.04667055620453359
-0.03153484319298676 -0.006634212779084591 -0.04711647135470418
-0.025761188790958695 -0.003851876621159868 -0.04656927664143504
-0.02632223138544039 -0.0037219764294333215 -0.0466209500095707
-0.030523686138666475 -0.010312138616792085 -0.047527193285376634
-0.03110019562360591 -0.005290270980538852 -0.04960174820489659
-0.026449001412889937 -0.0037687960669444552 -0.04659695204614653
-0.033065433611220635 -0.002208047010255379 -0.04210019702640845
-0.025542217177302866 -0.003652504811757582 -0.046486664488176864
-0.031697296309089434 -0.008735561229250548 -0.040427768894293066
-0.03271237410199744 -0.004267883445020557 -0.041723786043155575
-0.03246742307816191 -0.0031500744889537465 -0.04703318950576159
-0.03253954739379647 -0.005610630582046501 -0.03830719756399955
-0.024786224120278887 -0.003028852143697067 -0.046532679070839
-0.03288359747503066 -0.00277702463519803 -0.03670321498243498
-0.03268649249432276 -0.005009480210935899 -0.03950456720914909
-0.0309984394690004 -0.009329707131621397 -0.04834610277521009
-0.0324672714772353 -0.005473535495586705 -0.0404941206149946
-0.03265548037619993 -0.004587441883096314 -0.041154026072773076
-0.03303309958265423 -0.0023761358841506135 -0.04517013694474294
-0.03054235124028643 -0.011847500448354373 -0.042790161429295835
-0.03322509063372666 -0.0014410465919351325 -0.04052512164230657
-0.032498701617915765 -0.005682802092973387 -0.04347665556773361
-0.03313447738986624 -0.0019223357572879735 -0.041740096982272504
-0.032432401674709205 -0.003965819392779521 -0.04644498523358237
-0.03223996575696904 -0.004986273893843977 -0.04848427583719198
-0.03319111207392612 -0.001640676107960938 -0.04134579303552896
-0.03316349674538429 -0.0018467638687772862 -0.04144343179881678
-0.033006845499910634 -0.002084553475295307 -0.03817723199545427
-0.03135922740448406 -0.009504302811300946 -0.04462225095410601
-0.03151151892529074 -0.007123939306209168 -0.04672115294097698
-0.03231519342350686 -0.0071387322756472 -0.04076927509169086
-0.009960746883899661 -0.02150669015337573 -0.047452544866399535
-0.01011779809622439 -0.021641450360374577 -0.047428992526770776
-0.01119151960008964 -0.017627815397973298 -0.046555098882233734
-0.012760040205081006 -0.019586250343228237 -0.047300472879226535
-0.009776890141158623 -0.01747854432065608 -0.046533569468526444
-0.009424405074784592 -0.02036055231345399 -0.04714151723463711
-0.008634660161582704 -0.021581574506673612 -0.047438125540989806
-0.007624669981930373 -0.020057509124260513 -0.04711564851125518
-0.008837776109735719 -0.01925999344671902 -0.046873011363465215
-0.012221381648878805 -0.019586745815651403 -0.04721729796220621
-0.010753011818323315 -0.019827220671711894 -0.047113079245902995
-0.00991430788434158 -0.01833385103978648 -0.046681776878340166
-0.011235320808763757 -0.016827082252817375 -0.04630212155018794
-0.010858359435332022 -0.01860137990457704 -0.047040169807290116
-0.012233831559794822 -0.02077948201621766 -0.04752793259138592
-0.011657014717403854 -0.019329461741592203 -0.047052030213943725
-0.008677956783867145 -0.02174167438193317 -0.04742118602248851
-0.011749965988614454 -0.020449930805761553 -0.04735480555900681
-0.009608078179903246 -0.017663742138783235 -0.04656208067721049
-0.008790907311583643 -0.0217214294146773 -0.04740567932686786
-0.008520531522709466 -0.018730272576949123 -0.04652743733662491
-0.011258500435459076 -0.017788161961179036 -0.04668174645357008
-0.011056925717654924 -0.01856748906257 -0.047070715379300555
-0.0084779180975301 -0.019802044057644245 -0.04725466197142875
-0.010667793138212624 -0.019298866818353914 -0.046986294185603315
-0.008531197236217885 -0.022331304424138484 -0.047406031481761535
-0.010782621850769863 -0.020958599292667038 -0.04750327309249344
-0.01054754964928064 -0.019819594669713017 -0.04710265749970171
-0.008669865659963916 -0.02084332304186841 -0.047278852059706375
-0.010489022898954554 -0.01827752034679885 -0.046801121317393134
-0.012292136912242388 -0.01848538975474885 -0.04702903186299707
-0.010831914589409092 -0.018279226154850052 -0.04680244314226325
-0.008081475414753467 -0.018207790853310223 -0.046516759770748824
-0.009083858121191892 -0.018623559474830187 -0.046626960996911826
-0.012058202245052944 -0.018852609812107866 -0.04704170709188711
-0.012420199327747045 -0.019886574884640268 -0.04732541547139822
-0.008566929834743747 -0.02047313604131743 -0.04717567493495077
-0.0073220528507100735 -0.020044599162557852 -0.0470068409471818
-0.010962660850626933 -0.01794374489092364 -0.046775269344597734
-0.010088469934737717 -0.019972813273429323 -0.04711565902045698
-0.011057481935472414 -0.01922450954539375 -0.04687682424556201
-0.004642829230145985 -0.031111425776056495 -0.04755356971422571
0.0016648278138798615 -0.03141579871864677 -0.04809054326579629
-0.004174366320828473 -0.0315625737735483 -0.04536342334184108
0.0016222119022263268 -0.031247522766424958 -0.04820285752295572
-0.0034774252308490076 -0.03123454743922167 -0.04638714796388921
-0.0006698617455775312 -0.03100332402241646 -0.048695266109129436
-0.0014964363776000422 -0.03110866720170755 -0.049081888707635704
-0.0003284910848748528 -0.031417023534313485 -0.046845424757974014
0.003690491395239936 -0.03132368714990318 -0.04835212162208828
-0.003963461638876812 -0.03115400399060855 -0.047094791246143526
0.0018938849544722926 -0.03130961957111059 -0.04894377091951353
0.001782359839106512 -0.03149733893141391 -0.04808041395230317
0.00011802730213230627 -0.03126251874716862 -0.049168399677198354
-0.0067559742378450974 -0.02948170696587249 -0.04998801133688824
0.001290339068487032 -0.03152416320853342 -0.04652074073157665
-0.0035250118750607233 -0.02890740411491479 -0.049376130679157665
0.003358862949760298 -0.031579467312488625 -0.04730003648147997
-0.0019628154551446747 -0.03136905582905532 -0.04686613896615204
-0.0011122458343906108 -0.03103204369359974 -0.04869213547511874
0.0025642633408581215 -0.03163034299107286 -0.0469208477140271
-0.0010108496845768827 -0.024813464237532244 -0.04746177289867702
-0.004338932779419085 -0.031167583501179777 -0.046948085134319834
-0.0019995600828030214 -0.03158573901972121 -0.0459541262950925
-0.0039419684370011 -0.025596776978660047 -0.04729248933434371
-0.0032482355988962567 -0.031195498188502153 -0.0467486586435991
-0.0011880686080334437 -0.031152623747561923 -0.04932871230012106
-0.002953614981413601 -0.0312901142597434 -0.04735270950635477
0.002222808680723912 -0.03130888696904808 -0.049013843788244776
-0.002294789691320462 -0.031304480311730914 -0.047284326890846856
-0.002059686586337637 -0.02263573801986221 -0.047327718356414916
0.0012641582133971448 -0.031065778883094454 -0.048349499943523035
-0.0026384813142352513 -0.0313575861656353 -0.04705273747002832
-0.0017470842440285507 -0.02296286769260027 -0.047348893515606616
-0.0028018954827059442 -0.031685708439155864 -0.04532885180267733
0.001048527496047962 -0.027484365520217224 -0.04814134538723814
0.0024960517020407532 -0.021748776443579827 -0.04705217022613007
0.0020743797883622465 -0.02234686167806594 -0.04723888929773129
-0.0013477609656318227 -0.02390712695628054 -0.04751796863591613
0.0022715639656982387 -0.022779184512105186 -0.04740942797900825
-0.0024750492077695316 -0.03149098528974475 -0.04650864330603408
0.0011780795739551272 -0.03156838662620273 -0.04616474738078048
0.002834272174841833 -0.02183383149872048 -0.047111849869494474
-0.0023031376120423545 -0.0313291060273515 -0.04716431143945213
0.0032588220347347773 -0.021925572155364156 -0.04715916142777147
-0.0030368327947370133 -0.02501550111812329 -0.04747325457382974
0.0012867422060527226 -0.023954525642674338 -0.047606009955105916
0.0017949237019822535 -0.025531527841186737 -0.0474393921368228
-0.004104553818263423 -0.03153789064073018 -0.04548019250567854
-0.0011179488769259708 -0.03134431902977406 -0.04690143928217577
-0.0015334962770409642 -0.03134594475562986 -0.046945563329876774
0.0016551234687200262 -0.025248157539454235 -0.04747994638615193
0.0009566512546958779 -0.02368736328539497 -0.04750003203971512
0.0017731680618849693 -0.02384501319484986 -0.047598466827298944
0.0015011248389079678 -0.02519890532242479 -0.04746694847626787
-0.0018636681507677977 -0.03151240544519299 -0.04615185668237196
-0.00014103249350886873 -0.026198713251628675 -0.04726641607782757
8.179300589979847e-05 -0.025337320036605635 -0.047382063569894516
3.282900789860803e-05 -0.0258478746577367 -0.0473103734627386
0.0015668448123355135 -0.03155196922786207 -0.04647477300881912
0.0006271339240167724 -0.02332693849221271 -0.04743815557586544
0.0012630131354357146 -0.031134828857565956 -0.04825242263649393
3.489327881294886e-05 -0.024208111941599605 -0.0475744808365547
0.0016306033783802117 -0.026660880615010117 -0.04748009282654061
-0.0007295746623730917 -0.027103173641377612 -0.04766279310964376
-0.0003892216600127773 -0.025426992813929197 -0.0473955104018091
-4.542076366369917e-05 -0.02306315314739011 -0.047421351027688186
0.0012752691659248122 -0.031041573588983223 -0.04842357285328613
-0.0003061920201311713 -0.02687657221285398 -0.04754892423814212
0.0030883043768205696 -0.026686926361890934 -0.047577590903795514
0.003674669577559066 -0.026870753378074194 -0.04777913603610207
0.0014173508072690137 -0.026397925425982436 -0.04739406411568192
-0.00033245899113250126 -0.031324385324480744 -0.04770635131277238
-0.0005361342508405628 -0.024221812506912088 -0.047561716841124
0.00145950832269535 -0.026523759150485198 -0.04743625901704799
0.001155601942906629 -0.027144580592229184 -0.047684908314588555
-0.001586789358104238 -0.026009586315573693 -0.04729351187670039
0.002530797865499789 -0.02654629981683777 -0.04748083027350008
0.003095896025903791 -0.027243222151992062 -0.04810012913735468
-0.0030356598969617996 -0.031424847418433474 -0.046265721630252804
0.0005102483438979121 -0.031575563834125624 -0.04566985462612248
-0.0019256008259099107 -0.024678958719785888 -0.04748290991629345
-0.001633412501997422 -0.0317456795927126 -0.04521597802889235
-0.0044568005831148545 -0.03097480977212448 -0.04972039437630367
-0.0032106017067644616 -0.02448142387019888 -0.04746484637123875
-0.004624498332342045 -0.025473668651710694 -0.04726136325904001
-0.0011795486266417041 -0.024393620304446733 -0.047528219319798615
-0.007043190793342813 -0.026496321397168364 -0.048097041634749024
-0.004444720041306527 -0.030933871841449086 -0.04932423801302106
0.0029653039097136454 -0.031211364322379358 -0.04909175766508702
0.0010755817613864417 -0.02606597073698006 -0.04730632293640048
-0.0021634294649963077 -0.03109461838768697 -0.049114656117238614
0.0020378405123546474 -0.03158489441855952 -0.04628327285916044
0.0032663414281353534 -0.03069618826011792 -0.04963399275352079
-0.0018084099057308262 -0.031200117476793854 -0.04825321824222764
0.00459484643394393 -0.03093672336080916 -0.048414874188211277
0.004375686723299108 -0.03114236536502832 -0.047007957216506524
-0.0012703189322554045 -0.03170277818703266 -0.045380638314836096
-0.005267403023011307 -0.027813848861820624 -0.048926617085585
0.000276974168750858 -0.03180073768153108 -0.045484461295279305
0.004039846239954493 -0.03131956829348896 -0.0467005467675882
-0.0033674671512101094 -0.03163772776431477 -0.045481700154080075
-0.005212192782046444 -0.025181903046663512 -0.047402022885008915
0.0027068612995981255 -0.03147307056940745 -0.04844962547155279
-0.004951417426063205 -0.031386719427433575 -0.04592424660280774
3.4498883081526185e-05 -0.031114160078047088 -0.04798431929152441
0.002345876700991535 -0.03140008994450642 -0.04867648412263145
0.002081585891688233 -0.03094758703294242 -0.04960987936667954
0.0014070999593461416 -0.030968183825972967 -0.049644472988754865
-0.0001400328213974854 -0.028236220575944555 -0.049103775708654124
0.002024667753060815 -0.028634840841751052 -0.04929102947823018
-0.0008419093918103964 -0.03095232181045822 -0.049787410055085385
-0.0032383676291246584 -0.031374569799123696 -0.046285594126702155
-0.0067563936643754595 -0.026735015164694315 -0.04820517965716438
-0.0050777893752869405 -0.027577490103547368 -0.0486212158145521
-0.005662527619529734 -0.027043623025118625 -0.048151096180821425
-0.00545436596220927 -0.027301913108326116 -0.048343142883974365
-0.0056969591463589975 -0.02742860219767545 -0.048625705360765006
-0.005025065427804767 -0.02707773621890685 -0.04802642418483576
-0.006991856660745867 -0.026827985226225263 -0.04839658350642628
-0.006343164471576377 -0.030246072307190768 -0.04992712973645563
-0.005462919222370877 -0.030589727436260997 -0.04979601822039545
-0.004996457547082985 -0.030631455123274635 -0.049825246719125374
0.001781115719480021 -0.03161196917869366 -0.047798117968023995
0.00011415834678108623 -0.02304376987779543 -0.04743147551198712
-0.0007248668180428582 -0.024221848408811884 -0.047568777827688646
0.0001385062968579718 -0.03128436693145925 -0.04758658136434938
-0.0011148478534098378 -0.026503761876975482 -0.04740645973534914
-0.004487811950154082 -0.027214871563973477 -0.048138242329619524
-0.003706826219819515 -0.023573593503016667 -0.04736978055526715
-0.004170524616838674 -0.02609378283766826 -0.0473027368799858
-0.003323630362787584 -0.027226430197072937 -0.04796987054269961
-0.004317227273301449 -0.02435403690818725 -0.047556401622380465
-0.000963737310839716 -0.029511503630117307 -0.049766442297790515
-0.005599049870896298 -0.02603238876948038 -0.047367788267610116
0.00248678467553222 -0.030507207267905567 -0.05003295129524988
-0.0030646873287261916 -0.026546112462395126 -0.047456571457606775
0.00514329281523779 -0.029784059741764228 -0.05038242970733071
0.00046561334613766516 -0.029360855301293176 -0.04966706299048727
4.673357799968714e-05 -0.030773040012697192 -0.04987331897596377
-0.0010849410865715024 -0.030510668195966595 -0.050095423925390625
-0.0005540652969720012 -0.03069539710888093 -0.049922657200932946
-0.005244223094910034 -0.026392479948376926 -0.0476161254877886
-0.00415016865862327 -0.026946281579877253 -0.047866758896326786
-0.00017090167957121977 -0.029504484687117152 -0.0497679831795903
0.003393016631982298 -0.03053132893552963 -0.04983766135843537
-0.001979042688706522 -0.026574915130829713 -0.04742058505369812
0.0006629742880196305 -0.03046072980324486 -0.05019314228209909
0.0047600667042097655 -0.029558144792565407 -0.05009888103753414
-0.004178338782281056 -0.02670202014931185 -0.04770521349975163
0.005016688858551912 -0.028946615207877703 -0.04967400633429203
0.0006133637879843149 -0.02974667113337437 -0.049924045072706424
-0.00040117140543143216 -0.030118236536235944 -0.05013996222291971
-0.0005832676766148505 -0.026235698281155115 -0.04726315592599433
-0.003821968560493984 -0.027403558106674587 -0.0481564507372378
-0.006269325614572505 -0.02607454119169499 -0.047442722653259585
0.002830877570797179 -0.029045396441534588 -0.04960132809908428
0.0026700457429467334 -0.02932497118225503 -0.04974981366686029
0.00333118269154015 -0.030106568174499193 -0.050380466963174775
-0.0021013136859666433 -0.026770395596319527 -0.04752322741150872
0.0004556634154433521 -0.02425461890902845 -0.04760201419309851
0.00138610172583784 -0.030080229527953164 -0.05019686610599899
0.004812186258962136 -0.029303095181756725 -0.04992803607777001
0.004055912194372305 -0.031374544715847066 -0.0459177040804951
0.004222546931994123 -0.029542863800128 -0.04998708544981445
0.000852156442939137 -0.024726756163080853 -0.04743175461194503
0.004084509699840645 -0.02894410090244299 -0.049503155726327464
0.003477942081715058 -0.029182688595899318 -0.04971314809919299
-0.007176344860628406 -0.02986858351730743 -0.050078532804773784
0.002216950711749489 -0.03168237674328969 -0.04752306769963146
0.0005229496988646303 -0.03140615575983136 -0.04675572065487679
-0.001801421965317023 -0.021875056664822354 -0.04702847756522156
-0.0005419520407417297 -0.022000777332862743 -0.04703026880952313
-0.0044171319227957855 -0.024993544053918564 -0.047281807087559434
0.0006508871837150378 -0.031249720296042022 -0.047848891473626864
-0.0004479848104679963 -0.026214166765954706 -0.04724240144599346
-0.001275139868028814 -0.027978925563976707 -0.04845830841246176
-0.0022965214139621082 -0.02750083542794832 -0.0481585418742901
-0.003293999574695077 -0.028362951593864316 -0.0490538997533952
-0.004808222045417894 -0.028619588795234643 -0.049271957704825405
-0.0067483203756454795 -0.02857596884871127 -0.049506752379243575
-0.006125039886827817 -0.027522115508857792 -0.0489540685565636
