-0.026827129546854966 0.019568270995976904 -0.014788157629438735
-0.02168163338856722 0.025180018837974296 -0.021730794380912393
-0.016380131919783627 0.02900025815837327 -0.015599604740913025
-0.026709438539434475 0.0201814761424738 -0.03143180500676256
-0.03173412753293513 0.009176760725850148 -0.020094071752855547
-0.025786209843263522 0.02119675208289928 -0.03503518449352526
-0.02702145885666387 0.019420117489839565 -0.021333026942410897
-0.021499402393596607 0.025499738871705167 -0.010575039664674317
-0.01910949284230447 0.02728450464904937 -0.021994311720094643
-0.0193218011434821 0.027141838425239193 -0.022094904257129632
-0.02062600936513998 0.02610768272235611 -0.024579012970614766
-0.020062871243178657 0.026564193420776434 -0.02742437965815842
-0.025537691499599023 0.021550954283387415 -0.035015402425268585
-0.017542924639675446 0.028252045912519355 -0.012349178628467183
-0.012947266167195003 0.03078642133578706 -0.02851345515514675
-0.029957701773050172 0.014878153950002693 -0.03006651883183616
-0.031613638986630686 0.009533735869540217 -0.01735850229358624
-0.015209220299244248 0.029608390355139007 -0.02369698859994003
-0.03233305061075201 0.006349703178708076 -0.020104957193277293
-0.03030256093813879 0.01346926834187881 -0.018112490335341763
-0.02714368696344227 0.01923055912714349 -0.020444477410307912
-0.02158387219345012 0.02565488227432443 -0.036999080417161906
-0.021705692933461314 0.02527197047290591 -0.028265902731837603
-0.03227139239369865 0.0062081263265858725 -0.017928422786540117
-0.02599956955956769 0.020851512748331046 -0.022907939615592773
-0.023757498305855104 0.023419673707095946 -0.023079208662313767
-0.022168958355479725 0.025027967666642524 -0.009397805169957673
-0.021908042234343304 0.025297789277471918 -0.009010614729078015
-0.024904649070748176 0.022067803160493293 -0.018122341073276677
-0.027192127579017632 0.018910117756514522 -0.01102227474229932
-0.03185792039965551 -0.0077819378478058325 -0.023649556399154323
-0.02931300115547998 0.015780180990959698 -0.025916688622285883
-0.03130168585269941 -0.009414471554267261 -0.023039907166828806
-0.03132416804842316 0.01078621923687828 -0.019310063892095896
-0.01703729831868178 0.028797270536617427 -0.03364144039630484
-0.030082293260736123 0.013957401994673359 -0.018044736205676606
-0.03295167764462862 -0.002444044570725318 -0.025423927781340436
-0.017264977469134753 0.028653180875649734 -0.03309097518235142
-0.03160195432398548 0.009547634593823066 -0.016860600407690933
-0.021167359161955716 0.025914557783035592 -0.03498574773953881
-0.021947816983462085 0.025039850715610764 -0.03526783198122219
-0.02223341314133829 0.024814775630230643 -0.013029125476670015
-0.028269476255425616 0.017753518832535294 -0.03570630671364908
-0.026685194086910467 0.020078382413965735 -0.03276960226549798
-0.03172357017291271 0.009015434987399613 -0.016302970174774774
-0.030010204975045335 0.014009822525802169 -0.016510772978782416
-0.025412081984006924 0.02159784486550638 -0.02184554866425352
-0.02719043980569169 0.019392867680929106 -0.03216125599063653
-0.0185464416540622 0.02771841453482861 -0.018088562630023453
-0.02347895852323472 0.023556575340595586 -0.014857087395777426
-0.03296290635295368 -3.482137944956157e-05 -0.01873479003321892
-0.02995299868567572 0.014185552495425083 -0.017474303556218415
-0.022500312321353015 0.02446437225788206 -0.014400629968274802
-0.01650102473704626 0.029155135032711863 -0.03454570151098579
-0.019941806352343158 0.026702605089712478 -0.02693605702988987
-0.03188690433078036 0.008539407829284348 -0.022172380235861416
-0.031863879636832654 0.008666250404584724 -0.022342120701867568
-0.022863631960937835 0.024136899457572362 -0.01373786173730428
-0.022994329248901196 0.024020837083932628 -0.013518580028693179
-0.017218800827839796 0.028565388647349435 -0.025675197505586434
-0.0288074732482806 0.016983184490363852 -0.03621552079751553
-0.028099316549724404 0.018078322628424418 -0.025785986560458607
-0.021682790565417047 0.025229931095350377 -0.035492933544525866
-0.01457457407780297 0.029870255145515924 -0.01801749163443627
-0.03041480212678542 0.013944558742274571 -0.02817665513687831
-0.024233630340343412 0.022723136374485073 -0.010536598964075883
-0.0220520412150853 0.024936449537069694 -0.024104682194569186
-0.01950535442560023 0.026937852533411643 -0.021291466655920355
-0.024070969241440553 0.023108305121750928 -0.030075841786065483
-0.013351346307208297 0.030459218152281895 -0.017634040081142627
-0.024623797148941192 0.022364301013974297 -0.017967394291672188
-0.03273485281184602 0.005308355677424532 -0.026557797374300578
-0.03264757833542995 -0.003941603856731525 -0.029500792366614376
-0.026277274422070653 0.020755342249843836 -0.026862013469901892
-0.028006826408201242 0.01827454312064035 -0.02723082161465587
-0.029399888388372826 0.015272781528949996 -0.016912638903125134
-0.024431885229707392 0.022557682556524822 -0.01328666815535614
-0.013618037946586892 0.03027242150934672 -0.01885736716772873
-0.03094433563811597 0.012043019262774634 -0.022324375755633962
-0.02720161033656324 0.01905447730708937 -0.01644738540553024
-0.02577676043322732 0.021057210208072483 -0.02092274604944291
-0.014467526739721511 0.029886300457293555 -0.019222680946680865
-0.027418754130516122 0.01899307529543756 -0.030265463445964744
-0.021785734485130746 0.02532574357489239 -0.010251401572246657
-0.025072928333007054 0.021866495820348983 -0.016795049954001627
-0.03233744168091584 -0.006081310470096986 -0.02673091599174775
-0.03110169165648399 0.01156908380471498 -0.02231004622120774
-0.014973388915565003 0.029805336951282953 -0.017132474554380234
-0.029230681848734404 0.016845206821975413 -0.029816985207881612
-0.01447241265330054 0.029886077579623378 -0.018232948415861608
-0.03193447310991924 0.009656217495397098 -0.03153493181406057
-0.03258821597026772 -0.004394730684546612 -0.029153904748616583
-0.027790643555276745 0.018449623600798944 -0.03005817601548915
-0.01569827878253669 0.02928044095637124 -0.018833376640090164
-0.026066765708315877 0.020668751073880796 -0.015907859895247938
-0.02218139066612196 0.024932405373542015 -0.01029522248558228
-0.013643775985029239 0.03025939651935329 -0.018174562557310106
-0.030252707226712052 0.01373812431853439 -0.022354222440137676
-0.015306294006545552 0.02954729545303555 -0.016202012232198602
-0.015188111873404603 0.029634190168514506 -0.01645964191134858
-0.03232138801619678 0.008238143266816317 -0.031989579248265204
-0.025601484735019858 0.021350801495194 -0.02242904141826137
-0.02681352435953331 0.01990835999758197 -0.03619184538712824
-0.026261635105203837 0.02026126452470943 -0.01140840049810983
-0.02229637830167379 0.024639302017269868 -0.015366996889224823
-0.02628772782683341 0.020615801856453477 -0.03240194644765239
-0.032845905144457524 -0.0015083690398289015 -0.01825015180279281
-0.032594500401270536 -0.0038318860997268974 -0.017484013339566905
-0.03261724521088673 -0.0037025520788287495 -0.01718887545628405
-0.027265182301434092 0.01899856614251113 -0.018340573812406183
-0.015459648249753198 0.02966300933221236 -0.029161872656356995
-0.021589878531835985 0.025443515063902584 -0.031218409739324722
-0.02916181210805969 0.015983475436357492 -0.024701586630981577
-0.025111265170402363 0.021912809548407384 -0.0207264203938471
-0.02978556549847091 0.01451723069337238 -0.01688159798139594
-0.03110111048567581 0.011732334204384295 -0.02353503840653927
-0.014381671856190128 0.029979589584246995 -0.023338040163974977
-0.02574187178611266 0.02127576907097985 -0.03248019636496816
-0.0210738501975366 0.025918448294370244 -0.0356785136275166
-0.03161916844972207 -0.008582425739164765 -0.027172923228889038
-0.03158730878652755 -0.008668857131163714 -0.02698203409968553
-0.014839870466972101 0.02979159028294775 -0.01615566013389773
-0.014826893684126506 0.02977810299373361 -0.015898958045083705
-0.016634788997143473 0.028867340577063808 -0.024220090674160567
-0.02620446272142687 0.020596222968865707 -0.02888505714529552
-0.012734288836453984 0.030820549247743488 -0.02989097537771379
-0.028766747673268582 0.016362327703063156 -0.011124866882640456
-0.023975943465812187 0.02311833808565406 -0.0212932102516176
-0.032037088344835235 0.008873193052689072 -0.030678500778216405
-0.013743003588000522 0.030248927533443708 -0.019848901322133565
-0.026397993116995967 0.02039706771176674 -0.029367707132328186
-0.022588965358200555 0.0245167120477171 -0.009123350407718741
-0.026943212657910002 0.019821386495633534 -0.031454509684083
-0.0316425954757021 -0.008348650097011839 -0.026689834877450545
-0.028587718986406014 0.017005964754874727 -0.02430846543842034
-0.03156178090742785 -0.008535287196054142 -0.024098407002093477
-0.02497851290982296 0.022022819622813605 -0.019341927563294822
-0.01620137359587711 0.028961824844928152 -0.01353433850528843
-0.026951265669703104 0.019711482867539955 -0.028969594744597333
-0.0278987336453137 0.018026282206926182 -0.01778254122325812
-0.03149837228557631 -0.008742976721908224 -0.022077765927864493
-0.02347411380869266 0.023651745600588726 -0.03181495179997767
-0.031728696821437995 -0.00798144799781572 -0.02549600682409333
-0.014289384163579333 0.030102799265717767 -0.016739726304281357
-0.014367557559128679 0.030053537504052034 -0.01643294249139976
-0.022117982769220737 0.02480168768360435 -0.010975352535881961
-0.032794844256353844 -0.0018760311708010812 -0.020196039081839364
-0.014103314554457253 0.030062825510808504 -0.01803091859030806
-0.032730818802519795 0.0033797564015453597 -0.01587846300795208
-0.019225285689657926 0.027177847165855428 -0.023096684785442793
-0.03204613832137075 0.007975745277628423 -0.023945824913732913
-0.028778394133970424 0.016479550804673306 -0.017163445612156412
-0.03222511075948489 0.008514246140827623 -0.03192788747906379
-0.02477357591879329 0.02219338442946766 -0.016874575937525806
-0.030173809221320715 0.013887347966565596 -0.02182985612751622
-0.025151306117373526 0.02197583051214149 -0.03654140501568291
-0.02500388610239369 0.021978361839026066 -0.026420055386524637
-0.0325870926725091 0.006436880620815692 -0.03108917933384794
-0.031742594737994234 -0.00777933816618504 -0.020057002097105425
-0.029021130281116542 0.016948835883591855 -0.02818400158387082
-0.023086320261049044 0.023922646027898557 -0.014623277630324021
-0.032955837617848746 0.001979462609905216 -0.023087030274851622
-0.03210103659841783 -0.00685426541733502 -0.0243171474645975
-0.028657057722967106 0.01675906417913485 -0.01967098654325912
-0.022357265374148644 0.024666523083311194 -0.034736600994679415
-0.016797923323852083 0.02876638436697563 -0.02236807470291423
-0.01836622996013555 0.027801788623151608 -0.028022146350053227
-0.03040298642374114 0.014083737221816278 -0.03224000251080738
-0.020355824160415342 0.02631305959680204 -0.013824419329706149
-0.03244397109249766 -0.005054086487364941 -0.026095979306312914
-0.012765217176767634 0.030643891649967316 -0.019434796205299233
-0.028727652520144368 0.01711314727440148 -0.03591681720111642
-0.012671574141552046 0.030675886103251594 -0.018878177001978223
-0.029365829138617305 0.015333273384173373 -0.016000497866283967
-0.016812784405816322 0.028715502129817033 -0.020181550067267778
-0.021615424324354184 0.02521961655026793 -0.014990783095662576
-0.02449751188935563 0.022472053482761437 -0.017646805310329867
-0.016414753241929238 0.029072190164825786 -0.01171949737322681
-0.027206150699419274 0.019023657521565013 -0.015143729722685474
-0.025269030093868487 0.021664741426462866 -0.017656598668351915
-0.025356178548346296 0.021576745852940074 -0.01788531386835306
-0.012786937755403707 0.030724307624403115 -0.02544208935831093
-0.017091326489490084 0.028593506841506296 -0.02480290435143008
-0.024654309156399597 0.022302506068586386 -0.012378944413894127
-0.01767861543782953 0.028274974326187256 -0.024460663678426947
-0.031890579637512684 0.008166771641504835 -0.018814198395283303
-0.03204111269182125 -0.007029971681213413 -0.025402111882863367
-0.030837466842407128 -0.010581520076788198 -0.020841268891615857
-0.032352078066868704 0.006126959363803579 -0.013220383267081796
-0.03234296722231862 0.00616693357561417 -0.013430388658340958
-0.02094247936595514 0.025813681138249712 -0.01902693062972086
-0.019334781233656215 0.027102521018546294 -0.023599862058329403
-0.027522285999710887 0.01887352748998509 -0.03721559861668629
-0.021100008427746973 0.02564938165821851 -0.015693813671449057
-0.02526608830987643 0.021757217819586415 -0.023695487165332395
-0.0325517343966977 -0.004232123935695753 -0.022445095485211383
-0.028425676655138635 0.017661617710266822 -0.027830940622237135
-0.017706339055435314 0.028274361718677598 -0.026927418091244368
-0.026410052618156956 0.020453297052853533 -0.032984526450939584
-0.013824200727091897 0.030414744247339955 -0.03267356354180581
-0.01416013510151028 0.030266122667042167 -0.03329557657219301
-0.01963170041791874 0.02700010463465937 -0.03430651761158387
-0.020636282072093982 0.026242166552852803 -0.03027173417487952
-0.029445414794825635 0.01533549593376104 -0.021864028697918658
-0.02957552767240413 0.015083672090510179 -0.021993343403205745
-0.028534746899958607 0.016989201693250265 -0.021415451269967547
-0.032072040300876715 0.007630343622227654 -0.020312468544289048
-0.03295029158878305 0.003232694553459847 -0.02720882366809889
-0.032965679588969954 0.003055065600578598 -0.02714539769774073
-0.028718792236910245 0.016601595025239085 -0.01749791657274744
-0.0311187215614866 -0.009920162418650735 -0.02051451042503868
-0.021970315139516992 0.02500917216446352 -0.03356669025409612
-0.018440424124713403 0.027873198629311795 -0.02934244587503915
-0.022479804221858593 0.02454471984563528 -0.02189742125639491
-0.022892172530472522 0.024264846233525032 -0.022235076422037356
-0.030899389814538478 -0.010697819733246877 -0.02478719171175625
-0.019439748314257512 0.027120544687558472 -0.032497765036728285
-0.03131813632064187 -0.009437392860604799 -0.025361422943694083
-0.024778724554823307 0.022247892941444334 -0.027667744216520986
-0.02084226754047846 0.025906076393826905 -0.02396717659968526
-0.025618507442647306 0.02109807149259911 -0.010562864372394658
-0.028185740834825244 0.017587291787751612 -0.020845622526724672
-0.026099677391277477 0.020862045107814788 -0.037248956783918236
-0.023399121130773158 0.023638587901245626 -0.024270046421163614
-0.027254360380777408 0.019195760367245275 -0.030287302427188096
-0.032234913543649144 -0.006237250063685891 -0.0195179669429544
-0.032202974446812915 -0.006340648683006907 -0.019405121626049147
-0.01773194194672745 0.02823512392548598 -0.020521494765610937
-0.027990429259148807 0.01821316791796469 -0.03623171258176092
-0.024351826022067397 0.022862013336004187 -0.03336799325193125
-0.01520965336970454 0.0296098071013329 -0.023636564941030874
-0.026890591582533103 0.01948963697896935 -0.015441505956107764
-0.03134034185058995 0.012062895405006002 -0.030542910674027174
-0.0276934131697674 0.01862478832184337 -0.0314418706986443
-0.02921781706104599 0.015621538334455894 -0.015840292851697194
-0.019136073669560202 0.027288278818618755 -0.010767450581563675
-0.02027813512153131 0.026468910127683695 -0.010768053274267709
-0.02629594154935433 0.020612683218171755 -0.03501019382752882
-0.02983953721317118 0.01529450230156188 -0.030677847615833132
-0.025513451828154683 0.02145097689911014 -0.02280046338426535
-0.023054790315364858 0.02400249634169182 -0.01751120162190281
-0.025606201117655967 0.021409742374531936 -0.035588293544609295
-0.026199729022766308 0.020425602609422326 -0.01403102328524432
-0.03138804447936659 0.010416085059763503 -0.018724554747825455
-0.01994624575006824 0.026594551607963566 -0.01956299087715369
-0.023795284157451017 0.023247155849757683 -0.0206482498972429
-0.026326411177607825 0.020692502045672134 -0.030736290137895216
-0.025412093582430663 0.021474301091376886 -0.018721602584688822
-0.032653708117124064 0.006078025465194074 -0.031789507024709174
-0.028909446429983415 0.016217903992927992 -0.015391500216639827
-0.02977516330834718 0.015349067860352677 -0.031157996747563182
-0.030892185921193676 -0.010709448100285535 -0.024441000512983795
-0.032648525584481614 0.004254530780751361 -0.017602435018056875
-0.02106956690731072 0.025870065739091157 -0.02892076502131418
-0.021826811372411055 0.025141229920274805 -0.008056111396768317
-0.026002554849527338 0.020802707003798385 -0.017759306574293938
-0.029767300669840527 0.014528570310454894 -0.016234581550565615
-0.018190655967789963 0.0278271428658151 -0.014639217794063233
-0.02806694450259176 0.018193141120338218 -0.03416585667216023
-0.030940453276790486 0.012037426467064974 -0.018684810318735257
-0.017209063315839553 0.028616095107042976 -0.009588800995000655
-0.01755202177213458 0.028408557116069044 -0.03593116702258857
-0.030625744481365368 0.0126973594994347 -0.018234247102500847
-0.017497819633345908 0.028337369526044837 -0.01778578364524021
-0.017471223742260317 0.028476343133007002 -0.018510506645819578
-0.03102464323469334 0.011773077438328004 -0.01914911507596714
-0.027992380634312922 0.018109289497906682 -0.030955160484909806
-0.019172442982063623 0.027188023898465315 -0.015580633584793006
-0.030796165861001253 0.012401868813971189 -0.01924837798443383
-0.023151851382175473 0.023924917954644034 -0.034395565399729086
-0.02275155913126465 0.024343733288256595 -0.00983580538311106
-0.022611118732038908 0.024421847378370113 -0.010281031285877928
-0.030605520026530095 0.012835879087763676 -0.019304893012520266
-0.01807103783453194 0.028010220721175677 -0.025333782280819592
-0.024479639539364814 0.02263093752779821 -0.023332417070896283
-0.01871128905745353 0.027580294851157122 -0.025533078139865745
-0.018281504155076428 0.027974091050830416 -0.029496264555408887
-0.016064637737625186 0.029153028662230372 -0.015394914021252388
-0.01621315175830157 0.029081723546274904 -0.015273899927722783
-0.03274764840060521 -0.0021819153737467414 -0.02152270098254791
-0.024832126324722995 0.022309121600570747 -0.036782066148388026
-0.019010801504227428 0.027477101720080124 -0.03493290402956998
-0.02295958312740343 0.02415182134895042 -0.024728519633420796
-0.026001468188784262 0.021013667846591682 -0.03685144526496736
-0.01734523401472314 0.028655870693325244 -0.010697126087757317
-0.026538275583852185 0.019981410165380575 -0.015127400729738078
-0.018330964407311627 0.028050610657681614 -0.033068907321173374
-0.025564540839564196 0.021463922203260204 -0.03421881838304559
-0.023932216824759694 0.023316268211808225 -0.03300502498023328
-0.028757952400345697 0.016596046484101585 -0.02114646504483489
-0.03061960016029852 0.012615434832350243 -0.01531604123943238
-0.016149129400972018 0.029328171599346482 -0.029273345117221655
-0.0286539006260942 0.016652674902598665 -0.015231619079630053
-0.02770588554732406 0.01824028194048714 -0.014878527975059726
-0.0284093640848279 0.01762414996981145 -0.03270520190038252
-0.026761044998655063 0.01976869133594708 -0.018713861251642313
-0.028080525014184343 0.01770444437905679 -0.015770490432179034
-0.016791870388690563 0.028858648692310574 -0.028940878504548666
-0.017847071002488217 0.028152903021874835 -0.025624329427939956
-0.02029875046982202 0.026450727076842248 -0.008459535373774795
-0.020432989761308723 0.026296444067940503 -0.007575625749116535
-0.021965221902196 0.024982507006339055 -0.02652563851811808
-0.029032896831783096 0.016805403643320997 -0.03455404182784751
-0.029547462351603295 0.014964230423891377 -0.016169881203791165
-0.02004663734293303 0.02665906443518425 -0.03236857151425677
-0.02136063917705285 0.025576592741957886 -0.024513709347580244
-0.025779603891139934 0.02108392649924153 -0.018658422744012138
-0.03244796450035183 0.005155312828263268 -0.017975574787264
-0.02523231179662654 0.02162479254817644 -0.013014355218715048
-0.032151819338812664 0.007283024547349789 -0.021967013183877174
-0.02199682156547706 0.02503371196875788 -0.008297067606403396
-0.022106186777788337 0.024889749956409555 -0.012345153091972
-0.026914857069926447 0.019443288851107073 -0.014902592881464106
-0.022653397258457563 0.02443001946898988 -0.03376911214409416
-0.019767965450210624 0.026818926282930335 -0.00807082319913722
-0.023551720638801475 0.023517914524125366 -0.02467894061723298
-0.01786624603150062 0.028137682068592088 -0.009595552308929894
-0.02358939716466496 0.023412762209602124 -0.00915463958568006
-0.02367217132518458 0.023338867388993722 -0.008749603308199577
-0.021388813757083958 0.0256774037326669 -0.008524530749679666
-0.020777343084895507 0.026118585421430827 -0.008660274384970855
-0.031116705053989002 -0.00999410542455609 -0.02315028128286508
-0.025359760372334325 0.021497998296476042 -0.015244784573365033
-0.026794283230652884 0.01974612209957496 -0.022211082981108743
-0.02140035771402378 0.025373194430269995 -0.019965675749980955
-0.03145656895470614 0.010431064763503257 -0.022883652919117713
-0.03279414325584601 0.0037482631403277927 -0.020323071798147917
-0.027318811838424696 0.019335277956795884 -0.03313730012699936
-0.01886914789720441 0.027373634073278644 -0.007386964017712621
-0.02191598892224851 0.0249969241234857 -0.007575448287149461
-0.032529620317539476 -0.004822389425842822 -0.026829677291200518
-0.028435564508550525 0.017460694036172567 -0.035148919137559125
-0.024938908022634175 0.022002283207583656 -0.0172801170750334
-0.019865587127918343 0.026666143433813728 -0.013115253438136529
-0.024250045876890416 0.022843129003585705 -0.027478975036569202
-0.03271676564033767 0.004576317884285989 -0.02317652293150289
-0.028893184079899315 0.016990975440829458 -0.03310888855168149
-0.021077576980376163 0.02595600972737446 -0.03208880666043567
-0.023089321927874554 0.024077642186828396 -0.03135716356072086
-0.031468698381989096 -0.008739093526927168 -0.02100686670903136
-0.021055841572245482 0.026006505097182588 -0.009775750638179597
-0.02059985241394628 0.026121076444866186 -0.007305011992337004
-0.020768912939967354 0.026046368695665165 -0.007748380492045167
-0.014924801617835045 0.02994090037763107 -0.035204322620117384
-0.025178642070529667 0.02171427043865025 -0.018481275134046203
-0.017915549462630832 0.028223922459400988 -0.010380915916721264
-0.01837543658367046 0.027743287105323325 -0.021481060912993004
-0.02331695893980177 0.02384746190025267 -0.029306268225435517
-0.02140960611184303 0.02573676610874579 -0.03687781787914347
-0.02255223304563176 0.024416857603101517 -0.010709098936096744
-0.017308888249530988 0.028392600104767008 -0.021872873132704706
-0.017980064101477698 0.0279795661892381 -0.022099968603346096
-0.021640034764283743 0.025291718397464785 -0.03301310165042576
-0.019416597332172526 0.027152437887353956 -0.00853111224604947
-0.019397260397915176 0.027077391335549136 -0.025466966656702984
-0.02526403183739943 0.021718117980521295 -0.026651402519119734
-0.018210812872199954 0.027885449232337916 -0.007256020588789068
-0.023917377095297704 0.023133430316624286 -0.01606917594056231
-0.029179563135646992 0.015803546083644038 -0.021142923828888435
-0.031954741253100175 0.009492985246793803 -0.0333118067724783
-0.032605543315330436 0.004668654284770693 -0.0190992089195207
-0.018456978614852036 0.027820307787508124 -0.010827897481028824
-0.028571241505833907 0.01729569750112977 -0.03623162112655974
-0.020862422312009462 0.025892147682457716 -0.024622018025653863
-0.02649804198126874 0.020154062589520048 -0.02234912073418529
-0.019873561631671824 0.026771440915747995 -0.008926601704514868
-0.023517475610906117 0.023693893399871713 -0.03052852213258233
-0.01936203724633905 0.027085166828546954 -0.0077438303293681215
-0.01949786755139278 0.0269872644234931 -0.007683531559870432
-0.028319698646909752 0.017196407704787982 -0.01384198148598137
-0.028214315173975567 0.017389465619262495 -0.013994170045045301
-0.02128516351642655 0.02568074114571931 -0.030821142341194197
-0.025164442716396066 0.021944919073102816 -0.0352548491371708
-0.023234338313620394 0.023725084601994833 -0.010669188385990895
-0.022127574862509887 0.02491267089882224 -0.024971716275190185
-0.03162793462337539 0.00977887976720347 -0.023538143940549993
-0.025462481108500284 0.02168804194265348 -0.03167630049048293
-0.01986256736602046 0.02674235077914016 -0.009649378364871303
-0.02004495138513532 0.02663268400026592 -0.009406943972827916
-0.024067926372271974 0.023112339350840054 -0.029665626634359912
-0.01963068329900765 0.02691690162109368 -0.009143264285779225
-0.019096837596763467 0.027263264010793046 -0.009269181268262294
-0.029637042644398197 0.015695421892344668 -0.02919756171612308
-0.017208248054339185 0.02858882935722378 -0.0157239745085767
-0.02952530167825444 0.015134897801996738 -0.021019173303323858
-0.023500292119721173 0.023717691164482465 -0.03028898913734846
-0.03237068903482624 0.00615473298962411 -0.0201401018243223
-0.019808094876243198 0.026714071234496428 -0.02057237506724172
-0.025493570853339132 0.02148022513073587 -0.029485247293293576
-0.021225172069907795 0.025731785885931245 -0.01217082913969626
-0.020510903484143785 0.02629375273376721 -0.011474168857696827
-0.0209909907347473 0.025942524849532286 -0.012298328225176146
-0.029120365817111353 0.015766357308009484 -0.014401760141470064
-0.020891684811601276 0.02602425682567678 -0.03010430907240168
-0.024998009385817668 0.022079717058376646 -0.029128645478067258
-0.03050768086932017 0.012977577162597863 -0.01641400590988221
-0.023512287771613148 0.023715222971742785 -0.03337442651571104
-0.020774855194228732 0.026087554661043143 -0.029092424908556867
-0.017579494250301007 0.02828647434213378 -0.007657169291554372
-0.015328022749354003 0.029557716932162924 -0.025926526248465
-0.03317833273635858 -1.4067406703050021e-06 -0.028342535132509537
-0.01568316965520987 0.029425645858895733 -0.027316684562277267
-0.029790555621466975 0.015416922933491378 -0.030539092044709514
-0.018907554604134805 0.027461478738759867 -0.010814634723791376
-0.021807462362650538 0.02516590294487992 -0.013739476242770835
-0.021380457031518533 0.0257467931569279 -0.036579628479513494
-0.02896229492818361 0.017015554953129806 -0.027834243928047064
-0.027276314289292287 0.018895634792914673 -0.014698043882788699
-0.017540979250228322 0.028208451959185386 -0.013108874200733745
-0.01815061375066182 0.02795323137856318 -0.007997715492691215
-0.02640993020472539 0.020277278115642783 -0.017824632352454444
-0.013831983743017261 0.030705766087233955 -0.00926533760201758
-0.03153461206277636 -0.0085812186893973 -0.019006673820978585
-0.02127013287913366 0.02565825738188255 -0.013928077677721692
-0.022694075628452243 0.024405425272892484 -0.033566914011545476
-0.026967840651713877 0.019645676841375886 -0.024649260204921145
-0.025837963504120154 0.02112978642693443 -0.03023502187632092
-0.02633563459521105 0.020664395399713327 -0.031500203866370216
-0.024316136451994826 0.022899286449905645 -0.033723087265259605
-0.02000196638482616 0.02667520335534776 -0.011025721296604235
-0.021555640521053486 0.025267805144871508 -0.02183605214196275
-0.02283340692267214 0.024403650596698617 -0.031821166918600007
-0.02665639280517214 0.020017105390023396 -0.024030562562002887
-0.02091946195406822 0.025957278754537925 -0.03391570724880698
-0.022026669150770457 0.02494257499553947 -0.03641637232972889
-0.025887259786666155 0.02115714111484788 -0.03390980826937286
-0.020304255549589187 0.02648231831443293 -0.03305870865131909
-0.021021812275645087 0.02590269450764996 -0.028654135197610946
-0.02433609978200785 0.02267450472703212 -0.012945379973013496
-0.017886095139431436 0.028040274871476 -0.016874561342332194
-0.018010330750991857 0.027996314219295135 -0.01717538517784769
-0.018395970625156202 0.02789144498067514 -0.03425367633041601
-0.028836427276665976 0.01628696195047254 -0.014114473849126319
-0.029518514026328897 0.01627336888126587 -0.03030109903822958
-0.021871692179400274 0.02506033873525371 -0.02360544818067193
-0.018010841766156672 0.028006909036663648 -0.009563785742327574
-0.020829281395626714 0.02610433830550482 -0.03416312958292877
-0.02007569257030925 0.02661540151006386 -0.011507251086374314
-0.018914110588428436 0.02737198456448423 -0.009906051910756419
-0.023468202248559472 0.02367264581420684 -0.0315445000384369
-0.02468976816631581 0.022278300318098652 -0.015452155760365197
-0.026861212558996227 0.019552829948326817 -0.015982994262828905
-0.028372927853293754 0.017597112445003525 -0.025774896235211574
-0.018658893988575634 0.027594887459815472 -0.02400760585345171
-0.02527257575735377 0.02175154607269107 -0.030540733205350865
-0.016942879350752473 0.02858787125833459 -0.008393710689786804
-0.032038521482902066 0.00864335886801609 -0.027345146995385476
-0.02708024162671619 0.019193358117705193 -0.014150916577351604
-0.032464096161526936 -0.004921108352557121 -0.02408854305118549
-0.01579267970110868 0.029446055058797802 -0.02837951365424848
-0.016116542886059487 0.029318949664038804 -0.029019932542371063
-0.015598483499152858 0.029467135554125935 -0.008509606510829245
-0.015878123580249474 0.02937455896324264 -0.009206883053190272
-0.026293546239306784 0.020534728755832798 -0.03538866729885266
-0.01662540670829354 0.02876639478275085 -0.008530689750569406
-0.030606706128448596 0.012996256206958498 -0.02364203387767086
-0.02982372754088814 0.014367863394653927 -0.015372179661429102
-0.019472829955435644 0.02694079474710399 -0.012200658183161255
-0.02309334276133519 0.024054947194976688 -0.032288896470439615
-0.017107354941886463 0.028739132808992866 -0.010101528394385932
-0.022800788779409283 0.02445331395204443 -0.030512356502640114
-0.013155563182022288 0.03062387267205639 -0.030608291806127737
-0.017998069033555553 0.02807143195677878 -0.026754759535230963
-0.016850010433648567 0.028648755415633033 -0.008756298371861591
-0.021713078687900324 0.02554431306177611 -0.03709468400400246
-0.025649793476460125 0.021374923477949233 -0.03184215721253557
-0.02801757554378844 0.01806480235654244 -0.0371890158731379
-0.028593635559593295 0.017367665157584727 -0.03247880079150351
-0.016166342290849633 0.02916052997006545 -0.009084824849624603
-0.020401754476059537 0.02642043103056117 -0.008945667718032882
-0.031985891456810724 0.007964180653770593 -0.019528879324008826
-0.02362305779941615 0.023540297112953266 -0.02897867555819772
-0.026427920312132896 0.01999224991131352 -0.010989971903847312
-0.026935755853206483 0.019401252261174347 -0.014096538710353742
-0.01733561845634033 0.028413939195195956 -0.007686662683053105
-0.032875937241896615 0.002382647980246407 -0.018706616211781296
-0.01683568884710091 0.02879823267377201 -0.009287485957385854
-0.016719152057578707 0.028984568994587928 -0.010102386722877589
-0.02739823377568202 0.01867596325259615 -0.013712522024353628
-0.03114691654405406 -0.00986748713661338 -0.02241113883873165
-0.022515424706387656 0.024601522747139122 -0.03259651665320619
-0.02077014104605828 0.02596026801026202 -0.020675461157896556
-0.02153615569515156 0.02535607131645838 -0.02298354101853041
-0.028192087526091845 0.018029504400424366 -0.03408820574522931
-0.024695872289503783 0.022454434160920002 -0.03668132490551753
-0.017234750817535397 0.028534556376728294 -0.02369911881355085
-0.01397832516351806 0.030565254332986264 -0.008756791970928372
-0.023367266957213202 0.023842500176145275 -0.03341171001001578
-0.029025182821744634 0.01611647135829539 -0.021951217470966556
-0.020039277276290866 0.026641906953931857 -0.02905833587282861
-0.022426792618191572 0.024556746525808484 -0.029005775968741022
-0.01667726135762576 0.028987426987130804 -0.009869019988209719
-0.03254669290770369 -0.004645348074612935 -0.02902765107788392
-0.02739480393846197 0.018842459080753673 -0.01953629201354116
-0.02229917974444357 0.02469437592833342 -0.035496679680394
-0.029640922791239293 0.015727360958285613 -0.03061450102569428
-0.015513178428037637 0.029483724792365332 -0.008264160153560076
-0.029566746003234508 0.015833512216668403 -0.03098857629921411
-0.01670756019119907 0.02872368667194878 -0.008091388856389084
-0.028071986614020744 0.017546993811267883 -0.01032852646435953
-0.02799094915397538 0.01767952220658835 -0.010013726729397949
-0.028157985859743245 0.017398654179607575 -0.010359059433101768
-0.02867065003691892 0.016531310394281445 -0.010848636253108114
-0.02800156020157866 0.017633614654373016 -0.009332385756257588
-0.027650009385517378 0.018218482948659624 -0.009194809497140525
-0.016394052687049923 0.029189712139232757 -0.010438503871144214
-0.027684969740894134 0.018200098028690173 -0.010849805728827235
-0.027458437606022616 0.019075690342035434 -0.03635504439689975
-0.03144672345437849 -0.008815381523459226 -0.019120973548505997
-0.03137716324282994 -0.009096997754190326 -0.019591442501477485
-0.016808415786389624 0.02887670851620179 -0.011328103775299463
-0.02385817276105066 0.023267046678437944 -0.027734905206825474
-0.0306401295390684 0.01294170199209739 -0.023850314437991987
-0.021522461180545273 0.025290333251614484 -0.021984013183530486
-0.021775918553177773 0.02522415655235597 -0.025106545929676625
-0.02647025947940023 0.020177361541108642 -0.018888939025784843
-0.023297179085396767 0.02384782737347316 -0.0340919809675366
-0.03254442353004261 -0.0041643373408594125 -0.0168775549421493
-0.02054928117007941 0.026131732519474288 -0.0217893585912059
-0.016434547022595253 0.0289991759288893 -0.012438792962725861
-0.028841638774934654 0.01680812747559962 -0.036498638315652865
-0.011646169507876088 0.03125001809137415 -0.029752697635454455
-0.0113677548176343 0.03136828602581654 -0.02904019060397546
-0.017646536243897185 0.028381210239145527 -0.032012599312717285
-0.015986571273717796 0.029324350509777768 -0.009515608338115437
-0.017693790810040688 0.02846871832097493 -0.01087792012822796
-0.0326117985672977 -0.004310655699010676 -0.02752139402713709
-0.023565396972692183 0.023644549040761617 -0.033017953810163606
-0.01404370953594369 0.030352098864137596 -0.00809472280794145
-0.014211052700436206 0.030324392261660643 -0.008475971382957095
-0.03202959391129518 -0.007060044865966104 -0.019493136862144062
-0.016166827519850838 0.029294171534948107 -0.010465376600614959
-0.017663581950213017 0.028148841774380942 -0.012670091887063525
-0.032874054379514094 -0.001365362866661263 -0.021160404973831037
-0.026957139322213185 0.0197362103394735 -0.03509730830197192
-0.021705091193605183 0.02541351975639835 -0.00858835848910214
-0.0219684079883711 0.02499782747955919 -0.02802857588993537
-0.018742584734499405 0.0273903752687723 -0.012468369317303014
-0.018622974451457656 0.027484643860161324 -0.012296248066847017
-0.018655512158203734 0.027563196028780663 -0.011685558801736589
-0.02789419252247935 0.018367628605152352 -0.03613537075143828
-0.023391872186709493 0.023634920456052137 -0.008919033880913177
-0.0232608114279368 0.02384261459577669 -0.02762879286767747
-0.020669527119261896 0.026166180454412335 -0.02960046510137273
-0.01910586456770621 0.02714436718599392 -0.012409079177671208
-0.03212620256929773 -0.006706969259217554 -0.02008896933199523
-0.03217401617643417 -0.006506677459375156 -0.020289809879393685
-0.0216796487679742 0.025192713005101577 -0.011625488277514778
-0.032880749537577574 0.0025323861067747654 -0.01935735655919119
-0.01886629601603154 0.027518948748517617 -0.011201235196661748
-0.023383784921921398 0.023754905385821402 -0.026654346346706038
-0.01468011735670388 0.030136241751094896 -0.009623069503764634
-0.014658117318686348 0.030176505410890078 -0.00931935297383486
-0.028133278507722216 0.017444803242423115 -0.011540110835968002
-0.03186066188197108 -0.00762197532533245 -0.019409880089308107
-0.02446420043225951 0.022724215725843176 -0.03383187704382726
-0.028576854581597692 0.017322814227531305 -0.036758674478163236
-0.032234790220676976 -0.006241953754305665 -0.020477934743907116
-0.0160228600995078 0.029337112812837175 -0.011354086199517856
-0.02874939996299057 0.016607158779482104 -0.020964021794443635
-0.014102523300844851 0.030279827736103066 -0.012408289285269766
-0.014462752707639583 0.030122574503071504 -0.012058852266720023
-0.014220980043550074 0.03022773117373992 -0.012366282192847456
-0.02265848439147263 0.024385753875115698 -0.023606794815672162
-0.02248659616130806 0.024603587092085804 -0.029370916998179203
-0.019923091399176987 0.026704771229675954 -0.011777679132840736
-0.021437287514888888 0.025704701473521056 -0.009937504139357688
-0.017641605793602598 0.02831213719547542 -0.011607463389374103
-0.03150091485526481 -0.008586533529109961 -0.01954190301878921
-0.025811032645571275 0.021084282525290245 -0.028590761796572564
-0.019725737138560646 0.02675765314195476 -0.01362288666634543
-0.019074260626758523 0.027294064929649774 -0.024266755508692735
-0.03174063927897771 0.009603008168282147 -0.02503092716582884
-0.03178834609188762 -0.007614217879889266 -0.020358581832449194
-0.03206818502676301 -0.006943851469562396 -0.02020547413653611
-0.03263386044854982 0.006035069965504002 -0.027329092924593325
-0.025494585446644128 0.021335354604619567 -0.014387798414494387
-0.013498046680641643 0.030489480504143567 -0.030013848006682626
-0.02751658096798901 0.018500049464628687 -0.013009825469249963
-0.018339218332840607 0.027788209341402022 -0.023264180028947402
-0.031731927292655 0.009109402538716485 -0.019471184981298656
-0.021258905469907538 0.02556176717882603 -0.011058345320725485
-0.021532778531598882 0.02546806431232939 -0.032229760257491455
-0.028392826972866304 0.017215975697267828 -0.019610180290350502
-0.018776061350502762 0.027557486652731618 -0.02661032619346748
-0.020416404219649062 0.026293795338161792 -0.013558727310285274
-0.032199928552929954 0.007075330021173925 -0.021389830591960257
-0.032575682431974576 0.004637172895178315 -0.018276934282972078
-0.031835110077431596 -0.007802866795363251 -0.0219997223923466
-0.01760851600945513 0.028283663024902556 -0.023568959704064876
-0.023612707489109104 0.023430966757011073 -0.01811337473616452
-0.021125593909798374 0.02583972015798188 -0.013103421461349365
-0.0207313691071605 0.02615883192965994 -0.01289758992198924
-0.03234431736676701 0.0058419949354093954 -0.017515190199099685
-0.03173779673369845 -0.007841827792659612 -0.020938859788520905
-0.017333086831558014 0.02847256080407315 -0.016010968903372457
-0.025250576415180623 0.021757713642982394 -0.03291429380731817
-0.030937014971045472 -0.01056655528880684 -0.022494337984381642
-0.031723190687397 0.008984163792337463 -0.017773611479488305
-0.031470830679408694 -0.008600664485787647 -0.020298218649199395
-0.021764288124324783 0.025275533206113004 -0.01306163908989115
-0.02473857878999991 0.02230009859162323 -0.02585104154191012
-0.016106141590314055 0.02902605970865268 -0.013667019350242438
-0.01590390197173952 0.029175967394732584 -0.01401104888350899
-0.02413965514205164 0.022957796948581403 -0.02765211368704741
-0.028535454930965883 0.01689930395194534 -0.01674776932464699
-0.03165944907576709 -0.008124648046622534 -0.021190453298509052
-0.025402783888938713 0.02165198918542159 -0.03479059081622603
-0.02305282243381501 0.024088529875476456 -0.029590885356117848
-0.021076583306310924 0.025675135519753332 -0.015059726766576173
-0.031811949976288216 0.009474398963376067 -0.026703183942091584
-0.014189864704059588 0.03011455437953796 -0.027723716445862124
-0.031300398599003916 -0.009268730559889311 -0.02040418247264027
-0.020082563957167253 0.026509812232800266 -0.02168068648811671
-0.023037705922382926 0.024000237266960704 -0.020841813872349794
-0.03173682498279899 0.009063769617234332 -0.019378737109268275
-0.028363224608425473 0.017108045965378967 -0.013519305046500235
-0.022428163430118973 0.02474276383232377 -0.031799158329507964
-0.02292197599571018 0.024165363168940246 -0.03610724379653824
-0.021867279895859515 0.025009460108205074 -0.015939472863665448
-0.02441419955645467 0.02266634771603026 -0.02849209920410606
-0.024128121371436592 0.02288099661887847 -0.01172297838677943
-0.024014152498516343 0.023020732593605733 -0.012362239674182667
-0.022108449870955546 0.024883669415719383 -0.027832297213732614
-0.022330998363621166 0.02484390725017776 -0.031086805052303323
-0.023940231042236422 0.02331160394213832 -0.030730896797048032
-0.022959132429657362 0.024085111779073607 -0.01308256894163588
-0.025920714717133968 0.020870649206373867 -0.022517084469420356
-0.024342798822829796 0.022876511437251938 -0.032830967617094434
-0.026709767624502743 0.020042940607984946 -0.035450965414355745
-0.025430124483424556 0.021474076339864194 -0.028372857961428025
-0.011485484198289934 0.031353396725632476 -0.03080270159335543
-0.02109430887889696 0.02575334836472218 -0.026834160058015914
-0.025515580170636664 0.02148256381985981 -0.030204195937635174
-0.02235856253761344 0.02458497175142763 -0.015540995950566832
-0.02408692155775069 0.022939854726827268 -0.012953411537606058
-0.017823376580718038 0.028186993358775173 -0.024626974984062272
-0.02848146333005659 0.017192663467941533 -0.02418250531048107
-0.031651170503699665 -0.008219847643307455 -0.02380914553288633
-0.023206629521826727 0.023810239896851753 -0.014302611816774013
-0.022305594878156216 0.024646305952252708 -0.01595782586551372
-0.022522403747788203 0.024486164576345802 -0.027200993762356844
-0.02296291211643381 0.024046650702863142 -0.014559472587981917
-0.029362691627747267 0.016141664844607793 -0.033444305503621485
-0.022750587393270443 0.0242065308604051 -0.015231641790795681
-0.028277034702445473 0.017211364999901554 -0.010981123641069249
-0.021935716250869618 0.024953673984260034 -0.020026502444612376
-0.02817825114120121 0.01782259495545164 -0.03709090798397199
-0.02157075969311984 0.025423019218416245 -0.034727015112560815
-0.020785641663097897 0.02601908315406396 -0.010836569685084348
-0.03047800205358112 0.013035300072701473 -0.017580719209318113
-0.024095014237698505 0.0229129455762973 -0.01360831514515351
-0.025571020580233386 0.021323331803908573 -0.02133091001372665
-0.02507471287671716 0.021849125830540096 -0.015389428276013884
-0.023687387026840624 0.023344881448022676 -0.013703631941025288
-0.027788734643186104 0.01851301906314684 -0.0353295011980579
-0.025052875333919766 0.021992874036096247 -0.024420419763324215
-0.02477349199630286 0.02235316354115101 -0.03447812300543207
-0.026878380076936596 0.019821943106258604 -0.03287168485238147
-0.022706230840596045 0.02440777597753824 -0.028011362040234244
-0.02479686465725022 0.02213875487082844 -0.013515877723972163
-0.02348268355038082 0.023670304457701807 -0.02776645164159705
-0.026693336322465098 0.019880433945889155 -0.008378827319270973
-0.030123651993176126 0.014538603069802702 -0.027114032839765875
-0.03311533427255801 0.0003738470112989934 -0.02776327134195831
-0.030507864276932323 0.012879474211755271 -0.013291838582866092
-0.024604693080831803 0.022472854094057332 -0.028831438438626747
-0.024072502355533935 0.022995849140188783 -0.02849195568888708
-0.018340390180822185 0.027729410087403036 -0.015740597084007737
-0.026800211772009745 0.020019765547107084 -0.032093287918191896
-0.026282596761462055 0.020760266987378907 -0.0257725834558606
-0.021456252139211866 0.025416687186799083 -0.033787277175186765
-0.02479735827432701 0.0223116745173241 -0.02197144640112112
-0.03292186314460738 0.002755530581823914 -0.02484336857023411
-0.020946996095954268 0.02579966326118723 -0.016850857251725533
-0.022668398472763834 0.024299002282049703 -0.02877599918135952
-0.027989798526465482 0.017736451242386056 -0.013021073401757007
-0.020701990988883055 0.026042716717457233 -0.026303519417151335
-0.027690284998041503 0.018571914283326996 -0.024677122755095197
-0.023761008603084798 0.023290966654671924 -0.015195025548271568
-0.020271759517224222 0.026353372256136036 -0.020248207932116232
-0.02786304625957879 0.017943552760728926 -0.012926263481621798
-0.02002304078716379 0.026639780449077676 -0.014899870319858394
-0.023476410535110463 0.023681166183049503 -0.025629827795581553
-0.03157238575289651 -0.00850578762711026 -0.021948024663135442
-0.02381886103135818 0.023186586539018988 -0.008566512197171531
-0.024219904314350713 0.022653361223235677 -0.00837982162661258
-0.012810857114249615 0.03083785788934298 -0.032843116795450225
-0.02069673984174139 0.026141927447509445 -0.011838469514664288
-0.021639682356693807 0.02539743594321252 -0.02455036244391187
-0.016778248819882095 0.028922265753658395 -0.03134592358478773
-0.02747190499686742 0.019294442734855626 -0.027760074897586758
-0.01827702750048138 0.027929668234496906 -0.02875393226685435
-0.023672125242145604 0.023445200696173743 -0.028387622888302634
-0.032894484611410535 0.003144159637407032 -0.020950673354416006
-0.024653716261018328 0.02253596660516534 -0.032230350405386174
-0.022925055208191537 0.02413788387942161 -0.026757927304548935
-0.028456013149096654 0.017475619300954252 -0.03689410783401046
-0.030977776516416658 -0.010346435627433164 -0.021665769185292366
-0.02659227549433422 0.01989192122893771 -0.013797736678690066
-0.028479074627066742 0.01748126411110754 -0.03627742942988031
-0.025660616003263824 0.021124834003898075 -0.013993365132518355
-0.032135472797575816 0.0073678654887116375 -0.021008214176824525
-0.02247176957754176 0.024668742127101784 -0.0302145252616385
-0.0172006680576767 0.028523239615720914 -0.016267855536759374
-0.03125891362294986 0.012394290303027543 -0.03171823709529977
-0.01889000617454751 0.02740161291981667 -0.020765080388525602
-0.020971823406776578 0.025815115502497602 -0.02096520723561401
-0.022072056562415204 0.02494124699166227 -0.017164858006896853
-0.02858094426429971 0.016907811737110073 -0.018872199927625722
-0.016625929389784935 0.028792252787669715 -0.018110197514260146
-0.016598919007663197 0.028799752014828435 -0.018412228105615762
-0.026303870125480917 0.020510849650985447 -0.029676897945189806
-0.028481863290585267 0.017563360940133728 -0.034045200051456
0.02879874769050995 -0.012094565803432957 -0.048665306640777214
0.030220302461789326 -0.00962098112962757 -0.041727793072150604
0.031126197914806097 -0.006540177520294638 -0.03927218930876831
0.02512283164454311 -0.019735419288709942 -0.03099840795968095
0.030697991048143393 -0.008360374296417214 -0.038312165063629194
0.027961553773366107 -0.014811657843647973 -0.04721301100303295
0.030447406209758533 -0.008828729798916654 -0.04113131465271814
0.02780462055912645 -0.015588263677905244 -0.03809754497106339
0.027794825173392268 -0.015725559148701405 -0.02987968846590031
0.02823775273626194 -0.015095358074950901 -0.041885812930409036
0.022333328303805435 -0.022940884835396042 -0.03313595808077659
0.03217018310281043 0.0008664192858636613 -0.03993259890322891
0.022229778706131492 -0.023186465775069016 -0.031307741022533565
0.01944955250655537 -0.025174418092690026 -0.037050091282455434
0.026668235624128348 -0.018188413721687117 -0.043179108390361785
0.026652900103870808 -0.018197252584571166 -0.04295088586820861
0.029092003786324566 -0.012856386539825985 -0.04427752805960391
0.032221216662147695 0.00027443794672415435 -0.042124287689565845
0.027182853259570962 -0.014451123528221858 -0.04895460165508731
0.02544251267307445 -0.019865638673238834 -0.043791242027240024
0.03123784129882268 -0.00613106412421751 -0.036676036249358564
0.031069278620039307 -0.006862449620817815 -0.03580008859164393
0.03033516562723448 -0.009680081390839382 -0.036991016657346255
0.01936453358454505 -0.025291775053023376 -0.04341040696406489
0.028314041480630995 -0.013583904332948146 -0.0481331069893113
0.029514322843969265 -0.011584184136959785 -0.042520963463320405
0.030084955064610806 -0.009442166602398553 -0.04760467035336104
0.030319392831333464 -0.009250467115274913 -0.04663415549694457
0.027426348002699497 -0.014508027194641098 -0.0485580208509971
0.02763378323255458 -0.015458572233436737 -0.047505708117397516
0.030064034126327077 -0.009749141950579947 -0.04701336650072213
0.028515828834565472 -0.014277145294876817 -0.03273380681897294
0.029718616173507066 -0.011118640906241133 -0.04200277455707289
0.026312216057066875 -0.017986758248323166 -0.03869049224347959
0.029766065462080223 -0.01103715000324038 -0.04774478197208523
0.021622055469511032 -0.023424959678391317 -0.03451202320878441
