-0.0018285127768857472 0.03269148190869718 0.006107758668747727
-0.0017668812957180435 0.032619537391006155 0.02713319532387689
0.025810201099428026 0.02024151205285015 -0.009583037983532092
0.027066630900743113 0.018343207715626256 -0.0013442217383579863
0.0053219994281137354 0.0323520820608429 0.013654313312154822
-0.004266938466883964 0.0324825106777559 0.024509135806643375
-0.00034540017643322566 0.03278223437179732 0.008423734904015262
0.02729535447242248 0.0180586438078157 -0.004848863299750748
0.014048824369854966 0.029566251214502057 0.006129316384191116
0.015201157644699977 0.0288582652249557 0.02207411765363463
0.02529940053151104 0.020693335739953155 0.004586131260023055
0.025494539890803476 0.020431569554714653 0.003542634388111714
0.010747945882120077 0.031035734324062137 0.001471859948529491
0.02192995370664622 0.024257597733266374 0.01652370892374653
0.024345398779463283 0.021951968671258242 -0.010374783935791571
0.02435740260212027 0.021936884240779005 -0.010418152911418531
0.024923963742754678 0.021108315052038012 0.009351211764814068
0.024981281022810813 0.021184204699142173 -0.0035577747150507383
-0.0061906038981215826 0.032225844642064384 0.012046424340738278
-0.006598594274302925 0.03213916002262602 0.011597100868155803
0.026092224521542196 0.019862174089308793 -0.009744488672548755
0.024676880730948727 0.02145481747101822 0.022111013567838487
0.004152569622045844 0.032334278770549285 0.01693913275402734
0.029492661752256275 0.013895387279408759 0.010481459753599405
0.02951972116563281 0.013845481789566027 0.010689419825486147
0.006709096214594733 0.031894344192593474 0.01863928974514871
0.0284311001224059 0.01635836899085435 -0.008981574758171922
0.02855230240797215 0.015960078247943276 -0.00263713678960047
0.02684147703756911 0.018881496650463403 -0.009707178558974697
0.025914336115910083 0.019919915883442593 0.020723248581134293
0.018338441110647422 0.0270160342409519 -0.01631827491326176
0.023700455599373824 0.022481214618172637 0.004468804118366411
0.02411302351326153 0.022046047009174462 0.004234672250565854
0.020205437535566667 0.025652817434457943 0.0008774261725960843
0.025082658218421094 0.0210440105226122 -0.014703239811021635
0.024087817084791376 0.022210646440123227 -0.016128463281724247
0.024129302417215878 0.022158804145295884 -0.016029635490577673
0.031056911662316875 0.009869095431713326 0.018798692120648774
0.03127227416529066 0.009121249192412436 0.019131804717537573
0.031142209738660116 0.009573328433006652 0.01915479097615576
0.02221935672683147 0.023862749529757137 0.0011067364861677427
0.02259594729121489 0.023546000050494367 0.020787529646617016
0.017087975958532283 0.02813308726949714 -0.011164817805814676
0.004442251010114569 0.0323445493574249 0.019482493206220846
0.01656325378159529 0.028125534415452364 0.030882637303314937
0.023265185607177555 0.02298394261034817 -0.010683795933987859
0.01768939536834291 0.027495969987561552 0.004962339900605933
0.00547092967008023 0.03232649214263022 0.00754983030972721
0.0035044542066324466 0.032623807535473164 -1.5176843713105015e-05
0.031970848952001356 0.005316473254506649 -0.002148246137507118
0.009371918351222072 0.031423390167796036 0.003085828388495861
0.029838913562767248 0.013131772481096975 0.012284349640049048
0.029893676750908385 0.012956819854997206 0.012976338451371174
0.01975885079019589 0.026275195372888138 -0.017148571006003626
0.019783869119684733 0.02622357530763264 -0.016871653176776344
0.019055925103538252 0.026698056935413612 -0.017435534099859845
0.01978226155823987 0.025992145668821003 0.023624270348218117
0.019641164776290482 0.026101494278503053 0.0237918038158449
0.028305367093479188 0.016203860082516522 0.001942327854967279
0.022894914166632252 0.023281579013588585 0.0017246648556830438
0.030422923354878624 0.01156906668687002 0.0036506035589548565
-0.0005151456323572465 0.032653276558694565 0.024141763865094357
0.031445265037047004 0.008180608581341458 -0.004798914555244588
0.02755393278166583 0.01755557332331835 -0.0034187498689151634
0.001426013631490027 0.0327216271423645 0.008184048419221997
0.026445361548071953 0.019107533081547803 0.0014314214375693872
0.01964890782226695 0.026128671069566792 0.002916514217924885
0.019778467972560394 0.026029592888439482 0.0028250411097088166
0.02827560370400184 0.016612238372799154 -0.007112992380907306
0.02795144944947645 0.01697409439721818 0.00683190289302803
0.03018688753671664 0.012238455181955411 0.003850062207318627
0.02794235905648134 0.016968173014022186 0.0033311749097604247
0.027425322064460265 0.017731747509172977 0.003601689943374279
0.026880255426344445 0.01868590572918368 0.0029426161856170464
0.02851106228399237 0.01596309767676677 0.004117943320222718
0.029552310824058146 0.0142162150379903 -0.0034290919274449455
0.017210952847763257 0.02777742374838555 0.008905207984300329
0.017280555221298774 0.027740704260677002 0.008356432591450623
0.025902042796143766 0.01986763753302681 -0.0022307184800300812
0.021434784870829636 0.02461455431849718 0.025150535486363593
0.028305976093684265 0.01637553622933091 -0.0020471078588625924
0.028205713130092028 0.01652556063838194 0.012636809687447275
0.03054842022517869 0.011276197092003984 0.004730157099760622
0.022284754355490193 0.02392512663873079 0.021157077013131367
0.0210242751462958 0.024894326249792938 0.021992716969921708
0.02519722137837786 0.02087079310280661 -0.012330407833677531
0.024885669789453693 0.021246462301439555 -0.011978051221185297
0.029552484732133538 0.014029044515194253 -0.0007843956349437134
0.029798184533169805 0.013375294058553344 -0.0005884560049691112
0.022209052166616568 0.023998393653186904 0.0207549730024272
0.019815859720278953 0.025953548931584497 -0.011738694739963444
0.020479527313007256 0.025496889731885082 -0.0117967698546979
0.004301457549794385 0.03249781487537974 0.005694069045308199
0.003760177188450355 0.03256688599254763 0.00578319222973816
0.029236794890141093 0.014508828607001135 0.005049747237127621
0.028920513303791296 0.015085215040832219 0.004486362106702591
0.0016437216845530587 0.032711624243906785 0.010334742094025795
-0.0013726928391211142 0.0327001730607476 0.009627397551012065
0.02859287216656152 0.01604257998130569 -0.007264901392880125
0.0033782675845324614 0.03260564410644531 0.004515475258799794
0.003184076931262691 0.032624125636121284 0.003852653259446884
0.026467655313178517 0.01920996171230934 0.003560114356752105
0.003955248966049147 0.03252299638153458 0.010901188358630833
-0.0043793407503007085 0.032446231618759515 0.0114518619227673
0.030498340486393244 0.011230644167954665 0.0014406627544115043
0.02817254155950228 0.016530514587030608 0.005233060319845348
0.025727583385631463 0.020182867759547626 0.01500980408005164
0.02800394941284973 0.016619187701993204 0.001457107532614522
0.02955872458464661 0.013843343087161996 0.014159932130178248
0.001571706495429446 0.03269512278699331 0.01586586720358956
0.026438188266220797 0.019196772665715216 0.005467383910610416
0.029815017259763224 0.0130857414144477 0.005989336368572431
0.01655605745817914 0.028144593736696196 0.025393270055176012
0.0294438335925349 0.01403557464811889 0.005631744250868119
0.029380098124801822 0.014150150044048052 0.006163151872066452
0.001144858033924277 0.03269810240052448 0.009499110808077325
0.02945471689766138 0.014082819055012885 0.01381337242189431
0.03177481375734064 0.006467655415247911 0.003056673000431162
0.028849810938884918 0.015259386329479955 0.002369144257348332
0.029183010462492887 0.014618945912795788 0.0028854734043503153
0.013978668336861056 0.02957466614098364 0.011081204000163117
0.015141177360539868 0.028995901954485377 0.011193208984780816
0.004784233965351934 0.03223984409740185 0.027504882786761296
0.022691367159245218 0.02353747290575751 0.016496446728104335
0.02825458455818755 0.016380095450765377 0.006358444292662524
0.028202437373953657 0.016438861085059413 0.005995034362106444
0.021427773054991665 0.02466318931225471 0.014327173557250364
0.02077647639352817 0.025205192353432618 0.0146219036023424
0.025213566174982407 0.020818672722758436 -0.0017171961038952087
0.025238033299334724 0.020747968840214036 -0.0019873037946670185
0.020179814221250123 0.025696171529465527 5.573089474854995e-05
0.02627700870698524 0.019487715723325257 0.006072309828259089
0.00218115870850116 0.03253000700001764 0.02665388195593616
0.026315979606247618 0.019377072308985943 0.018027396300984017
0.02648112865349059 0.019164599938096848 0.018261409351508464
0.01912019861546531 0.026490119994851232 0.008406836226823073
0.012895027731894352 0.030332819085339545 -0.010718850916207267
0.030221256922788556 0.012110841088429884 0.006631214938922772
0.023534183817863017 0.022688841386770894 0.021527038470419108
0.027845244340218595 0.017209026225840043 0.02027916030240881
0.024976980803250164 0.021224510439434623 -0.010999298630722435
0.02819421394310556 0.01652365472489734 0.007818684570378452
0.026577130730045313 0.019205819671715956 -0.007627930302228834
0.025980883628372177 0.019958701469127142 -0.007916557961281682
0.031793849453229425 0.006946322211802056 0.015352656107651278
0.031200783277948757 0.009635099797972693 0.020774361235430992
0.0312948711873166 0.009254655480328248 0.020990076384033333
0.027418760251066366 0.01775802641546875 0.006690086673914984
0.03016580942237642 0.012321196670607111 0.009301842907170451
0.01453274005043297 0.029364686902935352 0.002209733439505538
0.02134122335192751 0.024758742341734592 0.023306903139387523
-0.0067435394712720975 0.03208448496586099 0.013402889838196437
0.028028015888120796 0.016816640045212276 0.008147737837655085
0.008362148593187218 0.03150808554884746 0.025103139046899998
0.02729759876074847 0.01794148228766798 0.006415749639740282
0.02672096501267273 0.018827410960275567 0.007116229886734416
0.02947291906867621 0.014325268348713907 -0.0014614894933673087
0.02994390295722439 0.012876410634363388 0.008359815105890392
0.02879574760522611 0.015543535233623847 -0.006591675287732074
0.02883385944342768 0.015363196918970243 -0.006032860321481546
-0.005160974075334546 0.03234391334762453 0.014910096374908548
0.029160825178138235 0.014595190329979128 0.007220952630196403
0.02909338067690693 0.014722312012121343 0.007301070376774794
0.0032607433611137916 0.03265637763752582 -0.0003230865537590608
0.003416461632840342 0.03260273463242229 0.006678456064563297
0.025658137987179856 0.020334411050346606 -0.007312571092612435
0.02724280218713006 0.018061231412721142 0.008232514619100977
0.01563615661303158 0.028780180182291303 0.0019479459626726308
0.00047545374174265105 0.03277817912159466 0.003926563173399952
0.030428180269256117 0.01159903021836678 0.010187668080254942
0.030704315794311144 0.01076682355162567 0.01019382083506702
0.01828456648539305 0.027189338961283806 -0.00025495416419364837
0.028982656179558336 0.015015223701575143 0.009092446112628582
0.02906854221811863 0.01484315357033485 0.00928886189361932
0.02909764487319703 0.014703607262547953 0.008398052657836722
0.026555404120081817 0.019076522956925683 0.008159371286751873
-0.00598790987610253 0.03224100568654485 0.013143132345456266
-0.005608364685269568 0.03234294841911026 0.012541030040956054
0.014728720460274255 0.029198171147046936 0.022706930329963126
0.030106477792892973 0.012421623764115394 0.010900923560636551
0.02832425389844389 0.01624958048371984 0.016804312482868393
0.0296810872634749 0.013470334286595382 0.005397513688337244
0.011461605952525095 0.030708290228973652 0.00153923241954074
0.010659068771843059 0.03083753220155892 0.02373917365798042
0.01582145831026964 0.028589897054806843 0.013011772479428873
0.01568574001586965 0.028665791889704813 0.013064932068143107
-0.0005297328538705824 0.03280153474883495 0.007634384602122827
0.030773887172537547 0.010522009973013627 0.007283345667210405
0.02447552674552491 0.02170885398001829 -0.001995468912645764
0.0245162582841538 0.021639251549671536 -0.0025108678528083126
0.02610085895832858 0.019750360663177667 0.009466623371709348
0.030988768822606896 0.00967750586930221 -0.0031133112841076286
0.031129468068307117 0.009304090654147782 -0.00328157611874072
0.03022754151694327 0.012146962208509946 0.011337111356898669
0.027552957824733295 0.01754212815184527 0.010987097984565358
0.014218858387352803 0.029318387801476983 0.028537430166333217
0.02847730813209705 0.015987462100079286 0.011144974593248473
0.028816285682817713 0.015391457998661318 0.010435657885611337
-0.004805392907813614 0.03240461364069823 0.01102636113146827
0.01695197374643462 0.027836276803972465 0.022279060836082387
0.027723687468257645 0.01725952042788389 0.010991759542955807
0.004847986251144893 0.03232351697441576 0.015258734919322456
0.02675958469413997 0.018756331444427333 0.011252061042728306
0.01500475278028161 0.028953884286451147 0.021858598000220695
0.02517422073204552 0.020840956694188242 0.008682798387705143
-0.006103924848523524 0.03219617714439895 0.013752177980368983
-0.005264062401385097 0.03238958198033027 0.013530736304721068
0.01027907089858463 0.03103602791972769 0.024286260066453874
0.015466729472415494 0.02915261967680992 -0.013138438109033765
0.01570917690752708 0.02900804109125013 -0.012614651806224546
0.029670749579951194 0.013751186093198624 -0.0010121352609708542
0.029656921668036955 0.013857681731102214 -0.0014178619763351242
-0.001019154948904286 0.03267734698811579 0.028749540630182265
0.018861866764349762 0.02671436712190034 0.02956516524737904
0.03147145893746348 0.008631761570613173 0.026530077648622166
0.031350130371151363 0.009085095548429052 0.026526936747361472
0.021282065286025456 0.02483787161157999 0.008236711498461877
0.021158989761403818 0.024932391088380634 0.008581188389684751
0.025568206973537067 0.020357526421257214 -0.0015678643486158183
0.0249929916109526 0.021148035298496303 -0.0016045821018520541
0.026280236241763347 0.01951232634383235 0.0099485882100404
0.028397864758576308 0.016172178083072905 0.011872370268709095
0.0319309028280005 0.005471711597070547 -0.00137452997612344
0.02500120955347776 0.02104412471752486 0.0068435622292319235
0.02876967410452773 0.015396008957647696 0.011615202256223924
0.026757425234725588 0.018724922641581092 0.026498733631359787
0.026790276299192627 0.01867398890320185 0.026237327160842004
0.01890075811268934 0.02660506839788141 0.02229563088132082
0.028005610039960317 0.01687944033330749 0.012467880250467377
0.013890938208814057 0.02965314118466021 0.001950410623451881
0.020239225677146647 0.025741096981438647 -0.0016501034357550913
0.021902479620347175 0.024227692951161478 0.006728656205595096
0.02178271256173373 0.024341316474159894 0.007059749100890179
0.027740387636624994 0.01731090605647559 0.012262198848915981
0.028405051958560988 0.016181461420266552 0.012658896495726466
0.01585081963142621 0.028734580120029433 -0.01493654873153733
0.002177326606440965 0.03263891956166491 0.011589365755132024
0.028749243589578727 0.015505942888584203 0.011134420019058627
0.028067321704093047 0.016745501312747962 0.013255637304597721
0.03076246260619745 0.010390108964536283 -0.0033638933114753296
0.030575479720475765 0.010896914052157609 -0.003664884141326955
0.0191294755418248 0.026441080913582465 0.0017739892080146996
0.025755323755243316 0.020169522744424774 0.011510094920893
0.024464978187104018 0.021754068318711548 0.002370383247322167
0.02423433484867473 0.021907833607665197 0.0020015725628687777
0.017387665899971955 0.027693866052771406 -0.008224746058979823
0.008725064428397338 0.031599124458354985 0.010897835745535779
0.014917579731672195 0.02910825882727918 0.01148975173580152
0.01484042534095005 0.029142483773870406 0.011736499554263828
0.014669824375919311 0.029237427036124246 0.011507814375428136
0.02919513803147863 0.014599887071807335 0.012988533318277045
0.01568408459623849 0.02889627846428934 -0.013664418356988901
0.027669951198440526 0.017374252397580642 0.013940279642333957
0.017279469676988013 0.027786727698261855 0.03147493429182274
0.02679056121809282 0.018656165050208184 0.012163694146247602
0.024975297927153556 0.02106526768371306 0.012308104474558542
0.024904174273432056 0.02114018779633291 0.01343877461776039
0.02470653440196462 0.021383213348835806 0.013019537524439172
0.021292922563163046 0.024834801882394356 -0.011296442065930674
0.01905465799687502 0.026480158634308797 -0.01243917460364773
0.019144856737536305 0.02641576787775638 -0.012285698345182379
0.018828927822306253 0.026644496642340885 -0.013141173009911286
0.018369395493049966 0.026962864608731166 -0.012959629878598654
0.029716627501316477 0.013496631696342952 0.02401099933560224
0.028516762563084747 0.015889204147773194 0.005233218948774646
0.008085203540099523 0.03153726525317878 0.02342332304426571
0.02807136576774072 0.016671348999809984 0.01464859385622196
0.016353927717753236 0.028265004894070914 0.031740323304970376
0.02738404549674314 0.017822543557642186 0.013508443440721114
0.0059754351556426276 0.03224127886029623 0.005506682426323887
-0.007231013616397355 0.03201837868296021 0.012816151940585123
0.022526220980229633 0.023606356357507165 -0.0010164742306227655
0.028701559133821684 0.015616594784468387 0.025226966723168823
-0.007544642965330481 0.03194479451739953 0.013428880426953189
0.02615136956371323 0.019607139186738152 0.0134951117315294
0.026062959554872048 0.019737481198391527 0.012697423000472904
0.026305215207054186 0.019405580121964527 0.013838186176346875
0.024813270657633724 0.021269168571641215 0.0070087772814024125
0.025089059152772562 0.020960637071142756 0.014408852641138595
0.0312560420981723 0.008992910465557028 0.009540393238403978
0.030924017313514095 0.010069979714643176 0.009821317381516134
0.01837646519990853 0.027016482012555194 0.030611223853743454
0.016486678304202564 0.028254491516759784 0.004627727836724024
0.008854728736390623 0.03164323904922969 -0.0036034493322897325
0.022679328894321046 0.023586146897211207 -0.012151422955060637
-0.0009302403578329634 0.03279907003748845 0.004799926375116827
0.016383848647944413 0.02834260111159843 -0.013560745421410413
0.016259362132156775 0.02842626585760223 -0.013910804662034633
0.023035416542208975 0.023167316763785202 0.010386279449873078
0.023588681649113322 0.022599940518698507 0.009818425454227467
0.027081916839893607 0.018438840433518313 -0.0045233006217537805
-0.002623053914255162 0.03264384784626005 0.010382777652052548
0.01568022078799583 0.028603027184308957 0.026291590583761307
0.031246151635537178 0.00864693503244359 -0.004027485889641044
0.028467806221515395 0.015948740165402358 0.014659072611591922
0.028463541702443862 0.01596611556145497 0.014567833990850647
0.009536550987068956 0.03139066259058592 1.543440985172698e-05
0.018832025072024857 0.026647021662706424 0.026713703281902566
0.028652142207836892 0.015634175533964373 0.015418131284039363
0.02876988531477533 0.015403807723551993 0.015213062451182587
0.000555359311591816 0.032716109520530716 0.02413159626568841
0.02443209415808117 0.021705033960768505 0.015219192740073412
-0.0031976898092908957 0.03260730013639632 0.011412007051098332
0.014337851828712368 0.02938340422501162 0.004118626264772031
0.029044203871229156 0.01486667371348004 0.014782132400622285
0.028808234358121434 0.01534623384459491 0.015849152219043407
0.01900569901395989 0.026564941876937666 0.0009173387848951301
0.0024883855666003062 0.03258617381030776 0.016708289661274654
0.00249637247193141 0.03258229488726448 0.016452630827210983
0.02457812706534296 0.021677974625754534 -0.006967510831344323
0.021775072519301858 0.024368343489717396 0.022388406918442003
-0.004444513794570704 0.032418125019309484 0.019561412724840632
0.025079579461488175 0.02096657525758506 0.015821940790167403
0.012764721322893368 0.030437370135622793 -0.006979466533131247
-0.004498259998105327 0.03250577575449701 0.013712244012739598
0.026876286948861815 0.018554557008845007 0.015107478768098585
0.02615197766844968 0.019619261156886576 0.015535778046916571
0.028199838907303293 0.01647567254886971 0.01694209395207677
0.001536489984301802 0.03273754027816767 0.007439312438766611
0.006830979020875519 0.03181537386010789 0.022358801869226518
0.019170555227587545 0.02645665991145534 0.011872377893706204
0.0035587784141602914 0.032579938313904586 0.003564966349262972
-0.0012897298269401087 0.032678870301113855 0.021456815578520583
0.019730531469432724 0.026055617058653675 0.018726642682638135
0.029251422679432326 0.014493131282131762 0.016444688621945702
0.025515454552164363 0.020464903687516398 0.024776805749704003
0.025432349976793434 0.020561895622560368 0.024639768819023466
0.01896953541477016 0.026615954262944445 0.030792427012310053
0.017905163492103814 0.027330242061660095 0.0065626637322597926
0.01997822851575237 0.025874186260887246 0.005246112438517445
0.019878211164042543 0.025933680260446658 0.004435451841510898
0.01991940958678776 0.025924084483554908 0.00528216302125768
0.026893077610417697 0.01875550439380539 -0.005011708344428599
0.027024463523634988 0.018520780305722247 -0.004999339128053956
0.018812945307098292 0.026720161654097498 0.013322806351439747
0.01896554530052905 0.026601534021336706 0.013131571801674916
0.020179008385041663 0.02567931995854195 0.02094654171924692
0.020255941773279783 0.025781661731181363 -0.004126411294186439
0.016896452473773207 0.027979519563104332 0.032072947743484306
0.031159512349778692 0.00907604483599045 0.0008334316535936856
0.017291357649975005 0.027726252409231628 0.002711995027264985
0.027220297780671525 0.018063379700428085 0.017862322756057484
0.003730786220170001 0.03242851179977891 0.019726447860379234
0.020711349288335856 0.025278802761686304 0.02407456551167998
0.019166549967624395 0.026451705831871872 0.018528456135183554
0.013319658280476595 0.030364366112377902 -0.012127896341058623
0.022103853686453998 0.02402169662823629 0.02359829429974651
0.0027389145157963313 0.0325657702076331 0.012347193705669217
0.028671460596847012 0.015587949944508538 0.017628189664961567
0.024988069644375124 0.021039796145024534 0.0022180971255552793
0.024319939092252683 0.021695852212429388 0.001403692478975543
-0.0007104135966432932 0.03277421773268276 0.003990907346901851
0.030102246969873875 0.012571117944838107 -0.007276692996589651
0.029326620431531024 0.014339742508763466 0.0043284875035141425
0.029208435180878532 0.01455604253335167 0.004228454930022026
0.028086809394097544 0.01669461191273213 0.020077148894132195
0.015966835733402983 0.028475138735979247 0.016864761229172937
-0.002425255173276632 0.03258584599634328 0.018912200144411667
-0.004318566572417768 0.03240450946728851 0.008821779485524846
0.03053245306478399 0.011102788890020794 -0.0021606659640270778
0.014294255873795117 0.02943000282801385 0.01979542490517631
0.03082031978417064 0.010669999460498014 0.020417296786884975
0.03083365296422607 0.010632974984568784 0.020461378999816336
0.03097528534442207 0.010218597800233317 0.021516102843983514
0.02413674635244652 0.021993605710170713 0.02147161217800113
0.02964507670848636 0.013636808766330413 0.003274544808286337
0.0296999591664113 0.013472804123902189 0.003674150928756257
0.029704341924732425 0.013717691686384826 -0.0043315335707588025
0.03170331523603978 0.007168326354044793 0.011811772409228948
0.00832020650048454 0.03150209650090764 0.023226915105627743
0.0009575457834786714 0.03276370759311833 0.001440254006681016
0.013920524135299029 0.029599520604180415 0.011009468229365299
0.0303926001979177 0.011712827603553595 0.015288123042225973
0.02556372807583708 0.020612984105471403 -0.004896605013968145
0.022393291948372095 0.02378584163946676 0.001781079985910421
0.007816888259465134 0.031876357624729984 -0.0016896245040664685
0.02754299973631302 0.017932801192021237 -0.008337175875576594
0.0293109695661468 0.01430201179756108 0.019731687576618757
0.019349919230893076 0.02627117538072169 0.029436358101577218
0.014135050643856464 0.030018008813188054 -0.010733056332537069
0.030014865590717178 0.012906967400086214 -0.0046328681958079584
0.02355742683717453 0.02267835160706085 0.012779353192565774
0.019154260495558656 0.02646205454625206 0.028998116290810578
0.011262903718381557 0.030889523707395804 -0.004894174127004248
0.031041815101501245 0.009804981923423545 0.013899052693271173
0.031096588675514413 0.009828690105964492 0.022144268653265315
0.03114316984939002 0.00966883179187309 0.02227276344828813
0.002752956274969305 0.032592131480946196 0.014582639731229155
0.020041555665015545 0.02597378711274961 -0.002595476383924181
0.03089535495666234 0.010417144545157313 -0.005206361531780238
0.029443212910451787 0.01401421329792978 0.01914890056988228
0.014642333783412127 0.029089034161538088 0.026484998544569673
-0.0008423836395643291 0.03271686536827601 0.02822980977302869
0.031058887323168607 0.009457374774351079 -0.003657285311456078
0.031074930901054794 0.009357795776958965 -0.003777909297352141
-0.006051060558444707 0.03219513824610552 0.014192233560868062
0.014925569357344154 0.02910847934082843 0.00538660341531521
0.017496610925091406 0.027570090948798944 -0.013061847028155351
0.0177902793974163 0.027364556948270318 -0.01360815816674522
0.017958600885631518 0.027248419933359254 -0.013585607484680884
-0.0007247234874695044 0.0326308938904612 0.023341756058849136
0.01766522133744963 0.027624856653894095 -0.009826738835931758
0.01650918890606786 0.02848374696170036 -0.009571388872526782
0.01595776915147521 0.02865330417333643 -0.014554511148823786
0.015943243395746078 0.028664794743036237 -0.014615114060857037
0.02936292302031861 0.014222634119105303 0.020151308313999486
0.028319985649603807 0.016345626085484236 0.020836840447586366
-0.004578701652991976 0.032390117727451005 0.02180639435392564
0.029674217815601124 0.013645274390976717 -0.0030402030105695704
0.024310962890470234 0.02182894937908797 0.012184276118531144
0.029322191975618465 0.014426579184743233 0.020603119984011466
0.021209631885758078 0.02484550811264444 -0.00026910792288874355
0.021323603026100747 0.024772703183200965 -0.0010322881102761935
0.012446668848034165 0.030160722375293565 -0.00029411733252436323
0.01476726902119141 0.029172134868119273 0.015539977335342917
0.017078610173505773 0.027849542263244098 0.015160910296416212
0.017107048216313297 0.027840766526316684 0.01545272442548348
0.017253222509312972 0.027733640572526256 0.023018094314983563
0.025955866400721367 0.01988206476487006 0.015772083174117647
-0.0029282909849158495 0.032609646999581056 0.01995719075122444
0.002863969016516711 0.032495896889467545 0.022534372970115214
0.029236585601832486 0.014605299408431572 -0.008302318281833957
0.02705970204000344 0.018496562323684233 -0.007374071018131905
0.026958861381023394 0.018653362219188636 -0.0073847851897499185
0.024273652656355744 0.02188441688586346 0.013451082314112748
-0.0051326346541426615 0.03229875416554184 0.009334441293106956
0.023708631750364133 0.022544898664034314 -0.01474314583156932
0.024110688897890666 0.022083377014811077 -0.014495610694076268
0.028759334801563882 0.015609764749101928 0.019595949225160343
0.03062339235332147 0.011278201538858727 0.022803135205870885
0.030204935718550187 0.012378317173200511 0.0234800050420798
0.02000135647720361 0.02588976816602405 -0.005381646631169077
0.031499752109027404 0.007886061384712815 -0.005304695345520827
-0.007195081159995631 0.0320131547238154 0.01188325861801488
0.03028167997867224 0.011873455704339855 -0.0037461473681475333
0.016276467058146463 0.028294182144267207 0.027686599926089503
0.025384229024600604 0.020757747456660657 -0.004133854672652692
0.027309838342874405 0.018039997750594096 -0.007004819709034671
0.027014867893973275 0.018517809836744253 -0.006933852866081025
0.025893771753486883 0.020236512142213673 -0.003999549002012895
0.016319328425260286 0.0283002879735183 0.01389201797685564
0.01580118691450804 0.028594983441445017 0.014105120966961787
0.012214039780191574 0.03082696132108189 -0.00740285674173485
0.028320200080566738 0.016395237967719932 0.018912899706433412
0.02691089604807111 0.01852430261181371 0.020127062866780468
0.02688105945854021 0.01858002176958268 0.020357681298381336
0.015004930446345046 0.028989110660895746 0.027652577880195824
0.025433635280160717 0.020392589575557892 -0.0026567811229892373
0.029550600048232026 0.013925160224167128 0.022400498948727043
0.029917563932483508 0.013002797774985034 0.021876101283549283
0.0028332231891975714 0.03264100719937416 0.008961278546307846
0.023794184364383936 0.022429751657348413 0.02038386068520528
0.01931085360062924 0.026352525289455937 -0.009668710657590538
0.013592188599399481 0.029917886482296815 -0.004872071604679007
0.027516309486362387 0.017625590501790363 0.024278915848512196
0.030352390000334954 0.01168158966628282 -0.0018180885070568694
0.030606330914236604 0.011094345934063464 0.01643573823240419
0.02617136755661837 0.01956414701169876 0.025715465021135236
0.022208794243234103 0.02453002726789799 -0.019199557358501238
0.030338634055193398 0.011846486701042545 0.007046418465354795
0.024523652057345465 0.021639871377573984 -0.006429773130101642
0.020101679066235622 0.02577730262581549 0.013648274948643301
-0.0011245105700236273 0.03275659634650706 0.017247682296312322
0.02701470656113447 0.01843846478712618 0.010018495832345113
0.02719760935636608 0.01815021416676319 0.010423328660255929
0.02778936649224068 0.017154254499455613 -0.005108904516808317
0.02770703130760102 0.01735872727740294 -0.001826100535396663
0.013428887488556 0.029842496071629913 0.002692978302624333
0.022234956011807305 0.0241770733636436 -0.00816644139751267
0.02191897518904049 0.024548748500465154 -0.0075228043244445885
0.006359980854003492 0.0320202260515524 0.018013896775495575
0.006128365373819198 0.03208547433177088 0.01801555413118938
0.019429533888131286 0.026296697257096234 0.016952427884695122
0.01967917289177066 0.026108030518280867 0.017214953779465383
0.026666565289979547 0.018871091729715274 0.02412267090772057
0.0060688161379259635 0.03217734789157721 0.00998101800447387
0.02353468339775216 0.022642853424040054 -0.012407085226841155
0.024430818530788833 0.021719896896079068 0.014498280886186357
0.031109966573637335 0.00977198856402563 0.023797347836749326
0.019361454145646478 0.02648534523234948 -0.0036567220907883276
0.030059647936369366 0.01269433520213736 0.021996985672876758
0.018394299414124602 0.026980285437892777 0.03145125996518682
0.023005798095604504 0.02317876034078972 0.02304454108192964
0.028457503047578672 0.01603225470175199 0.02166794394654742
0.026861124956620866 0.018586249166545513 0.02186487565854694
0.027227622867034007 0.017987824993253163 0.02181716454168913
-0.004493944927900638 0.03242679499955625 0.014672083307981266
0.02789500529939792 0.017013405694498898 0.015306784026303696
0.0014437394716881797 0.032734746238138684 0.005563882869467313
0.018101766292526588 0.0272774203667531 0.02107565707741067
0.0224952708292361 0.024023374740248203 -0.007472971454676106
0.012376851614809368 0.030267269842566575 0.0006330667671200477
0.026082981661152256 0.01977214475467531 0.01736570386748934
0.013117137488571231 0.02995680590074248 0.017109846473335324
0.02452471419986095 0.021524927359946926 0.025869203214179782
0.016643216189244768 0.028185635651599615 0.01905084952984812
0.027148810012780425 0.018157992152010163 0.001807874006860805
0.0035834644614445854 0.032388953432286226 0.026827762957600004
0.02059822993420231 0.02555716957643848 -0.0033726709490914664
0.004384346964986969 0.032496812928428945 0.0032144603663364964
0.019889957201581245 0.025867154832199785 0.024583957111547622
0.028599258282718573 0.01568168838994593 0.007590505190779848
0.03004321411579488 0.012859505268358603 -0.0023966921615529574
0.030800894691742783 0.010763093934420985 0.02407884921659205
0.02428898953844355 0.021945978396039657 -0.015432962957001802
0.024265555356918763 0.021941084305249006 -0.014920238525620173
0.030806216020536792 0.011109062981979409 -0.00722825241101305
0.030783328895507837 0.011094134653809469 -0.007017229004804223
0.028618741404177264 0.01573714762522727 0.017278598176705646
0.01356817610088518 0.029765172663363145 0.020427801713974937
0.02743476126914368 0.01762348183580329 0.015027482538861568
0.025797819679561098 0.02012905610093768 -0.005849908544854303
0.028887845697428128 0.01531636899175227 0.021556550843087996
0.028454139806625853 0.0162481490122938 -0.00038769385178091185
0.02863927738948155 0.01592953246989849 -0.000451613186862912
-0.0038911458524181703 0.032559987033707355 0.01109727249700133
0.030921749519988856 0.010289025774594774 -0.0007963735130933831
0.025138400786600186 0.02087433569391078 0.005793615746777103
-0.00135277861428718 0.032660188104674824 0.023923906874126443
0.03117079165396485 0.009561542156314069 0.023412999519399888
0.030060687051178404 0.012650708725936766 0.02075795918140369
-0.0022639061898640845 0.0325735961320088 0.028921862813364143
0.0019243074886635435 0.0326931570022096 0.008067099642900116
-0.008236039953023095 0.03177810074232362 0.012664876715689981
-0.007912330813776824 0.03184250725075986 0.012768189907830466
-0.0016606247344770836 0.03269881153375807 0.008474817986803072
0.0021541145381209566 0.03253942574050581 0.02705024891911986
0.027062687060271956 0.018311446339214835 0.02620128503368228
0.027133867875431816 0.018226039801171344 0.02667181757964617
0.029853158873360965 0.012854977432113094 -0.006191603243408456
0.015361735230513592 0.028885906924228953 0.009313234771363305
0.0152554438608744 0.02894219565864129 0.009352779218147258
0.01539824783227679 0.0288665615192115 0.009323296625820609
0.018281664638030097 0.027112411500165242 0.009192027964328891
0.01828876599144242 0.02710587666337128 0.009262045277222464
0.0273344979272162 0.018280801796198606 -0.009672000840380066
0.02761161269377103 0.017918688960975867 -0.00963713937338995
0.019182298117425944 0.02651150309189599 -0.015916515403074434
0.01912494904440116 0.02655887726419654 -0.015523268707567175
0.027819250091563108 0.017153385235511274 -0.004508892781714824
-0.002471536932925151 0.0326508205362747 0.015066409555061902
0.007256421961386526 0.031895318332461765 0.01628159133475275
0.00771835726108262 0.03179965396529739 0.01615567798316943
-0.00335842484492065 0.03257419201332612 0.01682643004406364
-0.0031283878510860847 0.032577527182923324 0.016138195960345877
0.03065769429974399 0.011127205420029169 0.026224847803998405
0.030641310434425865 0.011184854518689783 0.026044699624495852
0.017081870678832246 0.027884472496496508 0.0038271451663764934
0.01739627809680032 0.02768349049860043 0.0037763473711556438
0.007478980062015348 0.0319899264370755 -0.0032037975420000243
0.02138135244579863 0.024719799580231648 0.0098068428907962
0.027843338013762327 0.017046017828187893 0.022211036657098802
0.02799867307759813 0.01676573243552412 0.02200053470452898
0.029449936321155983 0.014200626017407283 2.9051874005854567e-05
0.029104118353569658 0.014992255621558266 -0.00046355890053020735
0.00911335080872958 0.03149342785687239 0.0021784471004160665
0.030356533725396075 0.011752470598462572 -0.004281122972550166
0.031547797615493825 0.007230343859739545 0.0012232525482929728
0.029293042891245243 0.01430498621814694 0.008298642488423439
0.02912739333337902 0.014644473383809675 0.008031721185536715
0.028525178154076097 0.01589070189390643 0.02251323369433387
-0.002207507542710459 0.0326835953092715 0.014717049685631403
0.03129231499516753 0.009038216991172545 0.024573769914686877
0.024691660656579094 0.021401629574821796 -0.0029055054130510062
0.02491669273708474 0.02117883682855459 -0.0020801973463382296
0.0010418441960781 0.0325481421768801 0.026488793692309418
0.022447236220764874 0.024076581701453614 -0.005545565219424908
0.031697543942352 0.007158706021697708 0.01100596227807312
-0.00023363570950360186 0.03265109488313273 0.023994389265593746
0.004624437429311677 0.03238544791971893 0.010975581655538386
0.023352050573277938 0.02281992977208684 0.025549164149069974
0.03130894031909031 0.00911965157423798 0.025803900024494064
0.025799689392087804 0.02024028363265419 -0.005286069727893978
0.030246030476249616 0.012217796971644868 0.022519211081673388
-0.003157520664132764 0.032593388594651516 0.01803468016325281
0.03140762475739084 0.00786320026361823 0.0012421897635873373
0.003844378478290603 0.032603557497317116 0.0007277884343100019
0.030715570275441466 0.011184539592171304 4.614495188132422e-05
0.023785001126446274 0.022456343240170804 0.025466579019621766
0.02187066221276467 0.02426671208073739 0.024600316126363188
0.021376537748012174 0.025228994079529672 -0.01750188577817983
0.03128615101639379 0.009293240119957481 0.026315678189131386
0.025848588985775606 0.0201809220256445 -0.009418627834475071
0.026204652277887645 0.01969103248416006 -0.00925653470329223
0.02770091727022321 0.01734223730054915 0.002578670305979643
0.030728616914785397 0.010921692468486602 0.02668981377370243
0.01981210715881948 0.026020612633021117 -0.007034979697840956
-0.00011237391308852138 0.03264872163165108 0.011382427136572382
0.03104018904923344 0.009866326543933015 0.011067728806087142
0.03127094843614133 0.008946326023120264 0.00987702123498808
0.02909418745264544 0.014979786408815442 0.020760779525749187
0.017969029617112848 0.02743913035089693 -0.010592633255766856
0.017846241169350522 0.02757551674699241 -0.011307554786269092
0.0007619825724487015 0.03264654945057231 0.012234722845747207
0.015257028438462498 0.029138719011336904 -0.015350856894889927
0.026192682538111994 0.019525011081385008 0.023968699549034828
0.02088952960886003 0.025151721468413834 -0.014397310105169356
0.0207581939209289 0.025323927143861457 -0.014791175862994837
0.021441423474690066 0.02470422884723892 -0.014208261840678305
0.024887862789525907 0.021389456721844412 -0.008510586122559472
0.007367223186045026 0.031725843068394495 0.023398234438564057
0.027490017035223607 0.017595314055989908 0.02344539462995026
0.02424371335761885 0.021941607801882694 0.00303146051303896
0.023548017869842727 0.022697948673645968 0.0024308390954717743
0.02255912500136119 0.023784464359243064 -0.0045790249705381985
0.022415183374361436 0.02384145902008275 -0.003937676508019968
0.02199199162190571 0.024173839124972906 0.009719589140292667
0.030181842572539953 0.012364984399969504 0.020075473321185807
0.03005386756328935 0.01264571265738349 0.01957380104097703
0.029344371139248464 0.01405787313792797 -0.006332434149084149
0.001414932168294559 0.03271183018987961 0.00848498371034307
0.031657469049205855 0.006615640161920055 -0.0009068360892340252
0.0011911319723477564 0.03271278546127798 0.00848430513527942
0.02178045106356611 0.02487751945736536 -0.01994457582681182
0.02157639513228503 0.024988004934184203 -0.0203514559436747
0.021887050794013752 0.024655948276848166 -0.020446758628332264
0.019065391040210943 0.026575409403404686 -0.01625061717828409
0.03161497245914613 0.007314981958417361 -0.003837324514752879
0.028486643070823367 0.015973760911030907 0.002267353119774225
0.02855030746352715 0.015925676563102294 0.003143156120094967
0.03142198559512775 0.00824680458910425 0.008440123017338607
0.031166271552732473 0.009319693901475145 0.009036872065643142
0.0242956519756869 0.02202095025689825 -0.01657943840549942
0.028261579299094473 0.016396760507448722 0.013889501649772904
0.03129585584194594 0.008545813963385648 -0.002955132113085692
0.030707751391404442 0.010976737208801067 -0.005233523545480545
0.028814304793848295 0.01538489976703341 0.023265013217767812
0.0011954474822315877 0.03263733561141929 0.027881940919352637
0.0014889114856722235 0.03261455075354648 0.027543828304093472
0.029983200845428 0.012777684830985203 0.0122429457031157
0.006221365790189487 0.03222816077956779 7.271357634897585e-05
0.02040348913876381 0.025631724824475288 -0.006374650256845029
0.020497045404983802 0.02558950552927468 -0.006551443948900812
0.0037739277127192394 0.032607356214987934 0.0006102893832925722
0.01873231456194595 0.026684137943684023 0.023389028833638907
0.028714979545912588 0.015517036656412613 -0.005053452135835167
0.02472250350056873 0.021365819435616436 0.02334679594033604
0.024481782500639565 0.021666547899791798 0.023703394512388374
0.018513026680041733 0.026914022294195636 0.020610899212528733
0.02679373150270688 0.018745934788297263 0.017820968211633578
0.02700319373102041 0.018428338640995478 0.018919243625738408
0.021050017458385487 0.025165944813485677 -0.015211164302998577
0.020146472230573528 0.025889735039304106 -0.016154293037232502
0.020616399425185884 0.025539745279394805 -0.015926995855227197
0.029661725772963526 0.013679023844679304 0.023407333029475452
0.029709774110615653 0.013567353150786264 0.023191644182108125
0.00022691973090555793 0.03272326417061846 0.008760092531624766
0.019890937945099822 0.025969386173123676 -0.00045397986751100295
0.03106423306386888 0.009480867520003784 -0.004551018665882121
0.029499980668632075 0.013517661197862779 -0.006322146846031474
0.031594941425571614 0.007722369460421135 0.002456927855815254
0.0186662158347439 0.026852286535900192 0.019461011603231933
0.028175065290501136 0.016576208076551947 0.023281506241710475
0.028472613478231185 0.016073157480434377 0.023700194088953935
0.03027114731550972 0.012078201282681111 0.016824674071755443
0.023328936211657963 0.022937710268772962 0.019263152445977684
-0.003434181034373419 0.03250218550747667 0.012101776373653887
-0.0022920075106726686 0.03258009410943269 0.012710203052216856
0.016040178716783683 0.02840733149330127 0.021145498063478207
0.022697692076195687 0.024047879406432097 -0.01790884800026379
0.016710346789753507 0.02818627495905609 -0.016242843105902894
0.025089327041277868 0.02113056155955504 -0.0010239193023918306
0.02487075464830214 0.021309411927935406 -0.0016016408249296013
-0.004473006184567599 0.032372778863386596 0.023708295683902106
0.030295886895488608 0.011924025080931934 0.0010535724258882908
0.02797807157792882 0.016882114637379694 0.017759437251120037
0.02999231096806475 0.012779014080597376 0.023841475606939062
-0.008061052808652696 0.03180415201220829 0.01248024053133829
-0.0007270980224439629 0.032749118294825706 0.013960055841395303
-0.0006084646443331254 0.03276120288993537 0.01369305854704468
0.0065797028202872615 0.03204725896880798 0.009195225407468043
0.02455533299860012 0.021541390171703333 0.016119710567605857
0.013677570640616865 0.029675639549753746 0.026524603693848986
0.027179012590025833 0.01805666750989562 0.02116101178517731
0.02417451551095488 0.021991109875888516 0.025474296910485375
0.023299618037841113 0.02307776397090073 -0.015523365723390959
0.023212319978525454 0.023238050920489008 -0.01579080686745788
0.023635707472497443 0.022762326056142694 -0.016760090138554402
0.020151614809436724 0.02568957585927001 0.02538877643245312
0.019601567090053312 0.02608316976991979 -0.013604315102270666
0.020397701606511567 0.025482550327665533 -0.013531663831162718
0.0058673782465273935 0.03219767734044289 0.016602062519369246
0.02386359395591768 0.022316121875261344 0.01210982692129542
0.026112884499355175 0.019980397077564636 -0.004065314341895025
0.03005156823751898 0.012572614158789115 -0.0033676993261270915
0.03154572205803241 0.007299186634598114 -0.0014730732846880358
-0.0017851087317918455 0.03267248805179257 0.010095981142060088
0.0030115683313044067 0.032608081332239414 0.013460312049477553
0.001789148127693697 0.03263478622356814 0.028205741830715163
0.0026766192613166427 0.03259383211032502 0.008108435387800378
0.020367096978429956 0.025578069299236686 0.012836248003229245
0.027404438758591748 0.017836483281895087 -0.0007713353349182615
0.024866522571083356 0.02140765638877859 -0.010019019243443492
0.02431373359576034 0.022024941569166522 -0.00959722973636334
0.024534083021796434 0.021747904021241528 -0.01038577696618319
0.018333130187030998 0.02702457587895106 0.029822125181834244
0.004773578531608643 0.03254996034481635 -0.0009514076627931422
0.01269639075675091 0.030096299003983192 0.024241355008192716
0.022767392739724134 0.023454419700597834 0.025536409937300657
0.02804792009844835 0.01675252881048722 0.024405791941449956
0.003339869056091588 0.032554674799727575 0.017307360146535125
0.02778979321454085 0.017157837163590785 -0.005258937775291848
0.015365378695978538 0.028827167566503758 0.017607451439909813
0.02701424736330782 0.01833129948798252 0.015383373087947587
0.028837014132938023 0.015415016415560936 0.023684180458428294
0.02048595356916685 0.025666950193299613 -0.007783262923816063
0.01980954629072721 0.025955833168899427 0.021115031776387336
0.019850185775413066 0.025923576928258182 0.020960274406748892
0.02783427475648438 0.01712677583483015 0.02402016262397183
0.007593113795028098 0.03192144836605374 0.0037251079774922586
0.013706908889758593 0.02958827045801082 0.0239140117850725
0.025883037275649383 0.020023303025845606 0.02422990725268501
0.026673113982433473 0.018875885925002556 0.014047948153796851
0.03070337016750755 0.01075760063066524 0.010434456706720243
0.030832221876601295 0.010431015420760642 0.010858016311424789
0.031536337565286815 0.007443391195259967 -0.00306927394661885
0.026335801849759838 0.019345393255536678 0.016361898481061746
0.026146676116093087 0.01965885756022001 0.016829548002883835
0.025302771592635658 0.020814531353135678 -0.011585774538312148
0.025406779190460183 0.020706780435672468 -0.011428555931256627
0.02657734594883846 0.019066317330005886 0.006355083435421306
0.026406788874125883 0.019308561469776615 0.006121942136647598
0.018170205105774783 0.027126210150974956 0.030263592218985152
0.017292131019798047 0.027775158144858564 0.019756094037095186
0.017462722959871262 0.02760491386177304 0.020055146104568287
0.020080258151064158 0.025903818206458852 -0.008611817500047806
0.03079847880808909 0.010517760591903267 0.01160860576930936
0.03073858497603902 0.01066537664346044 0.01231770838595145
-0.004006028527977881 0.03247317914645198 0.009523961968414162
0.0313996943880446 0.008670396557631826 0.018604229772210417
0.03137284779769613 0.008763124766911436 0.01839070506992025
0.023523276864212232 0.022651634367155116 0.000612633586319124
0.0234378155880604 0.022856333095319974 -0.00026574652996201863
0.025170871637340747 0.020879577927837917 -0.006041351058950327
0.008002442728696024 0.031738877075013175 0.008340725062311073
0.010175786778431808 0.03113839167340839 0.00020514460264465097
-0.0058631231970915475 0.03224005399685687 0.009666036977346361
0.006174808823941242 0.03213835008359385 0.021151196547660442
0.022289646727652136 0.023903461717002042 0.026687119346299127
0.016069179923542433 0.028747681488014563 -0.012542418864421302
0.024266037484301412 0.021906371007697302 0.017910097280006556
0.024151820672006857 0.02204302648208153 0.018139745663400195
0.025460363601051205 0.020499319707657317 0.02211216637959091
0.03127091436533495 0.008962448318806262 0.01270727351919529
-0.0004089041440255955 0.03270508451133531 0.015621541686784143
-0.0006429309919697213 0.03268664994831618 0.015500462374204993
0.021003915024654506 0.025024981733045605 0.009892077222520508
0.01767735395648996 0.027498134607637267 0.02136518578366852
0.0053686668380065 0.032119131564103925 0.0225406039033054
0.012004672508019974 0.0303863879270654 0.013027255200423797
0.019850179298177676 0.026342120887568744 -0.01807313111852501
0.01905135357820381 0.02676033561472113 -0.017989146830711518
0.024331068189993137 0.021838185416511915 -0.0027156166241565083
0.00872083850025076 0.031398031103334736 0.02377727649392359
0.0025400618794947016 0.032602294063273904 0.020095515875115277
0.027950458156928624 0.016941554316206166 0.01374811005933455
0.022969499318619316 0.023655602314957697 -0.016523858080728954
-0.008115294401322342 0.03183737185004085 0.010964364122523605
0.030370508936949547 0.011671503565222932 -0.0014593161023096221
0.021451061163783054 0.025040031126478766 -0.01668319828865435
0.02155376472126702 0.02494964165939621 -0.016501484083567032
-0.006695984232507448 0.032112395733530794 0.012897191466895224
0.027782555703947335 0.01718152053766146 0.01415389046346981
0.02953911869673438 0.013910777752684303 0.023278626494622253
0.015088973906304128 0.029043909234940504 0.019505359939195995
0.023322978698495415 0.022870518155471257 0.0014537885404357488
