0.001643335023819584 -0.04634565868941044 0.008629261471662902
-0.003058361020178377 -0.03402919686632809 -0.008862321814909153
-0.0033959530644097576 -0.05428268687445925 -0.008684955316612997
0.009513661054937794 -0.052434098238499816 -0.004323733340659257
-0.0035953481864579497 -0.054078420725633985 -0.008577024490856155
-0.0032462720131140547 -0.0340533879474897 -0.008811460044334241
0.009642618137021285 -0.05218650295185539 -0.003993147979795436
0.009296385233725392 -0.051611036061894384 -0.004703998073800411
0.0021565187158789087 -0.046054806645454076 0.008561210072680837
0.009278104231957634 -0.051500437317268125 -0.004727460222728211
-0.000992726007566488 -0.05462681247727162 -0.009563484110414935
0.00945650895641915 -0.05173366639184593 -0.004385637829682701
-0.002986302520257952 -0.03366685065766049 -0.00888193412871155
0.009363926458219748 -0.05136331563766482 -0.004532926720218394
0.009471572798629247 -0.05129511022630857 -0.004290885341254294
0.009467652593240047 -0.05143233332553673 -0.004320075318924295
0.008693925908321489 -0.051318285379374995 -0.005700207496054309
0.0015821109585333359 -0.04624348727337298 0.008633371096871796
-0.003804312057567234 -0.0535665336846056 -0.008460589415360813
0.001426453078389393 -0.045836467643608526 0.00863741691501057
0.001595095605393393 -0.045870315103029115 0.008628156265953923
-0.0040392257685149344 -0.05348960113797402 -0.008316269347592452
-0.003884777943618114 -0.05335908106734008 -0.008411078102793564
0.0017427161153508088 -0.04602222342607119 0.008615093660424612
-0.002818414152119646 -0.033301016737253254 -0.008947110750562533
-0.003428201688614035 -0.05330100755908571 -0.008661177355516931
-0.0027873840597537084 -0.0333556289423258 -0.008958840518484567
-0.002988324499413452 -0.032931455532896635 -0.008914719174499272
0.0016271838427252216 -0.04543114730579691 0.008613003836163069
0.009049247520201312 -0.05122606890372411 -0.005122568679975856
0.0013659545549467187 -0.04552031063681372 0.008634947263071586
0.0013600133003102114 -0.0453160197709854 0.008634871138953466
0.008667843831619846 -0.0506188571453073 -0.0056654859604205925
-0.0023438779744212658 -0.033067034293404345 -0.009134305332962958
0.008688367441504339 -0.05045484353265374 -0.005623588944145908
0.0021240521129451367 -0.04556194319021998 0.008555288725689118
-0.00251311301642801 -0.03283854663563338 -0.009010187625099135
-0.0026058095770287904 -0.0326432925096292 -0.008959034904353328
0.0012474006864760063 -0.0450032798373542 0.008632508798200305
0.00911360484796335 -0.051161366530005054 -0.004995233900707059
0.0013157217399752306 -0.044799294856861016 0.008625743927719177
-0.0034772218101852023 -0.05223199379138031 -0.00863597444140922
0.009230634248323643 -0.051071491647774366 -0.004760398856144688
-0.002150839812530474 -0.032541056810645105 -0.0092403681403665
-0.0030752322531500493 -0.05218848544082054 -0.008833679619151543
0.00931362095326519 -0.05099274690427012 -0.004588499744238496
0.0018906054200160363 -0.045324479152282056 0.008587082862286658
0.0020018322647879644 -0.04493061314363577 0.008563060256306071
0.0015708088592191545 -0.0450583933649967 0.008612138374077915
-0.0028016654309134543 -0.03237525184649035 -0.008943879137329122
0.008968410545307469 -0.05038174605762221 -0.005168768053819782
0.0015866182057826367 -0.0447945167484666 0.008611836115319208
0.001819436636282115 -0.04498599500668814 0.008588167226406072
-0.0023213586543073613 -0.05406244529141374 -0.00916425949669399
-0.0027764999078398493 -0.05423542164759652 -0.008977218605092053
0.002361513842813502 -0.04537565009220167 0.008518629078439748
-0.002887065925656748 -0.032044937547788276 -0.008914803097078854
-0.0024705215265135743 -0.054181621639234345 -0.009106310967729835
0.0023655420511294305 -0.04501615388843856 0.008510908741341415
-0.002233477590188217 -0.05390785641813491 -0.009193413456364038
-0.0020376341165420746 -0.05354107996687761 -0.009261338924932618
0.0017301103588694806 -0.04456887775401441 0.008586803156651442
-0.0023176221075133997 -0.05397794138829877 -0.009163651738590621
-0.0027625614095483043 -0.031548892240075926 -0.008826973422128997
-0.002439553955047623 -0.05340956675460418 -0.009111346608362839
0.009694338647403038 -0.05222723153562664 -0.0038624007896920142
0.0021087508284070625 -0.04428833348636772 0.008539202753613436
0.009761659908894382 -0.05222705532540803 -0.0036730318208750014
-0.0020718639443970026 -0.0546837368625431 -0.009256604722900985
0.009720438702224209 -0.05203771564116749 -0.0037669716981161712
-0.0033808935398833753 -0.03143223962858948 -0.008676832246312716
-0.0019272752314656095 -0.054240823792215884 -0.009309074201201995
-0.003690661313597141 -0.03167301412091614 -0.008571636041691871
0.0022132748947664926 -0.04456288411842757 0.00852880082568968
0.009765973397562903 -0.05199993775806637 -0.0036340577941011525
-0.0016949491219425583 -0.054831035640876394 -0.009382458502907273
-0.0033521386219148193 -0.03182033286605963 -0.00872955017344252
0.009603572440857114 -0.051573405083263114 -0.00402067047705193
0.009580090722047557 -0.051473814040092034 -0.0040671199130258235
0.009596087337980825 -0.05139508452431443 -0.004016907454729705
0.00029606162018159285 -0.04509085112230661 0.008626386375249932
0.0006424380649834078 -0.04521576196410353 0.008642767499278045
-0.0016121242434920635 -0.05427743600225634 -0.009405447795401794
-0.0033486538494035736 -0.03117956312434023 -0.008674245322256103
-0.0035229754407241722 -0.031056624838136346 -0.008604143757067239
-0.003467912881201529 -0.030677722539326668 -0.008659429384501009
-0.0015423654450471042 -0.05381670283759156 -0.009420240569156177
0.0008955074980905592 -0.04497763808845172 0.008640227526104773
-0.002997138650414872 -0.0312043747531221 -0.008767334195811589
-0.0032067220706088213 -0.031104055308917467 -0.008721066841719196
-0.0012122221564397663 -0.05405024404954863 -0.00951047239916113
0.0005547503762272562 -0.04473495946505525 0.008634312924262755
0.009832163039341951 -0.05164078798752698 -0.0033884688699254576
0.009794184162659623 -0.051530899037894165 -0.0034898015898225097
0.0006423460061830259 -0.04434887086898285 0.008629269784323261
-0.0012055497397507342 -0.053930401288727794 -0.00951118942417874
0.009842220052267845 -0.051440330953268804 -0.0033266784174695177
0.00099125722748562 -0.04484008068972184 0.00864103310520431
0.009890789555085168 -0.05127926832447149 -0.003139499155459638
-0.0020065138796044315 -0.054066522057598945 -0.009276819153645702
0.00140167595963182 -0.04458473669017935 0.00861624855414645
0.009319720418463701 -0.05061854082766058 -0.004513703761812427
-0.0034316403161643674 -0.030484744067376772 -0.008715968248257143
0.009347978417399122 -0.05033685672038798 -0.004421645118665839
0.0005304568777626898 -0.04395601121491622 0.008624302868959446
0.0008723242427791034 -0.04409211563973681 0.008631837655111036
-0.0023830140762955707 -0.05329042346797336 -0.009133650080812999
-0.00204759683887549 -0.05334243158308578 -0.009258259757854506
0.0009347113634526262 -0.043966889382057915 0.008627527082903985
0.0009257382488075375 -0.04383906484355774 0.008625391260805484
-0.002028879059687037 -0.05307943087427656 -0.009262662819237297
0.009404799629413556 -0.05102419705222183 -0.004396151250373364
0.0014598633079613795 -0.044444687738231625 0.008609269468025758
0.009529457722855373 -0.05108880401660707 -0.004129704603371212
-0.002693502940452356 -0.030421651727068212 -0.008867248196169429
0.009492386215495287 -0.05081606689011053 -0.0041698378991171375
-0.0018033285684651065 -0.05248717435873631 -0.009336805195393868
0.009602720815358673 -0.051033510452480696 -0.003943471492097881
-0.0029257919349781813 -0.030047242678579188 -0.008879623744723474
-0.0010533877119381417 -0.05384238824402644 -0.009545047269126642
0.009566141338481106 -0.05060039400457493 -0.003961355946457246
-0.003077207593649633 -0.0296266928241633 -0.008885979843934015
-0.0012287697914405487 -0.053778237376788385 -0.009503526587924296
0.0024774532152000398 -0.04665001678737988 0.008521918222443671
0.0024965773156976805 -0.04663128215688571 0.008518441932873636
0.0026751797649560705 -0.046603071534185886 0.008487046551987263
-0.002619607271548909 -0.029816577992733583 -0.009004365831828145
-0.002455831187632544 -0.029980230862307812 -0.009038163980438333
0.0028933593853801296 -0.046494916733118466 0.00843964446064119
0.009682852587767205 -0.05079077625490813 -0.0036944581614684947
0.009689747854716164 -0.05070413338923385 -0.0036581410135443043
-0.0009455974344245491 -0.053068677873164403 -0.009558885982470192
-0.0024237265266297795 -0.032098087782268074 -0.009076235565256238
0.002976273037956882 -0.04624183123765911 0.008418863193566183
-0.0022980977945475374 -0.03202779192380402 -0.009147823168358018
-0.0005980449216231002 -0.05314501342892302 -0.009623285644587514
-0.002129116857762986 -0.03170238434157313 -0.00911571140378936
0.00991239704242137 -0.05104955744830206 -0.003029217952467163
-0.0018570939942197239 -0.05338275992165464 -0.009323445064170148
0.00974002965572312 -0.050537130780954634 -0.003490801106223043
0.0025651230530831536 -0.04568267224584648 0.0084881431272851
-0.0017422159976255205 -0.053034693066856105 -0.00935870686494268
0.0031088913077246044 -0.04622374998494984 0.008387274498902935
0.009657761619475059 -0.05054608327914975 -0.003720757489992356
8.515577494133255e-05 -0.03089332366230857 -0.00943338151803536
-0.0024759948979407444 -0.032028643273836796 -0.00904543535025183
0.009555224508133897 -0.04996438200170991 -0.003895425413438312
-0.0014012508574846967 -0.052965383416348724 -0.009453397340256173
0.009731458760480819 -0.05035745633152252 -0.0034818335722341604
0.002877023184287698 -0.045419235930490735 0.00842124052051697
-0.001224960787374055 -0.05266363911626861 -0.009500216849747589
0.0028149194267756937 -0.045359356271621805 0.008434512358565675
0.0026880179066930275 -0.0450402819676585 0.008455393723292962
-0.0017624973727534703 -0.052649232104448274 -0.009346050184729105
0.0032472395964395196 -0.04581009542669287 0.008337779433763699
0.009872762935209304 -0.05232393042168469 -0.003355412340467481
0.0034692596849135154 -0.04560697013273889 0.008275380808666072
-0.002427912947871793 -0.03152522850472188 -0.008907520407893455
-0.003252857500050611 -0.054129764834820064 -0.008757814541968292
0.009993299293178335 -0.052313759382986 -0.00295106868458885
0.00993785000166745 -0.05197922775754744 -0.003092134050639162
-0.00339972944963621 -0.05398392717773123 -0.008682665357192336
0.002900740739701546 -0.044839025002134686 0.008405934795624575
0.0033433951007623207 -0.044981935784469684 0.00829923325370527
0.0030236627411146604 -0.04483063292740538 0.008372314502326495
-0.004714854613215338 -0.033125381127646215 -0.00783234452823058
-0.005041066440397971 -0.03349094036519471 -0.0075826801592327785
-0.004866192453455075 -0.03329698558082907 -0.007707316934525582
0.00995493962320415 -0.0516620326690871 -0.0029798058755582087
-0.004914370116406837 -0.033043225440571394 -0.0077010253793306695
-0.0029197132824925927 -0.053562203352228326 -0.0089093319978681
-0.0027890309953261957 -0.0534579135180789 -0.008966927863598331
0.008759127916862983 -0.049992413422532585 -0.005461742998518762
-0.0032326021961160975 -0.05338832425436847 -0.008758447970095517
0.008837226901632553 -0.04986230853686454 -0.005322655660960465
0.0028397121948711725 -0.044758033383496064 0.008419072666076083
-0.004785511987087553 -0.0326051006329728 -0.007824323709826496
-0.004868238252624076 -0.0326138976058275 -0.007767140090798272
-0.002624535985988037 -0.053278273445000315 -0.009035060979760378
-0.0056818326077018805 -0.03303093120728426 -0.007119784351882982
0.0022061246117261813 -0.04414667119755159 0.008521683910061684
-0.005562220228642692 -0.03263172198599776 -0.007229056690737824
-0.005282664877955345 -0.03315938297549702 -0.007464489317678946
0.0025913040959438735 -0.04422061816660021 0.008457041269221168
0.002778163917674908 -0.04415884805760546 0.008417711032694928
0.002808574694796697 -0.04405098308651294 0.008409701929145993
-0.003030700244336914 -0.05299355946725881 -0.008856576572192973
-0.002747736007832758 -0.052895232496097414 -0.008982862044734061
-0.0029163114768403146 -0.05294043012062905 -0.008910245890028116
-0.005492302124846583 -0.03238808006770705 -0.007282704509428833
-0.002645613315106633 -0.05274657684931688 -0.009025283626097018
0.009207422518122389 -0.04997097975343037 -0.004665290049194481
0.009204606938341162 -0.049852972186780635 -0.00465682260938129
-0.002323667073164909 -0.05300559265618962 -0.009155048859478645
-0.002486150550089484 -0.052887410269988236 -0.009089978743922042
0.009276105235672863 -0.049789865762485924 -0.004502414180901526
0.0027635954514900717 -0.04360659862262168 0.008412352102778013
0.0025706704124055964 -0.04329420430264591 0.008441140312478387
-0.002529376933745442 -0.05262174252859261 -0.009071414652011063
0.00932959930009833 -0.04952759792779335 -0.004360951862461504
0.009279385337272017 -0.049468670621740526 -0.004460629760800518
-0.0024592133980395198 -0.052203161348135074 -0.009097099371996601
0.009053593263529839 -0.0493328118533264 -0.00489029319401882
0.002826060973803282 -0.04293999587078605 0.008382863948521349
0.003112703838595794 -0.043308534562763186 0.008323825462034255
-0.0021523151038175562 -0.05246152430484583 -0.009212979648577906
0.00321015620023327 -0.04295192359600891 0.00829623603354896
0.009125139749509183 -0.04915740222514202 -0.004734130782818338
-0.004437405980232926 -0.0321644034332932 -0.008035407428725157
-0.0047885094943207075 -0.032218408160637035 -0.007811825592940885
-0.0031101568347391634 -0.052610665942758816 -0.008818034333581774
0.0032206961951654583 -0.04240652050534053 0.008288257324734316
-0.004559350175020684 -0.032205367770930346 -0.007966523982007714
0.0006403434385596656 -0.04359750169119676 0.008624878195348018
0.009412328969936132 -0.049679802282990376 -0.00419299393330887
-0.0029504353433785846 -0.05211074018762602 -0.008891218589901578
0.009390215642317696 -0.04947606815134355 -0.004219806353471281
0.0010235615805387762 -0.04335054468644465 0.00862275362205209
0.001128332669920469 -0.043268584046829324 0.00861838636018372
-0.004255671976563607 -0.031515408063150695 -0.008163890865911032
0.00160449550426362 -0.043725900874902836 0.008588232970460227
0.001640912573617071 -0.0435658253076181 0.008580393255306096
-0.005219955482522417 -0.03219148670841156 -0.007530958943694331
-0.005357719429800738 -0.03210789358293382 -0.0074002453253968386
0.0012474787293567842 -0.04344282896996011 0.00861329712034727
-0.005100409515469459 -0.03178739872643724 -0.007600666740890508
-0.003040806859845159 -0.051092425800411886 -0.008830886304223965
-0.0049347150616831205 -0.032185066728583706 -0.007727641586422405
0.00948592955975619 -0.04907827909938195 -0.003939507817050905
0.009369061592917349 -0.048764950576201546 -0.00417791202724377
0.00951320670459294 -0.04897452681868325 -0.0038549931233504008
0.009494643517909102 -0.04985673493882299 -0.004028501947177669
0.0016617486049000068 -0.04312411398860734 0.008576707024331977
0.009610608899710986 -0.0498939986387988 -0.0037427934742282087
0.0015789701353868257 -0.042791535792801996 0.008580822779121292
0.009659295756491883 -0.04976499506571126 -0.0035863122072600792
0.001749641048239338 -0.04287319132150501 0.008564684389369588
-0.004852916052486949 -0.031753809684017115 -0.007768459436562992
-0.004669072101302335 -0.0314123142863161 -0.007879017369554021
-0.0007651380430179597 -0.05252461457248177 -0.009583710874921745
0.009016176714431204 -0.04863430419961348 -0.00486754389742524
-0.004406592169234877 -0.03257727153546586 -0.00809493631874467
0.0009078660779748748 -0.042815963408717905 0.00861900020390749
-0.0005159043372001324 -0.05230109984566849 -0.00962421806023846
-0.00042734442580838635 -0.05225291112300608 -0.009637630756985836
-0.004251420798388232 -0.0319745841038271 -0.008155829029181074
-0.0011866941020936372 -0.05246020009737688 -0.009503583464128777
0.001721420168395707 -0.04397673954979526 0.008581087157699426
-0.0009655442200813358 -0.05216698898470291 -0.009543487739708572
-0.005680766320234111 -0.03288799413684779 -0.007117138533457148
0.009200536310521788 -0.04841902365264493 -0.004496736475608736
0.001896380972535505 -0.04354870757381381 0.008554935703735585
0.0022496836707512663 -0.0436261094448312 0.008506291126030307
0.009219720085164081 -0.048187964472249836 -0.004427773251783143
-0.0010219457438427656 -0.05264131738004392 -0.009544220001448275
0.009295897724206316 -0.04859781191624108 -0.004318427027976112
-0.005701050733672182 -0.03245157291705771 -0.00707973583611113
-0.0007974610160125246 -0.05214537464558934 -0.00957366526099487
-0.0054376872781778055 -0.03213550879929116 -0.007324604836794927
-0.005841338175315995 -0.03242637154200515 -0.0069432339347244585
0.009054608845114054 -0.048129762992567285 -0.004738126042504063
0.00910656744637998 -0.04808484531245737 -0.004635443605213919
-0.005870765984555014 -0.03193421570852427 -0.006912960917575957
-0.006038383663267649 -0.032301075148785816 -0.006743985499984306
-0.00594398778812579 -0.03194096278488434 -0.0068444855503589615
-0.0009878654285905594 -0.05167259448063145 -0.009527793041325637
-0.0011235883700580894 -0.051643341577865806 -0.009499105397348816
0.00917289028941307 -0.04777512124552905 -0.004476204809652109
-0.0007974694215931162 -0.05202549318398865 -0.009572369923308007
-0.0005619766745436235 -0.05218755913285962 -0.0096144485224567
0.0018168259196121132 -0.04237569014003505 0.008551103493516267
-0.005704040949811101 -0.03166184968719448 -0.007082910483473832
0.0020074752944996754 -0.04219930081578051 0.00852524323249278
-0.00038063354597327604 -0.05182794168971293 -0.009634502733757506
-0.005310602494876764 -0.03135462599018732 -0.007435609896394721
-0.005331609280577337 -0.03127939890610071 -0.007408186770824289
0.0011372402911908044 -0.04253643132221347 0.008617883940234222
-0.0011502989082460904 -0.051318844106522626 -0.009485836639232203
0.0012324998003329615 -0.04230513277805884 0.00860597940926515
0.0013531985349842896 -0.042195391462249376 0.008593759632547025
-0.005431515986930252 -0.03107775021590422 -0.007313022885986295
-0.005386202362547361 -0.030997003698064875 -0.007340105132036982
0.009859439517106036 -0.05033688330614931 -0.0030852189879942964
-0.00020782387270666412 -0.05172061914105263 -0.00965507603771971
0.00171922538564238 -0.04238331291586597 0.008563450043269433
-0.00035483421441264784 -0.05136335490906594 -0.009626946810090551
0.009955186649743923 -0.050284804946463695 -0.0027357409350275987
0.009949958981835268 -0.05023038788262701 -0.0027431604397725245
-0.0005244059389529763 -0.051323678984459165 -0.009600658182111598
0.0009727817451572098 -0.04186523532321878 0.008606968117810327
-0.00028018661895862576 -0.05112021259282863 -0.009631198843415144
0.001164797438164855 -0.04165796451757074 0.008604214079546089
-0.0038867968845228227 -0.030699780037539134 -0.008418519023568445
0.00992469545601651 -0.04979666739836605 -0.0027503351545167297
0.0016653562664299165 -0.04212111375927513 0.00856648441091789
0.010004498182821472 -0.04999306753091219 -0.0024521110338474065
0.010028085432655348 -0.05012330403202711 -0.0023878003237278577
0.010019313781224438 -0.05002037798404439 -0.0023926093390765494
0.001617119823334631 -0.04178271846835652 0.008568321162468967
-0.0003545622212299475 -0.05053153663093107 -0.009602248549976027
0.001995038658988529 -0.041686590201609405 0.008521407923962231
-0.00477744489140015 -0.03081410481434653 -0.007792805315575811
-0.00479229889659633 -0.03077233457666726 -0.007780214989950262
0.010125671642970815 -0.051986612121237834 -0.0023617149552252227
0.0024174931609812385 -0.04287131475783103 0.008466943417529795
0.010085204108311024 -0.05181400974980626 -0.0025307998698994843
-0.0022484569251946824 -0.05213281149003863 -0.009177711253250795
0.0019960010004628458 -0.04288416103900302 0.008535204839272332
0.01013266295619438 -0.05176422081889313 -0.0022661224956530236
0.0022131250982436873 -0.04266619168532047 0.008501343631262299
-0.001963483110885499 -0.0517683013834785 -0.009268985922748482
0.010151678745942333 -0.052064773352978724 -0.0022480725250300943
0.010180412188751526 -0.0519728275012389 -0.0020452870693788983
-0.004781436791168205 -0.03035368057312476 -0.007810764764726703
0.010045838664590995 -0.0515450820517091 -0.0026393302159984197
0.0027465548799095094 -0.04233162692619648 0.008395588086176015
0.0027201941618611516 -0.04214206741958525 0.008395496167676438
-0.0021101949922861943 -0.051101503617440674 -0.009202705508370563
-0.0042439297011665775 -0.0302440121779699 -0.00819075767222568
0.010078336793998837 -0.05133181382439844 -0.002448683424460919
-0.0017440805951482192 -0.05154670034724965 -0.00933402680041981
0.0022851073415596154 -0.042074315768970263 0.008480972534799784
0.010060076019112978 -0.05100532967976955 -0.0024527293206560424
-0.003945010187847427 -0.03133908338768814 -0.008342121375222852
0.002831510048476823 -0.04259842248242121 0.008379384156716973
0.002759423560140868 -0.04249653410372396 0.008391522002518359
-0.0020215050387932766 -0.051205580006427144 -0.009235799959286403
0.0028918146829368272 -0.0422063666029104 0.008361936989850582
0.010214862384349058 -0.051815237939567924 -0.0017646559682471133
-0.002845111411696925 -0.051671367659032484 -0.008932043524699626
-0.003832023771564203 -0.0306633890521634 -0.00846128278247701
-0.002645316693788151 -0.05142057311709177 -0.00901269828528413
0.0033118405558964616 -0.044530363361602286 0.008298375268947828
0.0032942800777166527 -0.04454020786588736 0.008303357211009414
0.010159693643779761 -0.05150435425540232 -0.002069630971357613
-0.0024068629195820473 -0.0512012917349182 -0.00909960724014537
0.003299561102816894 -0.04411461450830685 0.008288791712831702
-0.003969115003347182 -0.030177230990210333 -0.008379769149961714
0.003614488968183915 -0.04454825881740779 0.008202977757954111
0.0038002079149357703 -0.04472084827647851 0.008151915786577112
-0.00388175229746397 -0.029884916038252142 -0.00843755866048218
0.003787965835734714 -0.04428522840761148 0.008145129041823596
0.010183191667053832 -0.051478911486674675 -0.001921733870647803
-0.0034311844612671736 -0.029437587526241545 -0.008787920346841366
-0.0013276680969086076 -0.051337241467329105 -0.009444290485682773
-0.0038376390763009954 -0.029429430318124356 -0.008544026872330482
0.0035335864846593092 -0.043955816881633324 0.008218631947083513
0.003686569593399431 -0.04380356946308518 0.008165419957262665
0.004036432920381182 -0.04430833532744595 0.008061720398265138
0.004159511552704278 -0.04414910026521346 0.008003965956623277
-0.004543551787031677 -0.02994402903987535 -0.008014699159386879
0.0041514812289342685 -0.04405381987352476 0.008004704947410254
-0.004582118143405669 -0.029714123908883682 -0.007997770490163461
-0.004479466649899792 -0.029645904208413742 -0.008057918494668713
0.0037679051083612347 -0.044067796250297074 0.00814467304612574
-0.004311904115799143 -0.029915590437318756 -0.008162598219690745
-0.004110657274507949 -0.029878639356633208 -0.008288146808448407
0.010117145400745944 -0.05062761572653994 -0.0020338975715766725
0.003059909747379448 -0.04439070590309026 0.008358245596549935
0.0030934087392221034 -0.04402791589146117 0.008342301562547155
-0.0012877665284647673 -0.05051837150938418 -0.00943220878954651
-0.004290386403100015 -0.029570094319334633 -0.008172581355758036
0.003197230107207971 -0.04382995265350292 0.008311850868426935
0.0031405212778592463 -0.04380799336725263 0.008327817557615703
-0.004202701189089586 -0.029095282223842868 -0.008357384220032198
0.003103445561664706 -0.04351296491584795 0.008329188296728867
-0.004065766479223342 -0.02969418577653814 -0.008317689033944677
0.010235824772861614 -0.051526792962525166 -0.0015014967664524188
-0.00196760738247752 -0.05047599274245421 -0.009234702681393245
0.010271270210849438 -0.051667993105733306 -0.0011067296153225213
-0.004046982573796425 -0.029201900872567042 -0.008444117721675462
0.01025816477687252 -0.05144427310163865 -0.0011412082793253308
-0.0024719404649208424 -0.05021492776892912 -0.009047195010383272
-0.0018641323730974719 -0.05054381090931534 -0.009270529343890133
0.004154370483499953 -0.04348512591062567 0.007992784151999447
0.004363974764705625 -0.04351935977400177 0.007913379585903024
0.010202219082832531 -0.05111945322622384 -0.00163809175889965
-0.0017938691160225627 -0.050078849687843624 -0.00927758650604066
-0.002321082104429612 -0.05020913590554995 -0.00910421608807937
0.01022970968414095 -0.05105071997259544 -0.0012601201709882737
-0.0023748398332529294 -0.049981754995377915 -0.009079209950926231
0.010226370250288323 -0.051051713280896804 -0.0013236647937232618
0.010219518904894927 -0.05083763012089451 -0.0012424713347766194
0.010291008517454504 -0.05169847326350196 -0.0007579990558012291
0.004340103876176352 -0.04315456464154139 0.007925396177716565
-0.004967382127800877 -0.030594836259502402 -0.007638132353727766
0.010274671696244837 -0.05126851805407035 -0.0007717260731563916
0.004617225019159871 -0.0428569075093391 0.007775790789814265
-0.0012921352169066784 -0.05114840214564713 -0.009450207141550341
0.010275529284798152 -0.05127470863894181 -0.00043577661255171966
-0.0010456841105335685 -0.05109375963179655 -0.009499846816953712
0.010269608671996616 -0.05110287683314812 -0.0007579627067515165
0.01023688966213399 -0.05085762709699345 -0.0009959184969588692
0.01024509184555025 -0.0508761024911959 -0.0008909987220840588
0.0033811718173571625 -0.04315378051988077 0.008252963029537421
-0.0011541199949914138 -0.05055987435229091 -0.009463161298154115
-0.0008647796748154844 -0.050763668363933055 -0.009525937508335958
-0.005157098377898195 -0.03021772987184386 -0.007551825245113081
0.010246939876565709 -0.05070126963249928 -0.0007405519454645095
0.01025706304851386 -0.050873867570057976 -0.0005698980215603734
-0.0050176518085069885 -0.029848542285110836 -0.007703688357726911
-0.0010890579405062554 -0.0502073357958842 -0.009464451178711166
0.0037305636706552107 -0.04298657470827402 0.008142612900088442
0.0036855926741797087 -0.042839708752380884 0.00816680659460045
0.0038802763402571872 -0.042680113386654776 0.008098250345041757
0.010166082897461234 -0.05063776946419236 -0.0016905522018593078
-0.006870458714336612 -0.0528516948860076 -0.005495014990076026
-0.004967574224027422 -0.029501313526270924 -0.007754894772034174
0.010192432424980852 -0.05071250504710881 -0.0015136428941813999
0.010191850899192126 -0.050485013066584934 -0.0013494669496224606
-0.007433157704297943 -0.05325332412372074 -0.004441962012724659
-0.00488665641257003 -0.029287307293292795 -0.007821871075312114
-0.007438451649456855 -0.05309838863905955 -0.004423935832640661
8.39206700016365e-05 -0.03250820247668114 -0.0094494613614381
0.010127329728267357 -0.05021022362807397 -0.0017878918281917567
1.112588566729859e-05 -0.03203793576424712 -0.0094374579517875
-0.006993170461721398 -0.05260314149411504 -0.005296537969546143
-0.006827338040034337 -0.052395674078674404 -0.005568561583294488
-0.006860768248992726 -0.05222300284823566 -0.005513637618020554
6.170499452087573e-05 -0.031805007264899106 -0.00943953851107981
0.010121472601962611 -0.04969800001495241 -0.001593951755232611
0.007126847054725019 -0.0393623935419032 0.006047739289815376
0.006985572333631627 -0.03917194690606888 0.006160560682800936
0.006893855104657828 -0.03916733376260374 0.006233840454106717
-0.007285661947807134 -0.05278409589172798 -0.004742521568307308
-0.007263897695620487 -0.05259524861852377 -0.004783245470217775
6.432043664850143e-05 -0.031571415331526395 -0.009437721556911857
-0.0074117883195632854 -0.052797378400848013 -0.004470237249336516
0.00644324238303246 -0.038883334605808846 0.006698879739071511
0.010219236410434658 -0.05040426886672357 -0.0009069001704842608
0.0007380458737696306 -0.031939286269583034 -0.009468296318737347
0.000624470542102029 -0.031723666228969334 -0.00947098461227296
0.0009647750097456578 -0.03176545512535599 -0.009456537208500516
-0.007093052809340188 -0.05209282642000252 -0.005110661421236894
0.010128549490553997 -0.049696602694966875 -0.0015215193631982638
0.00019220764668127945 -0.03142348478090399 -0.009442220566863339
-0.007294025628678138 -0.05191140012763013 -0.004723481982021167
0.010185222466798854 -0.04992914873647341 -0.0009954693676761154
0.0002884948321672962 -0.03110990723473067 -0.009447122917440974
0.010142702065734083 -0.04949610420689785 -0.0012469082343496138
0.010149233261199507 -0.04950097151668058 -0.0011787500570468751
0.0006335103103297837 -0.03154021841238397 -0.009472706742005198
0.001541724462350735 -0.04118435481783935 0.008567767536187643
0.00172621501713657 -0.04101046557450639 0.008546233862129063
-0.005429256276567761 -0.056423945517845325 -0.007303124088216087
0.0009437516037382283 -0.03134231043906144 -0.009454069141280531
0.0009623946406100631 -0.03136491069416691 -0.00945336934890302
0.0011728877714312148 -0.031230701551174155 -0.009434734202246295
0.00971335480725368 -0.04958965512585601 -0.003398473461872583
0.002186817051187822 -0.04120230006446372 0.00849192747434598
0.009675621011379584 -0.04934466841598123 -0.0034670332765304084
0.001982001823413579 -0.04114460225711961 0.008520282172458192
0.0016010806622111535 -0.0408656356204687 0.00855512440331616
0.00973310151086052 -0.04924460699929241 -0.0032754361605878946
-0.005111100491005496 -0.055792273100218684 -0.0075069137924542485
-0.005382874847026335 -0.05593870246712085 -0.00730237798776461
0.0016058895332814118 -0.03139563131032347 -0.009386118821229639
0.00983378705334965 -0.04957072056164079 -0.003014430165729294
-0.0053394282110705215 -0.05572679947095972 -0.007311296777015009
-0.005159257456380055 -0.05613904752085248 -0.007503561707880962
-0.005038034356645481 -0.05579240803822268 -0.007566687808397455
0.0020195817399863147 -0.04068421477004423 0.008507073013376935
-0.005890399389455708 -0.056309824825476154 -0.006885760926169403
-0.005724201987340303 -0.0560981717981508 -0.007040131176848617
0.009684547904509802 -0.04880066013476342 -0.0033443635958708886
0.0025276748571580587 -0.04166977494232181 0.008437889490247527
0.002801062352443002 -0.041770411465025595 0.008380095823272407
0.008929941622889202 -0.0370502414187725 0.0033389123545409403
-0.005563989879401531 -0.05573276173172273 -0.007117679638809162
-0.0056288620726455945 -0.05555157862114272 -0.007067686021916897
0.0029279294291312827 -0.04201379422707377 0.008351250281335893
0.0031151346764375534 -0.0418087299686061 0.008311292178749576
0.008659030851288389 -0.03717265507363985 0.003827666168710455
0.008596299615717081 -0.03745856708344544 0.0040102269031179905
0.00848944098586502 -0.037346342405346504 0.004142791653580427
0.009985324574342631 -0.04947177654664803 -0.0023831129384953116
-0.006091412978669096 -0.0557636765797396 -0.00654713760141646
0.009950441310910704 -0.0491706957773139 -0.0024767379013813
-0.006287279249865092 -0.055872483616025724 -0.00629672191727376
-0.006185274347644472 -0.05571664392119166 -0.006402042883337372
0.002786102634261825 -0.041340724831432314 0.008380887599751538
0.008746703064306818 -0.03661007645574689 0.003715552129482718
0.008562806165734821 -0.03706581809057642 0.003946018197910702
-0.0059578821214858885 -0.05538833067177129 -0.006682905077330411
0.003275520984061107 -0.04145335082151764 0.008272125649505217
0.008676335057434325 -0.03660121209144639 0.0038230635942789262
0.009803400860839173 -0.048577981485571776 -0.0029076943203503493
-0.0060305267930694005 -0.055181117771127136 -0.0065861207837596795
0.00875801802855884 -0.036408723184573256 0.003315614112223652
-0.0065614372851016 -0.05584353830621822 -0.005921373569359142
0.003161551174153591 -0.04132329746703199 0.008298612585637114
-0.006533057642081061 -0.05570122766808038 -0.005954872754989901
-0.00637919582994604 -0.055515951700267546 -0.006141750405503672
0.009548999252607791 -0.04864386100102868 -0.00371392670781963
-0.006650652212844763 -0.055686443965796896 -0.005789467982645812
0.002547808669996176 -0.04135356904959041 0.008430500214181185
0.008733191074955075 -0.036220194150779386 0.003548953241521504
0.008578748204925083 -0.036348884964476365 0.003891736745050333
0.0025284202986013615 -0.04100397826016374 0.008431512557501384
0.002738497042790335 -0.040918847617826146 0.008391088284854612
0.009513038930464249 -0.048263400901414025 -0.0037599313702160603
-0.006390434878381254 -0.055165152326010304 -0.006141266900318408
-0.006509648836928117 -0.05535745185460764 -0.005981307597299723
0.009352809981365949 -0.04781321950901602 -0.004097439483365123
-0.006418577692240074 -0.05510808344685798 -0.006109347205968
0.009317156812359374 -0.047737787733473945 -0.004169002304455904
0.0021816358128769818 -0.04050595707322716 0.008479546955692297
0.0023616845124971963 -0.040519568477291025 0.008452484311119805
0.009394694121166797 -0.047800304739820665 -0.003997596054892938
-0.005678342840455842 -0.054987580852773395 -0.0070396488014845375
0.008941963817277222 -0.03495752697067119 0.002696783758408371
0.002511585217934765 -0.04009728448712695 0.008420430417927125
0.008944707519176873 -0.03451608106527465 0.0025224083513565813
0.00950148312035046 -0.047661669705486166 -0.0037156406426657935
-0.005098116803396938 -0.05552460130256661 -0.0075200114494265915
0.008925578799457668 -0.035095007756866956 0.0029696704864103597
0.002548623180145839 -0.03971577300234118 0.00840487617691976
-0.005255662472016347 -0.055330027090372796 -0.0073991025492128465
-0.005147292895210057 -0.05521287397313577 -0.007496705160847134
0.003215271288347912 -0.0406731184148804 0.008281964678197046
-0.004898921642809665 -0.05566896652160627 -0.007675272359444183
0.008893787927534187 -0.035348224677725644 0.0034876368368239306
0.008958941141004116 -0.03509254805114589 0.0033978075685327284
0.008956304340448808 -0.03500479015642689 0.003373861533270875
0.0034247499493466676 -0.040703375402512725 0.008243309990672033
0.008936819607806587 -0.03490954005360165 0.0030876175784394287
-0.004855975936838763 -0.054737415067597515 -0.0077521103859553644
0.008906432454836844 -0.034450910249502496 0.0027580119161598068
-0.004992118558120173 -0.054948226526873784 -0.007636866391713861
-0.005086366789840504 -0.05471479554244274 -0.007570447890465531
-0.00491520427242929 -0.05460218444875286 -0.007711093959238422
0.003905405269073032 -0.040530143697190074 0.008128761330201682
0.008943006275198548 -0.03490000366092065 0.0032992349280743915
0.009758678333842443 -0.048431095555557094 -0.0030342525041605136
0.009803191458417595 -0.04845981575067136 -0.0028865440293312714
-0.005353961608892385 -0.05493988213172704 -0.007339585156943942
0.009734881775425355 -0.048160196387600246 -0.0030738784544232776
0.008992655453547427 -0.03392130975167999 0.0025635178362464943
0.009781645191039048 -0.04805019450459758 -0.002898732559368936
-0.005532526743553732 -0.05493237722375519 -0.007167729438398134
0.009702362722846612 -0.047918959824101444 -0.003149858317977586
0.00296645554868372 -0.0407243218587366 0.008340270247009614
0.008983980593116333 -0.0337902440433798 0.003012125759793585
-0.005312832020134276 -0.05446159836017357 -0.007358920338924974
0.010020621827342438 -0.04950204011738048 -0.0022107155001084814
-0.0028385049698050283 -0.029662780120639453 -0.008948268399462361
0.01002078038716874 -0.049272765868202326 -0.002135887287812891
-0.0028056640051452495 -0.029252540688104907 -0.008992314900308763
-0.005405781225309815 -0.054115482922489966 -0.0072867863856046
0.010065616399330695 -0.04928968179889696 -0.0018468748084083909
-0.0027205574195803073 -0.029461455235677128 -0.009009238484829516
-5.248043726979308e-05 -0.030709329560608827 -0.009415722463052284
0.00317641781080182 -0.03974070071827459 0.008276373144958467
0.009949253587525941 -0.04886202484764905 -0.002378107644980634
0.009907831113444827 -0.0486787622156338 -0.0025320082931556123
0.002974652533568374 -0.03965241636026643 0.008318534699135835
0.0033571210623427605 -0.04029291362746706 0.00824205148425795
0.00021013114657794223 -0.0302226247160607 -0.009439667364061656
-0.004676393170037062 -0.05441243534103639 -0.007895999912119272
-0.004652254905053783 -0.05431161653117726 -0.007915305031934262
-0.00018770870183753945 -0.029902583066876952 -0.009418905840475767
0.004695370576085633 -0.042515472660091175 0.007755737155327355
-0.004926791881295388 -0.054223469832859 -0.007707049856776479
-0.0047372216247475825 -0.054079662007365595 -0.007855026087896216
-0.00460623856627667 -0.05464451062187776 -0.007943818145239773
-0.004480079762903851 -0.05437334406347394 -0.008044038112945582
0.01003274956570685 -0.04864030821017501 -0.001833614232418168
0.010040180900575272 -0.0486290250713504 -0.001776398263407307
-0.004479698717160569 -0.053903043626253117 -0.008044256514507485
-0.004351708417208552 -0.053708416796377646 -0.008126001261526825
0.00359303574765782 -0.04217437351360634 0.008191482012641837
0.010038391754607464 -0.04833805739023811 -0.0016923047772697242
0.003821635582648466 -0.042090916567535275 0.008139829590238366
0.0004908678281034999 -0.02919811807711438 -0.009439766790765315
0.009700579991147335 -0.04732391668706119 -0.0030859524620297763
-0.004333731159205623 -0.05388273223828197 -0.008138162779150002
0.0005315702843665804 -0.028853547566821902 -0.009438815805637109
-0.0051528133994961705 -0.0542677972118845 -0.007510164271205628
5.6051717147653256e-05 -0.029047777788135963 -0.00942656863037484
-2.41232395675312e-05 -0.02883857112253003 -0.009424213749245328
0.00397554611865736 -0.04165706371320853 0.008117769320281715
-0.00018163531975398715 -0.028484604874513507 -0.009422849781625303
-0.0050131954306393695 -0.053733924689855064 -0.00764480466767379
-0.0004016341644270847 -0.028345411306124047 -0.009412826884262994
0.004187986643678324 -0.041455722094418994 0.008062158126805715
0.009961792047436796 -0.0483539665934021 -0.0021834081074510654
0.00028492045339639164 -0.028880073495002385 -0.00943407783063932
0.009797374935832485 -0.04787734774098514 -0.0028310853359044346
0.00015265015129849408 -0.02865082884250822 -0.009434172452516829
-0.006215801548155665 -0.05499134271310829 -0.0063739800131082805
-0.006278874498958921 -0.05490308991352609 -0.006300602018903437
-0.006351177713300767 -0.054810439023971154 -0.006214902985269204
-0.0064644167937861225 -0.05458333007348933 -0.006086611890992933
0.009816797454847733 -0.0474788679806993 -0.0026855007174562103
-0.00015219966405790371 -0.027138123818839368 -0.009411957605515978
-0.000338574572760189 -0.02697550710333486 -0.00939914487719538
1.846308379512495e-05 -0.028287356006169523 -0.009428571813769113
-0.005618764548379402 -0.05404362487602252 -0.007077665214823796
-0.005613838304244617 -0.053903671901417025 -0.0070885357662551565
-0.005472292402477439 -0.0538883381725099 -0.007235881769893801
-2.5509852173892977e-05 -0.028122991143543108 -0.00942651844492921
-0.005685913671241642 -0.0536261349000076 -0.00702774084460296
-0.00015159671027578913 -0.02770304785566118 -0.00942008841892218
0.010021964976478892 -0.048047938049829084 -0.0017183669585055543
0.01003725614151928 -0.048090708318288926 -0.001603078923120128
-0.005458784606340569 -0.053436836252248036 -0.007253094257259209
0.0006334636498998803 -0.02839143465964977 -0.009439581504764155
-0.00548634420282091 -0.053205872759932896 -0.007228330960163744
-0.005323717286596495 -0.05316870982785703 -0.007377550849142573
0.0007516158320488707 -0.028217697670924486 -0.009433364212646709
-0.005800477818433715 -0.05329191157008992 -0.006937831153492663
-0.005613531546190356 -0.05315318156074677 -0.007106949995904381
0.0003658323843339309 -0.02791793223980673 -0.009435385950118811
-0.006110166384996592 -0.05342072908612109 -0.006587111080667077
0.0033678206807759683 -0.03951344573609633 0.00822525389742534
0.0003088404757486796 -0.02769337283679952 -0.009438228987194352
-0.005979263221290204 -0.05314772665712551 -0.006719156437531157
0.0031623905574408796 -0.03955761441873429 0.008279043913122732
0.00018643730159219145 -0.027366842407114667 -0.009430930024299362
-0.006098906844520594 -0.053110318151769545 -0.006558265556609083
0.0009036511688231751 -0.027897618778356205 -0.009423424289389313
0.0032050053166396333 -0.039107813414927625 0.008258947345810255
0.00048203655214637574 -0.02775503450491919 -0.009436897063366518
0.0037295767917675604 -0.03963686423201501 0.008151312786587234
0.003731302974778629 -0.0395469486948919 0.008145625076959219
-0.006782318740041668 -0.05578630949291684 -0.005594631278662699
0.0007872278823294093 -0.027646358452320524 -0.009429556683540006
0.003547210865015059 -0.03916215247419826 0.00816914723460679
-0.006738865035538261 -0.05528091861738292 -0.005657973006817929
-9.319763604666203e-05 -0.027351019534265036 -0.009413674021962283
-0.0066242373053970235 -0.05519751314100211 -0.005828004173249472
0.0034890943715681667 -0.038912364053638224 0.008183801109116724
0.0031988017671578813 -0.038764713871729355 0.008244220533285157
0.003561923674262251 -0.03889538290078781 0.008168483481124299
-0.007679660357837887 -0.05512141627410395 -0.003808085174916075
-0.007320277774228641 -0.05528221240701269 -0.004637176417450538
-0.007364817734105997 -0.05524854388796011 -0.004542003823559705
-0.00019360175855762595 -0.026531411425952924 -0.009402718112297904
-0.00731944471042676 -0.05506759218418088 -0.004636094052792134
0.009198872420952181 -0.04722004893323303 -0.0043711678980621
-0.00029017042777080296 -0.02615755399525613 -0.009400888120183687
-0.007358140450328232 -0.05483656049402659 -0.004567900410806687
0.0034739973917716697 -0.03849867264820369 0.008175162638359917
0.00013553282982715112 -0.026023311740371306 -0.00940771401151831
0.003711819597339212 -0.03849484144174248 0.00812174366470288
-0.0072345611570839895 -0.054455037846735124 -0.004834326778803613
0.009266164522257037 -0.04695836948415301 -0.004205171096117488
0.003757321513960012 -0.038262269522956666 0.008121191109776762
0.009347522603675083 -0.04684211470057793 -0.0040118560580310325
0.004091255211998838 -0.03857353521615787 0.008054689131996095
0.001045436262976511 -0.02733172317331331 -0.009405838730000846
0.009193447249340379 -0.04672928006920122 -0.004342121738312792
0.0006791373436446548 -0.026963969250912403 -0.00942574079956832
0.009268500277641971 -0.04661524424959383 -0.0041704735269212445
0.003958753373536508 -0.03784706848426759 0.008106564419306177
0.004009250358746013 -0.03766230708184411 0.0080918770878764
0.009401008180866257 -0.047002332873319994 -0.0039013186390996065
-6.345557020184797e-05 -0.026988926768274683 -0.00941083894618646
-0.003089491170023625 -0.04195221204360679 0.00783206652864392
0.009482367060007518 -0.04722792149716063 -0.0037173270921631646
0.00026556592518391325 -0.02676183701982268 -0.009423478307931476
-0.0029493561907655203 -0.041881617062617435 0.007889575760056762
0.009503798052559883 -0.046988267140356435 -0.003633233312645503
-0.0027818085111964872 -0.041789767952322074 0.007948293349515969
0.009602773944147087 -0.04721862419451438 -0.0033789284273473517
0.0006797285240492651 -0.026894198350108322 -0.009425588220106182
-0.006574672316708523 -0.05461161313684915 -0.005934326501084235
-0.006547802593630598 -0.054419177065200955 -0.005976774545091601
-0.006621876179755079 -0.054209942370708405 -0.005875780609925231
0.0005189139574047436 -0.026529782308901705 -0.009417772992039369
-0.002084753039392962 -0.04222289764296099 0.008149672154479728
-0.0066853487974731125 -0.05429478143532499 -0.005771803754234059
0.00014113843453605868 -0.026253820529767293 -0.009407887497360445
0.00017484266771820357 -0.026151582812961247 -0.009407714634074306
0.00018729169931378507 -0.025997958909187137 -0.009412051334454358
0.009453568016704774 -0.04666592617514689 -0.00373368529773661
-0.0023853091240007146 -0.041815596764453344 0.008060557933718567
0.0008252159905797987 -0.026459879700603026 -0.009407978285513041
-0.006527040178197311 -0.05371133621936344 -0.0060258227330261364
0.009443012548384335 -0.04618483814416756 -0.0037189869909468867
-0.006665266214840912 -0.05382576428974481 -0.005811621921687126
-0.0019990660022843085 -0.042086106634170714 0.008175170661359928
0.001134082735333048 -0.026281018179327525 -0.009383365532124984
-0.0016128106532819404 -0.042204674378364074 0.008284417000385907
0.009277302780813027 -0.04590861842361153 -0.004100444627407348
0.009403124782383745 -0.046094740459596016 -0.0038116154801906563
-0.0014617320307326687 -0.04203717472943336 0.008325065014974608
-0.0016916845763677761 -0.04185652407878064 0.008257756963236312
0.009340872632231365 -0.045850603736092475 -0.003946778076069528
-0.003719946184211898 -0.029304197948625862 -0.008725751039876847
-0.007079374705190481 -0.05407629203464039 -0.00513190029854394
-0.006811542884092649 -0.053925403449135566 -0.005586154566149762
0.00934856001195955 -0.045463641280506784 -0.003900160410681628
-0.003728321565831168 -0.028812777754131796 -0.00875395368269445
-0.002490257484457568 -0.04142857938932123 0.008035431137099014
-0.002837361711151616 -0.04125956973429796 0.007946946787571851
-0.0028108170206133944 -0.04120901452608698 0.007960676325815189
-0.002414892821129217 -0.04125259486108708 0.008059150068320302
-0.006942866700359334 -0.05341794933250525 -0.005367098819269797
-0.004222231562779842 -0.027164019079395432 -0.008228586389804674
-0.00403004299341532 -0.027012582893252462 -0.008430387085516416
-0.0025456557612514616 -0.040929479125599195 0.008022631016594433
-0.0063614096763952 -0.053181682919652556 -0.0062311441302101075
0.00951138461560037 -0.04618334779375573 -0.0035357058445633256
-0.006429391922597753 -0.053063705565851334 -0.006133927519450459
-0.002519099033449986 -0.04076151353901346 0.008035171069998364
0.00966366221647851 -0.04667566605919826 -0.0031225769282351343
-0.0063246687018791185 -0.053035687919152696 -0.006265906526514039
-0.002450409002562635 -0.025769725955229625 -0.009045582899751553
-0.006208547519225921 -0.052739538787699825 -0.006382392158521627
-0.006380419625418347 -0.05279512296225127 -0.006185773941870056
-0.0031886224031694027 -0.040103653998851393 0.007858450855485774
-0.0029288441111803396 -0.04036494340286322 0.007942003514672216
0.009614254263875736 -0.04611749192845023 -0.003226072633894861
-0.006410916815884418 -0.05256589656172075 -0.006149490046105976
-0.006739187369022075 -0.05338720418339049 -0.005698512598631973
0.00978921135482632 -0.04662378405208742 -0.0026613887440545903
-0.0023087100208015886 -0.040346563161630766 0.00809316038085145
0.0003123202221523354 -0.030868957568277396 -0.009448841899493908
-0.002066446500069288 -0.04145209433402283 0.008156488987086747
0.009761269117390833 -0.046101553221261256 -0.002703441689680891
-0.006817882405594973 -0.052830850920675874 -0.005577887148101551
0.0005928989075221007 -0.030539959559777813 -0.009455856988569112
0.0005748526376931703 -0.0304880233591321 -0.009458888380746584
-0.002136530747706659 -0.04105102959417571 0.00814118699733119
-0.0066067094924454626 -0.052399370225265904 -0.005893184349290574
-0.0017989681526153032 -0.04105984792012972 0.008230357432233822
-0.007330099340699744 -0.05410023267488541 -0.0046448140678682845
-0.0015714822373341644 -0.041599532046738746 0.008290898141159062
-0.007446657425698013 -0.054063231594751446 -0.004389528050206908
-0.007513343531841351 -0.053749008910709585 -0.0042470755284884825
0.0009846157437540595 -0.030517287228609812 -0.009443106922656493
0.009830211368105813 -0.04682036029423868 -0.002498721281037437
-0.0014859693382804754 -0.04131051433894618 0.008313690849658332
0.009923590284837044 -0.04709554331428578 -0.0020682284059944014
-0.0020948528868310846 -0.04069513231879645 0.00814927658887028
-0.002034193000724541 -0.040972206533367 0.008169145098222707
-0.0018786206673748465 -0.040863011806302696 0.008214900980385716
-0.00642977628316091 -0.051793055567498796 -0.006155982370068808
0.001173848291231632 -0.030212869584973333 -0.009422722299600271
0.001316733653672847 -0.030143392480051025 -0.009407398401236467
