-0.009027656098300143 0.020072211162960367 -0.0009390256298648453
-0.008930033568342892 0.019774624017166856 -0.00028466401108105595
-0.00905785364030259 0.02061263450089311 -0.0013597733379076336
-0.008981936652485468 0.0204320885989005 -0.0016834096719665665
-0.009068685537004247 0.02055399400758813 -0.0012349324558633991
-0.009080006811150312 0.020497803288303976 -0.0010603523940179759
-0.009087182758385177 0.020418108041850083 -0.0008208831333597075
-0.007798513593102081 0.03368197725627074 -0.002759654471194139
-0.007791121964607066 0.03396242809516541 -0.002519937846728073
-0.0074439341642956285 0.03390470832915754 -0.0035117129270385928
-0.007801523332358333 0.03414338767233782 -0.002246704990867863
-0.007853477234654613 0.03393513044981972 -0.002284580548320668
-0.00788029274065338 0.034060013717355925 -0.0019825571512573476
-0.007948858223614595 0.03399843753315672 -0.0017688276953995604
-0.007976427044794513 0.034247358100693466 -0.0014392375726944395
-0.007792940259745563 0.034321043190489044 -0.002035630664386594
-0.008495253574330165 0.014541066855408735 0.002385467690861646
-0.008125503067221339 0.03395480370984443 -0.0010434514886297759
-0.008248119410224106 0.03363718916001679 -0.000765454400186423
-0.00840855162970632 0.014376180953420935 0.0025739310232549386
-0.008320551461046218 0.01467231384863475 0.0028691757226123457
-0.007990439826146441 0.03448035196891079 -0.0012634938754246064
-0.0081198212555453 0.0341294003166544 -0.0008890355413553898
-0.008135434673449321 0.01408936519718353 0.0032222908847707663
-0.008230035637153466 0.03384717750892822 -0.00046549420817261055
-0.008212556459039207 0.033979500281545776 -7.250989044512431e-05
-0.0081679592615812 0.03454409826309557 -0.000611582572849592
-0.00815184652620772 0.03421093081330984 -0.0005483190019839569
-0.008030157508257614 0.014161188480278449 0.003482605363505624
-0.008066097145125935 0.01374324780497926 0.0033450478688043612
-0.007825635168683348 0.013822725242250325 0.0038031237871751205
-0.008235275492541697 0.03498274290583637 -0.0005112230654852885
-0.008102832420773805 0.014777419470840452 0.003344649824715927
-0.008183879231753576 0.014404073181774895 0.0031423826865167783
-0.007443035060877937 0.005916509616393549 0.005161985022831592
-0.007300243412754511 0.006210262952153005 0.0051055143416639795
-0.007462839304323051 0.006198495973356399 0.004881962122332628
-0.007278067783907883 0.00633278463489906 0.0050362888700737
-0.007021793880674658 0.006624696938262908 0.005237246113955384
-0.0068832949596425675 0.006565523890640107 0.005376469780862236
-0.006808661928975897 0.006641411566998006 0.005418322511549415
-0.007190377860674178 0.007141426889460343 0.004750600199221494
-0.007063479386425295 0.007187934084086801 0.004944630673887413
-0.007028357679673651 0.0072212741970680006 0.004985769448283576
-0.006668361763340798 0.006521630238861638 0.005570701589504477
-0.008136253362490731 0.03436892715565414 0.0001690475501706074
-0.008139603348008966 0.0342933082776769 0.00024191194997803597
-0.007158847943971557 0.008767616068008192 0.004694615555867079
-0.007240324482367572 0.009264207542498315 0.004648165504372632
-0.007186776909164125 0.008757729128014115 0.004666441816164843
-0.008197924199756946 0.03485034072856183 -0.00019127317003444393
-0.008200771107552138 0.03479272646328417 -0.0002760953830676343
-0.008138417494135039 0.03461993996262157 0.0002849237987100138
-0.007227950142333011 0.0095733845126201 0.004665183854977018
-0.0069905898277569985 0.009445167833637663 0.004886213497871394
-0.008027110948954991 0.03440737276923327 0.0008802532750006623
-0.008078695134106011 0.03394471932995909 0.0008052952059778626
-0.008012558923750386 0.03411720083854738 0.0009795881099177927
-0.007848970652539842 0.034503216015321914 0.001439050001693529
-0.007757502013736263 0.03462245886879229 0.0016440224802869803
-0.007755797637454444 0.03408837941991173 0.0017309528027551918
-0.007642845672196625 0.03417635221389734 0.0019473111653220245
-0.0076323500030821955 0.03438474040988734 0.0019264849762287686
-0.007424621124615239 0.03451494992805081 0.0022642143525409947
-0.006063563073211077 0.05627683807442853 0.0019014847627163139
-0.006023688812915769 0.056313300528522736 0.0023876088157484686
-0.005973716861038442 0.0563601944160511 0.002603642024690681
-0.007111853333714097 0.034641654317461044 0.002769832786827631
-0.00715079915085596 0.01013897179730159 0.004752135747202695
-0.006848437877596593 0.03452503880127046 0.0031232756920842927
-0.006895231106530215 0.03435619245292574 0.0031027156461497615
-0.006768137264766659 0.034536898937335164 0.003188782742074875
-0.006572856744087837 0.03439693412706431 0.0033978599600572425
-0.006391508598495063 0.03425128867087558 0.0037155550288120115
-0.006368616885988888 0.03445061478330232 0.003634555952394882
-0.0073970747126209735 0.011155400718021702 0.004538310781504735
-0.007258330996695445 0.010865854600805164 0.004672839080276712
-0.006151237216736861 0.03418678411915424 0.0040532250953115075
-0.00748379273999127 0.011303754622336386 0.004433615028851739
-0.007433515928448126 0.011730328802324812 0.004518781371441001
-0.0075260683250258295 0.012297698501341901 0.004399379748615393
-0.007496331885058204 0.01192033645040877 0.004429732908250559
-0.007413533763583347 0.012241421236107107 0.00455537853384156
-0.007370262899555751 0.01144179399203164 0.004592895815678632
-0.007096422433343557 0.011526906571094406 0.00490756764760736
0.0011183950601638668 0.056355048037554235 0.004461218589501201
-0.005851622279074415 0.03450537538795677 0.004410060280689148
-0.006079976911183645 0.03424402470840026 0.004114525711937877
-0.0066896534891499465 0.011191898992988152 0.00526596698866326
-0.006618832272371823 0.011617391222049262 0.005383062562583068
-0.006749726330366467 0.01136061878827139 0.005228908722504199
-0.006887016457909418 0.01126505067757782 0.0050953864787075245
-0.007052007995021478 0.011802451005931202 0.004958335867538607
-0.007065086779350461 0.011967738646078606 0.004938451725561535
-0.006938386654228083 0.011970794911210753 0.00506364486048118
-0.006504330666378513 0.011875240215098802 0.005501213771917364
-0.006753730639590241 0.011965058394728997 0.005243480715961348
-0.006450358399110496 0.01122926897606009 0.005519088093108646
-0.006265798861395068 0.011344688933127366 0.005765288097710349
-0.007244295096529471 0.012413853627036632 0.004740323932591158
-0.007296434049685704 0.012925069690396472 0.004600140043500367
-0.007572941237942195 0.013110756400881506 0.004255340714887204
-0.007147088165129626 0.013487291649381856 0.004670696476331533
-0.0073303761638916385 0.013068410646269998 0.004537405355141937
-0.006995783195567952 0.013447536552708543 0.004864936448132063
-0.007069068807014887 0.012937924181209565 0.004848107372755282
-0.006849190315679975 0.012915966387322578 0.005096460829437924
-0.006748543110096067 0.012451435436258056 0.005228274010462863
-0.007800970930305209 0.013625095613962308 0.003850976259596026
0.0041525147679944896 0.056703574461139356 0.000560192083727272
0.004226958054026531 0.05664373815899605 0.0003786846146076507
0.0035779552720465583 0.05689819748789603 0.001190220027666869
-0.006069301041116468 0.011705779505837125 0.006086230650674616
-0.006266531986917088 0.01176910606495101 0.005804078904810222
-0.006297418122078107 0.012139010228984459 0.005708467680056874
-0.006267534154499211 0.012246337108655164 0.0057278865084828485
0.0038921912608952513 0.056737842933235014 0.0010907465898183314
0.003670322631366824 0.056864864244057504 0.0011287467226555822
0.004052083765448732 0.05675381190743914 0.0008119027180676112
-0.0056583951568469504 0.011649331580417581 0.006529540484368808
0.0037951185315173446 0.05656181433104482 0.0017997869256439817
-0.005483520459951791 0.012161064172112272 0.006509232726129245
0.0035631771585282754 0.05675662140235199 0.0015202407032812396
0.0037451243662142758 0.056716876023829396 0.0013964351213968653
0.0036275963651390295 0.056565887309543365 0.0023612009752950864
0.0032410898532919752 0.056718161114430996 0.0023187619348541883
-0.006825050529427502 0.012946957425255543 0.00511923140848887
-0.006537505869965487 0.012629067333312271 0.005430439602920053
-0.006379458409503783 0.012610081845823962 0.005599147762204765
-0.00659973578209818 0.013111328528975261 0.0054077685500407415
-0.006312211135024871 0.013133255972112725 0.0057648707236000706
-0.006194841941999849 0.012712090304611113 0.005796100168606613
-0.005920664770986091 0.012618178783208839 0.006037550870225435
-0.0058522161772623475 0.012374240112435783 0.006137608092759488
-0.005497730823078037 0.01236081503271964 0.006441547550861532
-0.005475887026878557 0.012777562058124314 0.006378522568835687
-0.0058392073191508515 0.012928546045922843 0.006114668608242781
-0.005988464941611393 0.013261110786337222 0.006124092898466355
-0.006007703750848632 0.013459652978520642 0.006205777522764126
0.0026492451615583623 0.0567251569840286 0.003244948977099955
0.00233508561425158 0.05682293116213296 0.0031985553550356047
0.00282940758884241 0.05663176910892709 0.0034590858775916653
-0.005568819216332283 0.013159005364538501 0.006371182671084375
-0.005420470435259051 0.013101278941730356 0.006461835507092534
-0.005411524939753072 0.013271763863313848 0.006499206255620507
0.003467624617084629 0.05660343021585147 0.0026051822131759224
0.0033647908605903038 0.05659726917837364 0.003085245517667212
0.0025692402865053797 0.05678284227609393 0.00314131018733858
-0.005162468101246491 0.013396366266186866 0.006670238711248709
0.002866712716752389 0.05667447891367558 0.0032222305531018555
0.001717668687033591 0.05648455605869223 0.004255306795394399
0.0012115247053236134 0.056440520057456894 0.004256062929613532
-0.0056798662258986665 0.01376380558958016 0.006473843961989637
-0.006047159221165426 0.01427141090708058 0.006403484274529642
-0.006078319750285326 0.013779072285806344 0.006292613449291537
0.0024802330632598497 0.05654723954816556 0.0041127499385274725
0.0021512559191220557 0.05664821848673389 0.003695119924425923
-0.0058473094237683505 0.014750265005439092 0.006541230910980917
-0.0058248303890906855 0.014472679958965697 0.006526704649828838
-0.005666012538713852 0.014723199302630977 0.006626749490422628
0.0031579497543093296 0.05654632239880435 0.003950139510686988
0.002774637005777965 0.05658334750308619 0.0039028725410538163
0.002232033661187571 0.05648474688964292 0.004500622141680714
0.0020604809395936992 0.05651939397595139 0.0042012214554809045
0.0017159880613335427 0.05642433046217404 0.004488678962974056
0.0021950873966031645 0.05654443155087977 0.004115289378587006
0.0026190546591443424 0.0565256425977127 0.004491267066077597
0.005671818594116982 0.03435927496271546 0.003275275205557539
0.005769223362014222 0.034560889942028876 0.0031353803933018187
0.005787979562292409 0.03411938497661495 0.0030487984414732505
-0.00590159738006097 0.056485772114565326 0.002928246197448014
-0.005946953143420994 0.05638681057223329 0.0026923177404716433
-0.006044527002324312 0.05637181103415899 0.002668399984427876
-0.005195297212444929 0.05660630536078713 0.0031670949718139167
0.006736097055220241 0.03396174271583463 -0.0010687093975442856
-0.005541575136605421 0.05650409013479737 0.0030682873055022336
0.006766538344305332 0.034387476684680916 -0.001103853176190099
0.006752948477931185 0.03409509993328248 -0.000755838855726566
-0.006177384848863475 0.056760189602312355 0.0036345447770975954
-0.006028736185959639 0.056588631691547854 0.003268862326375502
-0.0058789027524339885 0.05671235824336008 0.0037131052458546877
0.0067482375310916965 0.03408192927335956 -0.00026823509483394134
0.006764332390524509 0.03434244367879248 -0.00035934260525313485
-0.005374114487771709 0.05659617257068743 0.0035605349837321276
0.006777046462047135 0.03453543776466242 -0.0012540315761493935
0.006791229887979865 0.03495752502156537 -0.0010285001825578771
-0.004696511843487716 0.056744221710901155 0.0031888308003779307
-0.0049635660221366475 0.05670022310690845 0.0029847227943892423
-0.004920984088101594 0.05663246612367033 0.0033871684953336767
-0.004996284608538244 0.056603189346373796 0.003627477532654054
-0.005037372986166544 0.05663054800808766 0.003975919949222547
0.0067997007190660815 0.03485081153865968 -0.0005249495611250698
0.006804892086797445 0.03499767265719853 -0.0006218085756284084
-0.004290629697430405 0.05656293503826138 0.004071683801373874
-0.004434376632422867 0.05667485877351786 0.0036038834103931535
-0.004700841011014486 0.05660251724798418 0.004140600555504714
0.006777522535189129 0.0346227089949918 -0.00010001006060270139
0.0067590656491078715 0.03458233070835523 8.251911321960066e-05
-0.006219768161556167 0.056802710487893225 0.0037330458397682826
-0.006616503258884968 0.05695720724347755 0.004047063965480196
0.00670120802342341 0.03429167498181763 0.0004162984615506043
-0.005942801234316988 0.056820333074830615 0.004041728593453463
0.006697157774007121 0.03459395540981203 0.0005909678938851933
-0.005665119495786835 0.05685043997096869 0.004378739913588109
-0.006350467759383659 0.05699680871693373 0.0045954178125989535
-0.006397648702493129 0.05700676229538122 0.004670470937785527
0.006682634753934751 0.03434106355819927 0.0005702641876664985
-0.005876986471007563 0.056999415476439316 0.004854370685547773
-0.006031303293230718 0.05694239697939778 0.004546762600666123
-0.005730488590469444 0.05700360934010419 0.004920826168431668
-0.005222324005819979 0.05667253405136086 0.00408420489294456
-0.005486540149583673 0.05682105989857569 0.004443752277202958
0.006808659846681411 0.034929544926217644 -0.0001887832816742998
0.006817904885398035 0.03520187969822444 0.00029797614014938204
-0.004780623581827127 0.05661696635595859 0.004227196465889122
-0.004866698808598399 0.05663851324388129 0.004211240370561494
-0.0047340299722584515 0.056701721130341345 0.005115242299730376
0.006800849874863597 0.03517019973162462 0.0003768856486409539
0.006765225000731226 0.03533758697609668 0.0006593284487123953
-0.0051833154629364955 0.05679660591678666 0.004705175430119581
-0.00557330236181337 0.056883789659018684 0.0046040630880938
-0.004819727761974487 0.05672926126013619 0.00507542557594099
-0.004956184617796542 0.05680626034149798 0.0052035625623389654
-0.004157471615776632 0.05641538232676123 0.004886848876421133
-0.004300769497213181 0.0565126743176991 0.004363275036903747
-0.004144110947826488 0.05641204331456515 0.004978700392214613
-0.004394095093758292 0.056537689416115554 0.004991423078710979
-0.003709497331968602 0.05623633443203337 0.005307181107294442
-0.00401929013656059 0.05637662467270391 0.005280727760437486
-0.003965014709416317 0.056391250563186834 0.005559565373681585
-0.0032005743457105794 0.056051431972244256 0.0053928076932837025
-0.0033772783268990678 0.05623956384275054 0.005776204592370238
-0.002511393451621247 0.055917421837893555 0.005612465808165449
-0.003061321083182076 0.056145258775386155 0.0057765898126969336
0.006525420786346211 0.03400189012889273 0.0013478462117034453
0.00651871543458251 0.03432855480749893 0.0013270877946693655
0.006402739140260228 0.03428424540846111 0.0017042799707516834
-0.006471987890986441 0.05695991391245914 0.005153692445970084
-0.00662895578680877 0.05697217475256161 0.004889155166419208
-0.006773513999276796 0.05690514577148291 0.005165668847205743
0.006546537598320648 0.03475967978164748 0.0012787543381442008
-0.005863901241284182 0.05704166140732245 0.005232837062638178
-0.006292519095004033 0.05700887799933046 0.00489398461706575
-0.006165513794985104 0.057027971203520225 0.005462029873537898
0.006373235876798458 0.0342680727560178 0.001788669465938257
0.006264603280833265 0.03452486461430265 0.002082465718395791
0.006321158084152299 0.03525137829354902 0.0019958880705515745
0.006354754120320064 0.03479240185930359 0.001870316334333618
-0.005451662356578884 0.05700921882204525 0.00537029265235704
-0.00555819771958979 0.05706905452294807 0.005590000827479347
-0.004995870525729901 0.056843139222218765 0.005368619702637396
0.006583181977722951 0.03513704427012257 0.001263822545792431
0.006700657366930296 0.035293637120171834 0.0009177484821548587
0.006608985727310382 0.03545113469555221 0.0012049276820037076
-0.005462959791205868 0.05699532408357191 0.005257840145873565
0.006414751794870031 0.03553777558875176 0.0016742264601028506
0.006532816245622829 0.03539302211480793 0.001422121637241605
-0.0044891932838833255 0.0566106225087281 0.005858013874579418
-0.004732495367194738 0.05673979858337741 0.005741764437254849
-0.004673799505230632 0.056712511903535795 0.005743648416876361
0.006147421492552411 0.034559764336761646 0.002371303923744456
0.006028305786968074 0.034742821065769786 0.0026965095997381542
-0.0038248652740770395 0.056398783292810784 0.006120435108903951
-0.004090787570396522 0.0564400106095531 0.005895788601226757
0.0062001701750122795 0.035150027993008884 0.0024413736641257936
0.006216613322513017 0.035492937686497056 0.0023544327677565728
-0.004600401159683609 0.05653818585615767 0.006590338943944459
-0.004684709407859254 0.056677310533271505 0.0061062965907073335
-0.004810916261391539 0.056673564202485774 0.006382498424049458
-0.004214011588857748 0.05649459021485421 0.006411023344844714
-0.004378295918052027 0.05650302210158241 0.006566110131051628
0.005785384579142341 0.034704765085777044 0.0031595321794229076
0.005977829366010341 0.03510412209489695 0.003058250702745326
-0.008643342065326635 0.01515227315722311 0.00192188438051422
-0.008744430263690756 0.01496459710566261 0.0015483023139787478
-0.0032155584328980393 0.056254001078022815 0.005953038561042538
-0.003608180058543921 0.05638192152291835 0.006098180656466881
-0.002937802727859794 0.056366870943289765 0.006320668749891621
-0.003143754091278111 0.05626063155035589 0.006007598661046646
-0.002678512597300171 0.056356326776081524 0.006366999338433107
-0.008615431768072428 0.015184430911889927 0.002017077643314277
-0.0035072367730026675 0.05643932618523016 0.006396093434996998
-0.0038961601535864236 0.05649623253749847 0.006651314737110388
-0.0032357280291103957 0.05663549377378731 0.006930161012152442
-0.00859007430345013 0.01505381931780455 0.0021126121396308184
-0.008425588774195556 0.014862587277042776 0.002617356891539014
-0.008431043472653797 0.01527133615278745 0.0026480917466758258
-0.002957366751624572 0.056510077047478596 0.00661673176590297
-0.008962112900373794 0.017481364562803837 0.0010612483846069326
-0.002904755149131479 0.05672506320488516 0.007165143827418723
-0.0030744877364450407 0.05678211592908287 0.007528986909163128
-0.008913102361924725 0.01710974807750742 0.0010894022117772816
-0.009110473070766893 0.01807870377529412 0.0003207756287255298
-0.009024017712689793 0.017526746700453656 0.0006363844988339439
-0.009108758573664145 0.018275302096874405 0.00021875800711352458
-0.009029960211344999 0.018824031942220276 0.0001819605909124456
-0.009016750396958347 0.01887460416253416 0.0003875036856004093
-0.009086321107271535 0.018439077616346042 0.000445888577097801
-0.00907108801663678 0.018600185327160245 0.0007006871864597311
3.269109211033541e-05 0.05591877341348973 0.004790596563138655
7.209178911787368e-06 0.055991172008290464 0.004668147558331924
-0.00015324452485490403 0.055743965673435744 0.004969171777097257
0.0003481329814300995 0.056170787292710356 0.00445666767604542
-8.905792815856327e-05 0.05579454494296516 0.005162600492139634
-0.0023154278992454477 0.05586864006192112 0.005145545988161372
-0.00218277229938619 0.05586554063661778 0.005610075508245629
-0.0018085301857297534 0.05591402072744927 0.005160265645692904
-0.0014675052822401063 0.055833261771930084 0.005297760580686115
-0.0017263131582386502 0.05583775649483576 0.005542266633589003
-0.0024534465082740177 0.05595153357134795 0.0056947857632999935
-0.0021754373885289413 0.05587643005325093 0.005670635547049014
-0.002348552754166822 0.056164909339269806 0.006102136099402697
-0.001959954490129391 0.05609246594289551 0.006071198980904113
-0.0017649848524024763 0.05615356258116129 0.006178304940612815
-0.0008170548909388079 0.055788027976235235 0.005533815209970308
-0.0009412632954472172 0.05593050203439323 0.005766762370909282
-0.008520594432284584 0.01970683356168187 0.0030130250324191333
-0.0007193126507994761 0.05600660717715685 0.0058624089417731754
-0.001101235450946933 0.0562022676913933 0.006239143037555034
-0.0013165785858623449 0.05616033875673067 0.006193616705352493
-0.0007980435611979579 0.056215457817027484 0.006246640100082091
0.0056722321552052524 0.03462792814979135 0.0033420761211195
0.00551425565597473 0.03481184150181209 0.0037869178039408747
-0.0005198847910459676 0.05608344414912915 0.005921444432605621
0.005231832370405269 0.034790119248620015 0.004294859945188587
-0.000453989950941108 0.056222912929985464 0.006147103068642565
0.005361212060141409 0.03474405745756734 0.004040701026653392
-0.0005130238452036957 0.05620038343857329 0.006127238343771396
0.005344723012655865 0.034877463838786135 0.0041390850643999695
0.00023665811462248018 0.05591616989690354 0.004869836817075182
0.004929780938964146 0.03415130567149085 0.00460825916541264
0.004836859018666172 0.034744457618809364 0.004759927711898769
0.0007490403884310793 0.056177790714401724 0.004837948049851373
0.0005841221326830164 0.05626865921044782 0.004384076162139748
0.0005449883844472676 0.05614568250174982 0.004625053534004038
0.0011416344188480447 0.05625477350125242 0.004905096357950741
0.0012693272385382553 0.05629496532994354 0.004857092937653844
0.004657395638852669 0.03462012315718628 0.0049278723269827514
0.00019423627609894997 0.05602126916979314 0.005435682902296076
0.00021340557539820636 0.05594166666597078 0.005245718971367367
0.0006429450600017419 0.05619319623664923 0.0054333545396501
0.0014059301914494135 0.05639939265014014 0.005330826299297304
0.0008096071510621086 0.05615338855079407 0.005154126732114506
0.0014768933807490852 0.056452715321932856 0.005433105454716616
0.0003771221877388207 0.05633727202601637 0.0059322567744319234
0.00017078716244486663 0.05634871855008471 0.006073844090688689
0.000523950292408643 0.05638138467466748 0.005918175402902492
0.0010952860501956072 0.0566870430864183 0.006170774118114928
0.0010724365109843156 0.056449881958080206 0.005724229556618587
0.00010911820152169772 0.05651151339434957 0.0064191966267235865
-1.9805090257651346e-05 0.05637925982393219 0.0062451970172194725
0.0003734317472251378 0.05644883572803838 0.006137726096692958
0.0008905903723282222 0.05679721115989783 0.0065311681568096715
0.0007757580198034472 0.05662597817845819 0.006238851613840135
0.0006641721620182098 0.056759879933938114 0.006586005938203384
0.001196868969672203 0.056813174909442266 0.006383494232497587
-0.0022316367446545394 0.0562176561369451 0.006209226419271124
-0.0025673597198333257 0.05628286769799173 0.006257148426066313
-0.008903820553291883 0.019687750336015886 0.0003228605387807066
-0.008933533938188465 0.019281382091988368 -4.6182940900338395e-05
-0.0015230887866153953 0.056322053526880494 0.006472624466420789
-0.0018327873623672998 0.05622666867371879 0.006278755752302403
-0.0019208022276141047 0.05627585763171361 0.006353668113427567
-0.002593919036522333 0.056690304267831934 0.007027174790085364
-0.0021948033991420696 0.056508021434408355 0.006721910641184044
-0.009054153600241591 0.020247533149125342 -0.00027941578274492886
-0.0033720424498529925 0.05491901039372671 -0.006711720769659646
-0.009063298823753896 0.020328579171095224 -2.81946990036054e-05
-0.008968236710979668 0.01993324898713627 -0.00027142937362802956
-0.0020670218045949016 0.05651193804027295 0.006741294536082507
-0.0019988689778653395 0.05666407159537386 0.00701277857061597
-0.008897700608807256 0.019863251106569516 0.0005668184330368788
-0.002354706810671444 0.05470715826147049 -0.006551757865735288
-0.002730391374786791 0.05468014339253196 -0.006493302092116026
-0.0010668172545272446 0.056371469154217604 0.006561889211327002
-0.0013024502185388493 0.05647446729707295 0.006761728659428464
-0.009037025982024978 0.02052346469065227 0.0005415064692521675
-0.00892659198843963 0.02006413088287278 0.0006219988755058069
-0.008960209670561412 0.020275009472399404 0.0007191536955598067
-0.001129367395232832 0.056556223299051744 0.006927250343035658
-0.00035734706654761745 0.056663454324528295 0.007062899037711548
-0.003390041030239983 0.05488856112035231 -0.006647672358542846
-0.0033279932864781992 0.05469709809395358 -0.0063118131685161805
-0.0007741950901157083 0.05642034194144807 0.0066333808653097435
-0.008884704400515524 0.019447944638067642 0.0005254760570573201
-0.008879025017721054 0.019961997022667113 0.0009200901899642694
-0.002255994358378819 0.054644889781826876 -0.006410137483909513
-0.0012640168371587245 0.05667833249449732 0.007170748901312951
-0.002384117763582885 0.05691107505611159 0.007591411102449265
-0.00250555546249432 0.05683125274516631 0.007391346236553453
-0.0028909844258709844 0.05679763284648398 0.007458085161129398
-0.008904207710534153 0.02024491999098898 0.0009525728737405094
-0.008850922668058883 0.019909087333071125 0.0011773746336366472
-0.008862721513812347 0.01985721203428646 0.0011014982478000767
-0.008833337745460378 0.01978648508861364 0.001364946182100628
-0.008851263318312087 0.02034159839057311 0.0012748087490745369
-0.008852908519916377 0.020387128772454126 0.001288763456338971
-0.00877263787510393 0.019851946184384038 0.001773182452929158
-0.008718693930126874 0.019997414549273118 0.002028477197907624
-0.008854258537967572 0.02071618394003647 0.0013896692707332722
-0.008788152449499185 0.020329646884323888 0.001610645677138695
-0.008723168735042433 0.020529003707725427 0.0019763030247032416
-0.00865888507493938 0.020009196985694287 0.002325028929855202
-0.008603932067497155 0.019758006604406606 0.002652051343072972
0.0014485263966055417 0.05634989280682384 0.004764433562651733
-0.00865945737827782 0.020487290249858743 0.0022442417532329826
-0.00871961123435612 0.02062329083487294 0.0019965601910219228
0.0020779353451918464 0.05644689608003275 0.004790058511500898
0.0017019455031121395 0.056387836797513136 0.004712078389853798
-0.008579479378162974 0.020854230188462438 0.002509001134748
0.00238053472169201 0.05657686885820759 0.0053520282198864216
0.0021933546937501513 0.05650596609018885 0.005047773190760634
-0.008535315113507599 0.019851697630381707 0.0029392091319984303
-0.00846316635180208 0.019901574715723867 0.00319530678884677
0.0017660970485671242 0.05661857211293671 0.005754565228744218
0.001793205357150451 0.05653450094218719 0.005488828926719239
0.0025493255371189312 0.05674629407850282 0.005836411927496151
0.0024458619175116688 0.05659742882245962 0.00538985614394835
0.0022222508663750943 0.056697875639416806 0.005806954964901544
-0.008548029366882159 0.020521845831528714 0.0026966388034294336
-0.008434157513412095 0.02069128473049653 0.0030314982058160514
-0.008369726219420474 0.02061250838106678 0.003273276771257619
0.0018328510921759417 0.05673065639425491 0.006023005714486446
0.0014914726696783442 0.056667050240901816 0.005967303090792159
-0.0025004443198066322 0.055065818181085836 -0.0075586621422777285
-0.002809533790623567 0.05506962821912233 -0.007364087499421232
-0.002430827493033645 0.05500943414782614 -0.007383918973206238
-0.002270491616250877 0.05504327760671325 -0.007566947728932754
-0.0022416938284313013 0.05490860992302655 -0.0070334222213657245
-0.00833681559613358 0.02007397445296136 0.003480245360920665
0.0014551032824309958 0.05680249895255388 0.006299400621260896
0.0016239710777335508 0.057002629682233755 0.006833704972614508
-0.0020632895880104787 0.055003684898516474 -0.0075112952309309335
-0.008245720428171895 0.020038563778081372 0.003682057440268576
-0.00810212534778413 0.019918039989780888 0.003911998304268992
-0.0013873495513493227 0.05527709778311791 -0.00765757732389743
-0.001655354103814071 0.05511456497239452 -0.00757609136352581
-0.007869420449291304 0.019937021341281915 0.004249783518371815
-0.0018421928447942203 0.05493015677590236 -0.007060938991535015
-0.0016029251714446946 0.05509243708051309 -0.007467375232251921
-0.001490584576214011 0.0550007665343411 -0.007082459108591741
-0.008248339944418023 0.020750341747421505 0.00355028587252126
-0.008268344512996286 0.02054378850590003 0.003557815697787298
-0.0009162681878617909 0.055170473088729674 -0.006896098977736919
-0.0008847771377100056 0.05523168285329831 -0.007002587800422978
-0.0013342091967002315 0.05497354809441295 -0.006884045577208089
-0.007682000352490557 0.020349842934751693 0.0045473314918143696
-0.007909417360640825 0.020470861609219463 0.004270652556851537
-0.0006372557321051885 0.055500574920854986 -0.007442008086327534
-0.0007438165139182255 0.055666111230418536 -0.007815551391700318
-0.0007335117059735205 0.055443101860830436 -0.007410263577878909
-0.00073764220615454 0.05591711341625785 -0.008087248180886762
-0.00038684576118568726 0.05583918454907411 -0.007878729903234542
-0.007623800954898174 0.020079120707992254 0.004588431231583879
0.001302712003297513 0.05701363159281076 0.0070920178876765294
0.0013451864017162097 0.05701383475039147 0.007212334223565874
-0.0073655645063168485 0.020188163300175317 0.004890360609105726
-0.0031704943620523944 0.05502464031387732 -0.007186295149173097
-0.0029156836630940975 0.05499327519699481 -0.007160103983035953
-0.00246536524055013 0.054788846954284876 -0.006719875226642138
-0.0022560359359329435 0.054769683185247046 -0.006691021841712139
-0.0018599130716732608 0.05481275580840585 -0.006703095885798234
-0.002071580314536117 0.05474108518269276 -0.006568253294033625
-0.001083402917373256 0.054911713967613913 -0.006535167439045558
-0.0017769628803286257 0.05468915863344036 -0.006344163542316588
-0.0014315939649554433 0.054837426609392705 -0.006154990445901693
-0.0006785482621030336 0.05527344145411435 -0.0069068115968128055
-0.0003725005606699639 0.05574354093528092 -0.0077600321861209555
-0.0001933497765081525 0.05587906284344241 -0.007888858815230368
-3.6955573159862746e-05 0.05562766538434234 -0.007381048342924203
0.0005029133149572936 0.05579015563246152 -0.007448018445223616
0.00023102092814174369 0.055701212830345126 -0.007393740018285532
0.0002946040846692652 0.05586151117810246 -0.007664797954306904
-0.00033795092587235193 0.05551346265094789 -0.0072910153650227304
-0.0005122246550088531 0.05538556260192134 -0.007059907855047242
0.0002651935702809675 0.05530729571338021 -0.006630858143998883
0.00023110410453925696 0.05541669256531595 -0.006803059550561534
-3.176902393432173e-05 0.05544734751932736 -0.006952147059580581
0.0004619315847240885 0.05557123926121047 -0.0070566264959490005
0.0008382760793871686 0.05585272376244528 -0.007415110053309028
0.0007683903908885975 0.055203403446722185 -0.006442238334891524
0.00046898009391643265 0.05537371179849578 -0.00670214284724684
0.0009975365598271185 0.05540660773825883 -0.006620815476227468
0.0009697198109697018 0.05521637676807756 -0.006429763709394121
0.00115683761342039 0.05504376471076276 -0.006208211222950195
0.0008823016370775994 0.05555164729843088 -0.006879672547645125
0.0012411791674619645 0.055650323998843065 -0.006862123858204367
0.0012082920004563085 0.055431349191204626 -0.006579470205063588
0.0016989503146387667 0.05574166670663968 -0.006724701180387815
-0.0005880747734439719 0.055385706356318086 -0.0062415165387635155
-0.0006588820199681157 0.05516734702053504 -0.0066316983005518465
-0.001041783303392837 0.05498551725114921 -0.006373680088465767
-0.00012736387876518244 0.05535750478405368 -0.006290792376281409
-0.00011639548132187072 0.055422250933068386 -0.006171015675844479
-0.00015915898276423467 0.0553122232361212 -0.006150292700018138
7.700827006040746e-05 0.05521035140083625 -0.006229224013510644
0.0003611154125150862 0.05513891884979581 -0.00638740574934895
0.00028167304436760906 0.055200750526743184 -0.006051585311369963
0.0005110854955378321 0.05541543589164647 -0.005528669177753064
0.00021051958042741305 0.055393985025220374 -0.005807360184533223
0.00032068208520739114 0.05557488183211025 -0.005607918937197362
-0.0073243585120906195 0.02044410826057916 0.00493585158862378
-0.0004717556100513294 0.05640269387486544 -0.00828118920089968
-0.006866090433459026 0.0201993542101988 0.005343092950925225
-0.006955940234720249 0.02020480631526132 0.005268897893048255
0.0003854934716672327 0.05602603221051685 -0.007880719629386147
0.0009230007976734207 0.05615467743911716 -0.007814829933168089
0.0009165481064078305 0.05593168833887066 -0.00750080655776895
0.0012484258021735158 0.056103170527709766 -0.007594635117178727
0.0014734016450403003 0.055792253648544086 -0.00695826304331998
0.0015416474753755214 0.05613356074004164 -0.007502500410587311
0.0013567315287916076 0.05582076641488802 -0.00708045052607917
0.004338513855964216 0.05657162643327861 0.0008959111201137735
0.004469632900523205 0.05651641722738008 0.00038837373642810867
0.0018509816161240548 0.056269145900627614 -0.007548547663264621
0.005201675778886096 0.05627921988461635 0.0010227799250657425
0.005286673267977109 0.05624665702182544 0.0009550661535641924
0.004881875270277175 0.05638815998131175 0.0009769297605337045
0.004507917133532475 0.05646231379207209 0.0012776874329266633
0.004549860141632725 0.05649714550057157 0.00101657735303795
0.005040723263597566 0.056349097619551196 0.001285295119276952
0.005060073677873114 0.056369023666689944 0.0017102391905322192
0.004738388289693189 0.05640459950564261 0.0016112179956763745
0.005860042001950237 0.055870202121515576 0.0009838474109933877
0.005536829256924175 0.05610045792523753 0.000841991733637773
0.006324211222494253 0.05565450070552565 0.0012103799583674637
0.006027565892565199 0.0558802112420429 0.0013013642721444888
0.0056687721760675346 0.05617813712420549 0.0017912681553448307
0.005591188481271362 0.05610423899038078 0.0014323085377465185
0.005402474542145342 0.05620244637990235 0.001551673908716539
0.0057277159319168115 0.05620953979936487 0.0018763254534247332
0.006025226469149615 0.05619550355040243 0.001886086920565102
0.003963594407269871 0.05650469670808549 0.0017944404456236985
0.004644188901594068 0.05640146751159631 0.0022482605078235946
0.004043892398311272 0.0565080853054116 0.001621670135738396
0.00195403633542358 0.05552499768141654 -0.006253709391915363
0.0017295584837389126 0.05553256009543329 -0.0064309720326870025
0.0016451384541345921 0.05561853622163102 -0.006603525411578995
0.004928268213091839 0.056378481582478414 0.002128979992721729
0.004481048632189046 0.056414359875519536 0.001899255638716704
0.004332452828652942 0.05642632503614435 0.0022058674692848924
0.003931139975346198 0.056491940515030745 0.002455865146311688
0.003878010880257154 0.056500041953961855 0.002225176990469367
0.004720339513005277 0.05637946327299167 0.0028435280289519117
0.004781944858093264 0.05639235771388554 0.002372921072568088
0.0016831293671243537 0.054909624971869304 -0.005852420781456988
0.005403439961940437 0.05633854797637182 0.0020755314537063466
0.0054453862842476775 0.056365671972258564 0.0022724802804650023
0.005365492916924047 0.05639634362549442 0.0024254306990280816
0.001968208419305584 0.05485817297134522 -0.005619231901399777
0.0021304064427371573 0.05509389093054348 -0.005675847072804132
0.006095374143982235 0.05641856168541076 0.002326836187235253
0.005647010287060694 0.05629883291911476 0.0020880779311481788
0.006050149982048068 0.05650642451436612 0.002553099363451358
0.004784894984621493 0.05638014509712602 0.0027628369132917793
0.0021078225300707504 0.05538960445738122 -0.005964478549458185
0.002476560913106004 0.055524032678029606 -0.005759582325669489
0.005201317480803868 0.056393358004845684 0.0025798253500231376
0.002491238120167766 0.055121836849698465 -0.005353276255552714
0.0023463685374677436 0.05482978394781405 -0.005274202939303741
0.006028009228315988 0.05660803183907236 0.002841797474022908
0.002652421413880819 0.05557310396525276 -0.005611005965259909
0.0024766804037495245 0.05538967485111857 -0.005620654867537845
0.005575997518705491 0.05645718218691938 0.0027530809589628715
0.005676893677240828 0.05650336874933184 0.002886618714969833
0.0027220093470637034 0.05503664346882383 -0.005030740512271013
0.003142938994328317 0.05513067617090453 -0.004495596745275041
0.0027973237850340915 0.05470007613915003 -0.004621521361529569
0.002822483752478992 0.05532746426667148 -0.0051605476279506825
0.0033959266868215997 0.055662159346762025 -0.004655943361787212
0.002976338160080063 0.055268687723256736 -0.004882557541572777
0.003129689412466084 0.05531910264247348 -0.004695884856408088
0.003314697539992691 0.05654753745379436 0.0037127936602929963
-0.0056342378023263385 0.014910306322939307 0.006641287704722568
-0.005580899341356305 0.015220546541768168 0.006638692488971525
-0.005816773710278042 0.01505027008842796 0.0065498029845767
0.0038782563368856835 0.0565018402081384 0.002752829328937364
0.0036384511533351935 0.056536955577345796 0.0031549027289396077
0.004272897641463587 0.0564381514167924 0.0028415173356493443
0.004181229228553528 0.056455199830451885 0.003351764188296584
0.0023397454150884266 0.05621287091721133 -0.007007666855247145
0.0024284175765982036 0.056202472436355635 -0.00688332452779766
0.0020696931958411307 0.05617870657271439 -0.007247974190035633
0.003514308355812302 0.056553534023797675 0.0032313202254814046
0.0038458532227400137 0.05649648432110766 0.003611688463906448
0.0027556158249627703 0.056492340610291195 -0.007109918136737498
0.002260975602054127 0.05603567588468378 -0.006763122744784393
0.0023392655990231923 0.056088503751503586 -0.006775491102762493
-0.005479842910441031 0.01570753833467546 0.006580665352908103
0.004028076485881614 0.056496163038740325 0.003944644587464725
-0.005244115965908977 0.015615867027274289 0.006753916649122752
0.00426065506379857 0.05644887323782628 0.0035376670671525734
0.0027018037692204096 0.05608950266239415 -0.006314240210888821
0.002702586048079327 0.05603162480502195 -0.006211200032126349
0.0022377021634019624 0.05573028424589781 -0.006251411682372883
0.004945594622859588 0.05640604739238035 0.003113322490886585
0.004791258074120432 0.05642547760075864 0.0033107807124710853
0.002546331094783758 0.05619819041201285 -0.006730585558372683
0.0027854689141327215 0.05614072203937706 -0.00630824638556238
0.0028903867124948192 0.056179482389515256 -0.0062514949422312616
0.0054641721489457435 0.05649999819817171 0.0032060515490559957
0.005329477134905659 0.056452002595337426 0.0032199012523423443
0.003166327449244143 0.05647543001366208 -0.006501464164859019
0.003021139113379077 0.056216224751577504 -0.006167711074220228
0.004920553026414153 0.056521360193369966 0.0038318903266267882
0.00449046440167693 0.05643513511437842 0.003618398291737376
0.004770293627056276 0.05652908902749913 0.00398272944619687
0.0035388574122092883 0.056538691722906285 0.004243415406228171
0.0032713791714564936 0.05654130882201745 0.004163348360212382
0.0033349317346082377 0.056537056517992706 0.004358848891765478
0.0032004318321861474 0.056749979069879455 -0.007317778132888751
0.004021754309976341 0.05654509932615325 0.0044835657785652315
0.0037186816256741927 0.05652545313382184 0.004274539479766994
0.003089313466720635 0.056574649004698156 -0.006832332158507259
0.0034229642174275375 0.05655471978908258 0.004622551904261302
0.0031327309748968865 0.056554995943598994 0.004664651016140809
0.003430655415458419 0.05667931537383914 -0.006807103011456881
0.0035306972899006106 0.0567704106399239 -0.007045387344687907
0.003980900241752626 0.05658090568431517 0.005037783703342441
0.003949440245310847 0.05656494794629169 0.004752750677754432
0.0036495607612017297 0.056585210121789985 0.005023207612312772
0.0039383387264034925 0.05681822158547977 -0.0071059575119292425
0.004253366950307976 0.0565017520989307 0.004080269924434778
0.004207278495920762 0.05677080079308786 -0.007151750699167762
0.004192407370852562 0.05678722323240247 -0.006699850948687951
0.0035977671142865424 0.05660969679692614 -0.006422128198998625
0.003756063097075859 0.05673888279527116 -0.006665029747621054
0.0038714733565408414 0.05662539391686832 -0.0062297580298485075
0.003775031711121193 0.05664158826734713 -0.0063576651048659095
0.004231893949701585 0.056797944569211 -0.006496916242379537
0.0031110536576114583 0.055983941852211304 -0.0056262090385319225
0.002716489311640493 0.05569979072139175 -0.005656345993915182
0.002811241297300711 0.05601594684021872 -0.006048075418182665
0.0031710917709175273 0.05589793197127832 -0.005382394074845361
0.003418107069321453 0.056353200494941774 -0.00596439193856051
0.0038686132304176176 0.05639409407846541 -0.00554179312155914
0.003725618051502523 0.05645090363709321 -0.005826416456865383
0.003415320714921906 0.056304706828241444 -0.005866256729301621
0.003197522676417187 0.055811601205379834 -0.00518547661181045
0.0035578343048966073 0.0559346798147627 -0.004931310347196461
0.003793150306881276 0.05654288362779477 -0.0059699236143598575
0.0046076983701681335 0.05678820233216035 -0.005986863849801646
0.004695716149921725 0.05680073408967526 -0.006305902846523972
0.005267013470442162 0.05670101488193089 -0.006125663130580961
0.005179844126792985 0.056747523149754536 -0.006258230854924201
0.00493862240699289 0.056764859346478395 -0.005811117437930222
0.006289123949676771 0.055903905068113324 -0.0057123398213560096
0.005886341711112848 0.056428775953911506 -0.005657819786126616
0.005684090920250833 0.05652107222057012 -0.00583259758096589
0.005637414111271635 0.0565389206324955 -0.0058720934965776255
0.0058567499853785145 0.056476023889724475 -0.005562146683086742
0.003800041643780378 0.05604015470528559 -0.004788892902576984
0.003955351448107654 0.05610147430610181 -0.004680499749431032
0.00415122331824518 0.05634681387241496 -0.005075779903283121
0.004175258362860979 0.056328255581607846 -0.004983227864693255
0.004267664326198058 0.05628010828335857 -0.004712160737776647
0.00427940725155882 0.05623880008149524 -0.004570823865106088
0.004424474773958101 0.05667453826626688 -0.005706059034134922
0.004351486182659173 0.05657707347574193 -0.005443275102407576
0.004077740008142422 0.056570849871931235 -0.005735314934746709
0.004843363971248786 0.05663283659147157 -0.005346649471621352
0.004849151942280214 0.05663988196048448 -0.00536545707917093
0.004724769719980291 0.0565825422865843 -0.005141056862502307
0.004732792382242055 0.056554606881334055 -0.005042443712654405
0.005177170079528614 0.05665652513143764 -0.005073185726615779
0.005509486511769519 0.05662214952464495 -0.0052025201419658605
0.0053305091189466925 0.056685546757880234 -0.005488493380987483
0.006182356008412829 0.05657249104249845 -0.004927624015015809
0.0061401423301678006 0.05661702021395192 -0.00484696520470449
0.005530031409864454 0.05663871432398478 -0.004716274168425358
0.005053645324780705 0.056546655927416846 -0.004509776065948457
0.005910459796479773 0.05668741529383463 -0.004347539225614538
0.0058674050200107596 0.05665159862978053 -0.0046159590088756764
0.005986464021340703 0.05664768094925547 -0.004729243157479202
0.003147932131766763 0.056608284176552656 0.005171109827026238
0.0029103423139672418 0.056633414225638605 0.005331455289715666
0.0027120969118760987 0.05676160734317483 0.00583556675829636
0.0029832440547282926 0.05667298532785083 0.0054951422374146085
0.0030313481973442487 0.05678918792417899 0.005892713977893678
0.0028769156534166965 0.05690729539535655 0.006503288979238491
0.002443836154058879 0.055712820377667886 -0.004311982306223618
0.002250471381080789 0.05568679707827877 -0.004432453015774727
0.0026944332845291606 0.05569862581560048 -0.0041867822102337835
0.003087770420611664 0.055453099837056555 -0.004146320077729616
0.0031597807872889645 0.05530253558281369 -0.004172260650291822
0.0031463243637022023 0.055309983028267895 -0.004071401706702149
0.003264384136308005 0.0554850299198345 -0.003974526364569578
0.0036020531056829776 0.05565277049666782 -0.004066432018380734
0.0033286896268054115 0.05584239509183314 -0.003760577832167379
0.003973735597126349 0.05600984786115231 -0.004415725940360106
0.0036704233430492573 0.0557732942657225 -0.004317285730244434
0.0041931779823865655 0.056126408415611485 -0.004232333919563567
0.00428856607148407 0.056138166915278356 -0.003971245792525739
0.004559604284894824 0.05634619441109966 -0.004427519798927061
0.004338681467173563 0.05621392448082699 -0.004198042031677589
0.003763420176180981 0.05580985775510406 -0.003840503153058279
0.004402930743961089 0.056217045265196976 -0.003506619675066415
0.0042269755180602405 0.05608664074916084 -0.0036621655538757176
0.00428597297774912 0.05613923473274472 -0.003609232271477575
0.005163928077475417 0.05651307236291904 -0.0038163236491500618
0.004723144101142426 0.05636405842754605 -0.0039802887516650785
0.005093696312072323 0.05648238019580009 -0.0037354456498789245
0.0048548306247156205 0.05639294136990753 -0.00376615024473826
0.004731455335893153 0.05634614741379442 -0.0033333051563486328
0.005489781265172216 0.056506780001693256 -0.0032314413410816367
0.005112164247366907 0.05647839737631465 -0.003390077945464775
0.005104761562067245 0.05653734966722021 -0.004295286454092162
0.005839771973314917 0.056652278208660256 -0.004092776347550012
0.005532589625993119 0.05661787004644702 -0.004166655582061093
0.005473741541672449 0.056603483676697534 -0.004112376459733313
0.0057413860465330814 0.056567224824736084 -0.0034849311912839246
0.004118070095755008 0.05618053717407001 -0.003225068406463397
0.0038185194693346647 0.056204865352518944 -0.0030541925230100036
0.003989548198721902 0.05642957345293525 -0.0024878616631107387
0.0035901240502531472 0.05639252511664992 -0.00271963469595065
0.004319620996683047 0.056344161799486064 -0.0027850851268493362
0.004341281547315973 0.05622637925102868 -0.0032426866753958476
0.004981605258510263 0.0564414844244737 -0.003189313290774987
0.005513461434970475 0.05649421524602425 -0.003037887309715879
0.004941967156822323 0.05645163690343129 -0.0028117663794550627
0.004588704252986717 0.05651674909746507 -0.0021142699534256863
0.004632677276069433 0.0564956165894187 -0.00226341958584895
0.004218160363896541 0.0564093723441314 -0.002533015561454518
0.005214452867536821 0.05646947590508554 -0.0023029071132945715
0.005200440280875897 0.056457506629433094 -0.002508652790733776
0.004274707026240509 0.0566040669352377 5.1508724932592534e-05
0.0038544064886965393 0.05661777733414773 -0.001736409931028825
0.0034795913127253168 0.05675590911735862 -0.0020623497374388927
0.004450330576225127 0.05651738136494032 -0.0020975181728725865
0.004103707308997281 0.05658868926118353 -0.0016598386814612096
0.004932187299812947 0.05650128858122301 -0.001546729500563857
0.004655937809413958 0.05654095101183111 -0.0016553772202539993
0.004648234917257455 0.05652363734284516 -0.002032304434426479
0.004348332986925528 0.05658726924402501 -0.0014630052315153497
0.003753046480033192 0.056703948804988816 -0.0011277949082094888
0.0045857014411148506 0.05655313198288271 -0.001472478435294141
0.004365815771697644 0.0565876552997302 -0.0011880268390513234
0.004600370329940563 0.05649494842121274 -0.0004079309197089843
0.004312689689122453 0.05659331308146074 -0.0008688930146649033
0.004361627173553746 0.056568966486313196 -0.0005191903252594173
0.004269084687163188 0.056599456551841995 -0.00018372419817878707
0.006659655053787299 0.05632762574898773 -0.005019815961170289
0.00649049135767117 0.05663602343267358 -0.004738224058048387
0.0065975291871124735 0.056351400139237645 -0.00503057657646379
0.006807517810050676 0.056340941607669 -0.004928452991286515
0.006425955957849039 0.056726685172419605 -0.004319357301603086
0.006493508426532204 0.056664170412472514 -0.0046307876600104846
0.006347607905744223 0.05663771414553602 -0.004758175625662748
0.007109186905340128 0.056660036580194 -0.004340309733022326
0.006779979853554892 0.056798168767727086 -0.004195694085468271
-0.0008318902952174305 0.06225115269817974 -8.795101289198445e-05
-0.0013074187235739157 0.06215217764738025 -0.0003689098197481479
