0.0010683685576347273 0.03469801940934991 0.0067407782767474065
-0.004532274268436023 0.02086897980465195 -0.00814257492745286
-0.0008378762628327883 0.055760138360962344 0.005091644091362953
-0.0005479348595923165 0.05576945420616883 0.004962342518235139
-0.0012169493624303001 0.05574806542671403 0.005326896359172634
-0.0009585898166491133 0.055745857754062864 0.005185152921877043
-0.005299811910531443 0.021317852567765264 -0.007670337199758797
-0.005164902098381246 0.021429784745043475 -0.007750295398768995
-0.0005996078317529507 0.05575779930993375 0.00546569680349189
-0.0054779033747248355 0.02149685952333378 -0.00752373780477335
-0.0011882485722141925 0.05707188435687965 0.004202760440720344
-0.0010361010304170883 0.05683543782279707 0.004322690665331974
-0.0008716157666703923 0.05673051653162059 0.004342685859224112
-0.00385884394590222 0.02023000655434064 -0.008441908382006934
-0.001803138472188418 0.05651715587584687 0.004389793261516095
-0.0014345316026372163 0.056559744829894724 0.004537865980793564
-0.0017667046159985634 0.05622720758706583 0.004788355517878899
-0.0031250561387968527 0.020459355756876615 -0.008696784347444156
-0.0036687911898919015 0.0203464281026101 -0.008521785165567949
-0.0013755169044343484 0.05639599192247081 0.004709965605193548
-0.003334806579996511 0.0205514157126426 -0.008633359730979315
-0.001433665256021822 0.05632835543064513 0.004773398638014763
0.0013191149245257749 0.03481701459064637 0.006631905090233263
0.001349373143682638 0.03515459740948305 0.0066016357308895865
-0.0030262037720332 0.020479107460451854 -0.008722976236523652
-0.0028658108148869265 0.02081320006047491 -0.00875276659015663
0.0009364588408924624 0.03479434953384115 0.006767019938533514
-0.003164226097071167 0.020770999344068425 -0.008677268984742394
-0.0034095242752348815 0.020972401798152972 -0.008595938748014488
-0.004129245156421299 0.020416310217291577 -0.008319421214305199
-0.004066833593460517 0.020779682566613146 -0.008348166011362904
-0.003825624545827384 0.02065031893902646 -0.0084506201024575
-0.00040162887092530606 0.05617780551871119 0.004508200281461473
-0.00030777736094340675 0.05631565349067791 0.0043667155356664255
-0.0004709672178850569 0.05669856122269107 0.004190003270230042
-0.003789270729141222 0.021031248619037095 -0.008452856719916638
-0.0006243491665754193 0.05645861140279486 0.004416275252414384
-0.003594308005022484 0.02118257634908611 -0.008528133637358848
-0.000854229496958137 0.056183683313662934 0.004715238474159909
-0.002835551106665616 0.05446040559050139 -0.006125792657598043
-0.0026226278511867905 0.054541964301010354 -0.006278437262189161
-0.002874742331091596 0.020685857898354008 -0.008754279148250775
-0.0024532286373532834 0.020829382023829005 -0.008833553862161314
-0.0019096223340988973 0.05459834515743366 -0.00609793670310765
-0.0024811663706019033 0.054439280325224465 -0.005814297514051702
-0.0028178878944902347 0.021246550731168393 -0.008757277538829466
-0.0018726283207914935 0.05472266424665498 -0.005882238372101662
-0.0023231424947914086 0.02095791355834366 -0.008846717013626907
0.003945620010851875 0.033990259127246354 0.005331808142570274
-0.001446938296428034 0.056653923050594475 0.007081455288337582
-0.0012217292905053773 0.056564540269514976 0.00694188122473561
0.004066045061739027 0.03413557168455503 0.005282644140136326
-0.0007962718969674188 0.05667227312618281 0.007176865036052469
-0.0009206033721868836 0.05669863472554377 0.0072547400205274885
-0.0007064129589231408 0.05674193195604278 0.007420422796081288
-0.0019860536603404986 0.05680597808193313 0.00725977649836237
0.004161142995306462 0.0345564414532378 0.005329304583354187
-0.002170242947942833 0.056933750565674825 0.007643354013974237
0.004477533674968461 0.03497263573320332 0.0051242978706767355
0.004723749756974967 0.03519324294762031 0.004855141993342188
-0.003008128954896971 0.05683781558201982 0.007812691395047087
0.004391282332317882 0.035181433126494105 0.005202994412395533
-0.002899041006079865 0.05688538105205981 0.008102258326187339
-0.0027155566013865144 0.056903677611916455 0.008117020785867464
-0.0024405077974226485 0.05694785624737419 0.007966231185129161
0.005457791708385771 0.033646319290800905 0.003803591555678017
-0.002098407531213813 0.056877722522359835 0.00832886084183746
-0.0021761820281093716 0.05692545426678478 0.008154477620913356
0.005347305914045783 0.03371944392772816 0.003933288406346469
0.004866319416494985 0.033298287663798685 0.004695116818729977
0.005470532817568405 0.05200426916621961 -0.006597491228936678
0.0051476698525647355 0.033844799382843536 0.0042579166896705945
0.004949207864791743 0.03351912894465704 0.004561721660563383
0.005021661529528915 0.033710055292612194 0.004441432853940727
0.005206884145992221 0.03342537126855541 0.004237829741133792
-0.001486866440046641 0.05676486988329921 0.008497808727178778
-0.0009418667370989216 0.05678871908214693 0.008298048931401646
-0.005901520748781571 0.021477918174296756 -0.007208849192173579
-0.006030041142890321 0.021439306132837243 -0.00708689233936774
-0.0014545965710288243 0.05686079551606453 0.00761724041678728
-0.0015567526978051385 0.05689108075529618 0.007661509423118988
-0.0013932237191268317 0.05689523146155401 0.007923582001281198
-0.0009345579084973435 0.05679308114678133 0.007583408880695696
-0.000727510585658729 0.056788744920534234 0.007663216330457507
-0.0011896558788989495 0.05685862311778451 0.007932708226903245
-0.0008367079857622794 0.056824431580008515 0.007998993991960053
0.005281404652265101 0.0343280749010081 0.004011682057927505
0.005096652226869026 0.03425774048182855 0.004372636256862876
0.004798498774726546 0.03330114749458204 0.004768360709085861
0.004389357509577034 0.03371898290049414 0.0051262119350382685
0.004749679152416374 0.0338291790352701 0.004820411768032733
-0.00014281796216509868 0.056657610305963294 0.006981524653012326
0.0001509982651161415 0.056727676762753795 0.007082451728208159
0.004713558205434216 0.03412794061589334 0.004858408091775164
0.0004375226511660313 0.05674166410247207 0.006705209541717329
0.0008430806993113721 0.05689220120252609 0.006871543578096563
0.00043903191576186634 0.0567618329525952 0.007199557758604441
0.0008404910430249177 0.05690789399177985 0.007019421997288219
0.00012595013708151595 0.05669526975461453 0.00745199516882216
-4.407613967764093e-05 0.05670387201411173 0.007745278842910718
0.00042106421981509735 0.05669816560045824 0.007522871902500595
-0.0014794729721225794 0.056039651230865524 -0.008477125276246509
-0.001725379285642224 0.0562014139598611 -0.00854813515331665
0.00522611005939406 0.03507014486639729 0.0043950628007317335
0.0006363365106744233 0.05676566447351307 0.007795612075115377
0.0050313576388269984 0.03513999538465461 0.004604110013460252
0.004758196573961457 0.03498485756439483 0.004840977342047695
-0.001365480382588137 0.05589410573953598 -0.008373258496737484
0.0010531227069781317 0.056977563138732826 0.007128285498466841
0.0016317796524024175 0.05694088963130779 0.007424842089984488
0.001488774475645477 0.05649872461328995 0.008172615533745367
0.000983529248339542 0.056916376722101335 0.007609636305958683
0.0027442020361647676 0.03395820674846906 0.006078869166516052
0.0011421232838119896 0.0567720943724037 0.007977420975970421
0.0022298382640704136 0.03414884164502886 0.006224351032782422
0.0014807545397537787 0.05688616963941996 0.007694224806799179
0.0015640885692439356 0.05678373067116621 0.00786929710617645
0.001550534742504351 0.05678227513093096 0.007880222165918714
-0.0006473093105394377 0.056687706021933654 0.008461429667771555
-0.000806279234590057 0.05632556169046029 0.008924045444624426
-0.00053431339477541 0.05632735194706125 0.008838273897109223
-0.00012515468954124852 0.05636280388522413 0.008640780799664157
0.001774203492457091 0.0340400110803857 0.006444178801765934
0.001886994531361196 0.03433696911933566 0.006360856255829524
0.0015796496342781869 0.03391869848404363 0.006540097512111008
-0.0003107862420041059 0.056751696243628316 0.007889117818480484
-2.684196147280051e-05 0.05670362155498966 0.007804561998816906
-0.00024313367539918672 0.05671616179088042 0.00813850221661036
0.00017998341422964685 0.056709666100316955 0.008049217892733489
2.4562490498268683e-05 0.05665694722417779 0.008280339723902578
0.0003546238186747652 0.05643125757169026 0.008393733060986142
-0.0002675030181038312 0.05650634113538715 -0.009635949885455547
3.7019021448013666e-05 0.05663711907940159 -0.009625255528486651
0.0002298642729071133 0.0566117860337776 -0.009617051306076912
0.0009629925627218633 0.0563163216626062 0.00832863517993868
0.0007377252438426765 0.056577080963804476 0.008179612220852034
0.0009962760333809715 0.05653044259871964 0.008199393132947336
-0.001869603632876964 0.05635646498016658 -0.009591157871309406
-0.0015367133626746636 0.05612627486206914 -0.009667886263350583
0.0008407900384005775 0.056756926090343565 0.007999793188900154
-0.0015247423937738735 0.056637144127620914 -0.009426421648466153
-0.0013658520346527467 0.05650932780591004 -0.00954717508908172
0.0027787381547952033 0.03410032761537634 0.006054367893385311
0.0022802052820166847 0.03421977143535939 0.0062002715813719396
-0.004654327313142025 0.05828604140280603 0.0024766535214872784
0.0026449412142020576 0.03415698600486966 0.006098054842688035
-0.0012714788657608499 0.05676082657290431 -0.009330691648306556
-0.0009347420695650702 0.05683376943033585 -0.009398123772146345
-0.002060761316517977 0.05667002078523379 -0.009247897634661302
-0.0048816084234517875 0.05871879082458831 0.002165111037585682
-0.004647533271260001 0.058589097002063675 0.002522878134647898
-0.004853929865370971 0.059021843396252854 0.0022790948823687993
-0.0022532638819447353 0.05664520125849837 -0.008865114636933853
-0.0018987720114048683 0.05656527928010699 -0.008794315353390423
0.003375479538488929 0.033943376046956894 0.005713633445218932
0.003548249220236595 0.033912673917619464 0.00559871255091008
-0.004676947526675184 0.058900633449676276 0.0025421487915283265
0.0031926555206794266 0.033793089267037536 0.005863459612615209
0.0032466069556404235 0.034312698852686674 0.005825986943740835
0.003419570210568848 0.0340863959995228 0.005689254011198493
-0.00116512569589927 0.05656405847708476 -0.008645147307393616
-0.004590267137249585 0.05800884635892144 0.002539051983792333
0.0036601518813025834 0.034265649614295506 0.005565938949026048
-0.004301928056186878 0.05786529470793964 0.002903550740503167
-0.004412316560357259 0.05826623513813595 0.002801187078174655
0.0035407309012631316 0.03449351101371714 0.005703600949333117
0.0036910722839564323 0.034744172637624846 0.005744769356474494
-0.0007098641305565913 0.05673518448169071 -0.0095380573072597
0.004011469082317534 0.03462436649763792 0.005484291647515782
-0.0004283419068047739 0.05673475007418887 -0.009589882576843393
0.0029245246907798122 0.034061323374803915 0.005985098856057794
-0.0007321143857020638 0.05693986820503924 -0.00934414934219095
-0.0009797796289056182 0.056472682485806724 -0.008479246758985924
0.0033599232104592524 0.03463858558887483 0.0058379191017891765
-0.0009433486097199717 0.0566790945565058 -0.008573595127465507
-0.003940424788500103 0.05812833085091409 0.0034168808532595053
-0.0006297807175864292 0.05671760113019564 -0.008453199523085942
-0.003988715326912345 0.05820525059144619 0.003346505717559639
-0.0037983735589246 0.05808425497673622 0.0035602620483042493
-9.788955882449316e-05 0.056533594132510454 -0.008311940036310967
-0.0007436155215614191 0.057031164985742185 -0.008971563744340208
-0.005143429276670771 0.059275386052397856 0.0019441956212532855
-0.0007549143112450523 0.05690009671309941 -0.008665005574740236
-0.0007110497722967652 0.05680252332179326 -0.00853797666685169
-0.005219530028850263 0.05948006183557883 0.0019078291406312217
0.004205315742501884 0.034974378853963345 0.005433449212264775
0.0042638181756574104 0.03505148469406257 0.005368889194112933
-8.995113012270529e-05 0.05677557487383422 -0.008429873384304676
-0.004882547866983858 0.059582810274940695 0.0023853894674339404
-0.000152974596162368 0.05703241917189231 -0.008611817300378678
-9.31688050623614e-05 0.056964781310351764 -0.008552338711310949
0.004239904741449916 0.035180540094510215 0.005421057052442936
0.004361088209439302 0.03539873128852932 0.005215240647267151
-0.0002893402178697225 0.05712707333137829 -0.009258609898300234
-0.005017836346403957 0.05985339045996287 0.0022530701970135134
6.341686143589929e-05 0.05698034891066313 -0.009545604230070412
0.0001448065953924915 0.05715103270328131 -0.009411829043929627
0.0037492716269272187 0.034964349711537474 0.005794298306532398
-8.896250872393512e-05 0.057149404228576645 -0.009368148340214003
0.00044426496137006633 0.05725158660191004 -0.009244606962646573
0.0036570089817937433 0.035418383331451364 0.00578017919857172
-0.0003071645740570045 0.05717740104520716 -0.00908014728891651
-0.0048106067543571005 0.059564733791344214 0.0024821856129749165
-0.0001226296925329907 0.05719303864653541 -0.008899423984683411
0.0001743038308973274 0.057213818354313245 -0.008783190512233877
-0.004561601231093787 0.05971143775952454 0.0028137310592973278
-0.004817438731249028 0.05988104694432328 0.002518738516803506
-0.00499910784181985 0.060394548706106846 0.0023413545848103194
0.0020079247714487516 0.0345685824066759 0.006315196944996554
-0.00475769778232068 0.060263660050025106 0.0026029018694272202
0.0020076785559042854 0.034729214525250754 0.0063240826664745006
0.0016546273697841253 0.034647887702784264 0.006499984510156006
0.0017447820604744061 0.03495382544879998 0.006483274524133514
-0.0045596170009608 0.06015651538038329 0.0028263848991745173
0.0005494848190177342 0.05676401144574198 -0.009564492990757083
0.0008643958586641762 0.05673388463051487 -0.009457226167148992
0.0020441832557391054 0.03504663219831402 0.006342861648670109
0.0011095937663869193 0.056769189813425505 -0.009301045929162232
0.001365433938243544 0.05647105194184256 -0.009286445331959175
0.0016483795219032252 0.05652814108009689 -0.009160830973905444
-0.004488425368766331 0.06036800565926741 0.0029144937539557895
2.616435493040204e-05 0.0560799450015923 -0.008062285116599332
9.402504659035275e-05 0.056312063421648045 -0.008185912219894441
-0.0036235123957336674 0.05784078812503683 0.0036251308119946623
-0.00319046668300222 0.05789054321382987 0.003625841951389909
0.0008601625188288857 0.05629260638249049 -0.007978165214386443
-0.003723546145237493 0.05801413812200191 0.0036068673301538393
-0.003425456085782441 0.05828533627689188 0.003580864986444896
-0.00298122706824157 0.0577705287338431 0.0036811140083411564
-0.002886519132515856 0.05775790973720171 0.003706389778031012
-0.003040548245856696 0.05814509791805812 0.0036249523262273536
0.0008509047370627429 0.056743892286601275 -0.008370098502692278
0.0006297098881962618 0.05647858535009203 -0.00820013582894476
0.0009951269708822577 0.05636545797812113 -0.00801222184862829
-0.003111433089998835 0.05876975295895123 0.003599450344765027
-0.002793772547181943 0.05823688494009816 0.0036950435697567317
-0.0029679862051065417 0.05861354525172123 0.00364250027291726
-0.0026047745894465096 0.05861559665770873 0.0038040813938043224
0.0011763979098162569 0.056393522359116266 -0.007985765502777402
0.001306952708220668 0.05653858076724336 -0.008101472266512207
0.001533228489531735 0.056521321850615536 -0.008023758188787844
-0.002377646264490682 0.05745481051531047 0.003883170215152299
-0.002215712350337976 0.05792707719954859 0.0038458094136085913
-0.002092770470270092 0.057387513280778214 0.003927322113026105
0.0020467027287296292 0.05640912608952156 -0.007665754755301625
-0.0018236643272622165 0.057697185503826236 0.003942408635281766
0.0010173808523732918 0.05698544160504954 -0.009201764333838628
0.0006836574475964941 0.05722689909596174 -0.008977800556347351
0.0009759729185694907 0.05710865699050854 -0.00907267746543387
-0.002179674137518667 0.05797879775333137 0.003852199214502154
0.0014890702129729434 0.05681546314138368 -0.009037609322411324
-0.00245657779458352 0.05855475853661972 0.003865665354031659
-0.0021876775151013633 0.05835101178748444 0.003904120110311056
-0.001969144705601702 0.05804068546331514 0.003918416474445535
0.0007267317465160909 0.05697842002013424 -0.008575971467920248
0.0007260120966117413 0.05719216244150446 -0.008839521698648104
0.001041579778779533 0.05693501757688772 -0.008580621291735188
0.0012078329135381365 0.05692382295756511 -0.008599577523878762
0.0019809763548598804 0.05658170578275569 -0.00890099819766978
-0.002174972718667799 0.058756476005993985 0.004018831729213801
0.0018228592226503231 0.05674524302870099 -0.008458203755764258
0.002159818530549502 0.056601352999034425 -0.008709446171371102
0.002364506255048504 0.05649365624606967 -0.00873311919059758
0.004883911653470192 0.0354813492842265 0.004675005775267066
0.00494237096875153 0.03578153556615319 0.004597831501574856
0.004494947567692474 0.03578305512412316 0.004951730180861776
0.004610150942410421 0.03594174971095343 0.004833634206206387
0.0017515917943695932 0.056710195495232193 -0.008351058002965206
0.004980476521900493 0.03592091411593809 0.004558209931641466
0.0019757832168796215 0.05666497201608182 -0.008195796303477025
0.0045287477654374336 0.03623920108319229 0.004910144170502805
0.0023688576636175613 0.05673337867591276 -0.008269388461478643
-0.0022383300392329213 0.058862802186026214 0.004017639144979681
0.005340798960763894 0.03647375252379091 0.0040620861143671316
0.005400930009051668 0.036595756303631516 0.003959621263240774
0.005271695481147263 0.03649709487923998 0.00418059544917858
-0.0023582041862379778 0.05557781912174833 -0.00803750945789443
-0.002269131428741902 0.055086625093913384 -0.007694697754865341
-0.0050217012665897415 0.06056734031476453 0.002342061710469737
-0.001931933754465033 0.05506449289881804 -0.007679520906335278
-0.002111455121053511 0.05548607180366731 -0.008006639950830672
0.005448514920936562 0.037170670103602824 0.003916010768118139
-0.0018131518488483205 0.05536718589419935 -0.007948235474490448
0.005054853017271776 0.03658294705454575 0.0045130214869680985
-0.005049532396350464 0.060761066659387686 0.0023315021904677293
-0.004813951964935749 0.06085560113077738 0.002581594044654446
-0.0022920471341868025 0.055790615525782614 -0.00815361789775689
0.004983521558530096 0.03664472729844334 0.004627160301565885
-0.004846864118636314 0.06109920232395594 0.002520697880565541
0.005077186523647703 0.03700551705997133 0.004587264510246547
-0.0016487211367402638 0.0556048890882005 -0.008140335306492587
0.005171663945851775 0.03708664643938814 0.0043983907430191534
-0.0015494439874719971 0.05582817153076927 -0.008354008192399703
0.005070221158540421 0.03724767168074515 0.004595872320678197
-0.0021296442994407456 0.056088157090360094 -0.008348147991499773
-0.0022584285395348333 0.056409601247200715 -0.00853525841531433
0.00573120711646601 0.03481549180928866 0.003336891491783508
0.005852901796948138 0.03507989904464389 0.003289473247119921
0.0056023831198366795 0.03488395552949923 0.0036445626524675154
0.00572099247452599 0.03515953912044463 0.0035835817886278928
-0.001798644237752209 0.055946214129423466 -0.00837582774087875
0.0058818749221789465 0.035442948144862166 0.003357817272808653
-0.0015448757891098432 0.05550777967583685 -0.008047354795060893
-0.0013203090732273337 0.05543355712187516 -0.007869430354526384
0.005762882829157322 0.0358320376421786 0.003471469516378599
-0.0011193636073252092 0.05563095938158673 -0.007990749429537095
-0.004245350710678607 0.06226209063444847 0.001686565067729263
0.0056385001187975745 0.03533576850815962 0.003788172908455118
-0.004114679774159068 0.06227118132378599 0.0018076255965868498
-0.004312970498102583 0.06221079829652958 0.0019930821028311956
-0.0009607622910430993 0.055862371749390446 -0.008135341193387907
0.0055588503481824 0.035538190669585065 0.0039284960318189755
-0.003793816144861261 0.06230757910972441 0.0018609408300746312
-0.002005188980322967 0.05483382309297055 -0.00573247643227201
-0.003836092215365435 0.06231254240230074 0.002339720780862598
-0.0016057210231235498 0.0547539607926305 -0.006133981381969079
-0.0015121705153192135 0.054877673653077094 -0.006045026966719564
-0.001391107058913068 0.05488670327651012 -0.006119477389247695
-0.0018263989472693141 0.05484655223901321 -0.005840348014394988
-0.001561114436570787 0.0551447669196563 -0.005871704685349508
-0.0014417134502322372 0.055141586761696636 -0.005924908547751692
-0.0012200614500221373 0.05525911047526768 -0.005963779951707285
-0.004715656616971237 0.060929638433211517 0.0026939485846357806
0.006027802387108649 0.0364195721901158 0.0030102648167354374
0.0061602057214683896 0.0365455901801174 0.002790721869966388
0.006088307407459364 0.0367264588930343 0.0029189197795532057
0.0059265702975685895 0.03647840681548285 0.003149309613102671
-0.00011892587533025723 0.05518187882452344 -0.00633563364429036
-1.6562220346942137e-05 0.05506764174564363 -0.0061698485570802885
-0.004792046177459109 0.061235342269562204 0.002556672647273883
0.0056505017598521105 0.03649533323549624 0.0035606755166585416
-6.739746890378165e-05 0.055189063808047834 -0.006137533424995486
-0.004771994901010532 0.06134815651694324 0.0025570009377024984
-0.004667589943362768 0.061482888265139764 0.002659465807597179
0.005842466844514072 0.036803420019730415 0.003283618953186008
0.005760846827232329 0.0369078929736859 0.003436874432101024
-0.0008508379009080529 0.05555446064627682 -0.005954599645707724
0.0057745968383604105 0.037116077507941145 0.0034790733752005213
-0.007390272794482396 0.022324439605278232 -0.005583284693456519
-0.004288155099404164 0.06135031632700375 0.002981108688438018
-0.004072045574856926 0.061256532645876466 0.003106196845626158
0.0054236293739821 0.035598315955958235 0.004154999785909656
0.00048349737860437566 0.05479198076927758 -0.005966515823752674
-0.007831628589842538 0.022851216807143047 -0.004920670590950037
0.00034880058074673013 0.054899284828426854 -0.006099543586490139
-0.003754179070828473 0.06130311548475501 0.0032509282194528796
-0.007732928965624338 0.02358594962099063 -0.005100565508857496
-0.003576634436657961 0.061157107138064035 0.0033341601234968253
0.005375259073491739 0.0359794574802043 0.004083392575617022
0.0052469510390607006 0.03591059953411106 0.004310013858151504
-0.007724308616041216 0.023329560298413318 -0.005106197643277872
0.00013178378819031446 0.055263392326823535 -0.005925716517337148
0.0007307193651616642 0.0547103351986052 -0.005859733602100155
0.000804733251673879 0.05484140519259964 -0.006052658879441019
0.0010661117182170052 0.05471395282722473 -0.005866960628004245
0.0009548388218553541 0.05465634240793506 -0.005607761457983978
-0.003041434591906717 0.06116255615331828 0.0036640054140435908
-0.004634447751116532 0.06186322219055569 0.0025369009323057425
-0.004595586612499667 0.06188083016754854 0.002577015189545073
0.0007636924616501071 0.05476097501208088 -0.0055182912721475205
0.0007083934260877217 0.054882494159017775 -0.005498801881831345
0.0008691079261425364 0.05501050491031737 -0.005334290078254393
-0.003993389155647762 0.06149855391764911 0.003111837512851653
-0.004260501370932786 0.06210168230987297 0.0027829736330918405
-0.004416255594014846 0.06215527940241976 0.002311327180800844
-0.004176238843557912 0.06223914105786902 0.002593737197223591
-0.008144461315353718 0.0231049571751264 -0.004352372754585741
-0.007954740554023582 0.022880503537879134 -0.004708145392207019
-0.007945064641745457 0.02297058751761275 -0.00472760322889775
-0.003804569389502064 0.06232558396583543 0.0024445809705777874
4.303274680571758e-05 0.05541977548578826 -0.005956252519645733
-0.003747934382356571 0.06233488202885333 0.0025230525168637562
-2.7593716957798162e-05 0.055755914353771564 -0.005803932554605385
-0.007870693391965845 0.023399007746931332 -0.004866300240193916
-0.0037451037938318692 0.06225258567533139 0.002972374843084611
-0.0003301643584294408 0.05583270001825999 -0.005840683241857505
0.00010062698979540792 0.05594078111937967 -0.005556465388400842
0.0057457702942898935 0.037963946166217656 0.003983543952781902
0.005767938136163122 0.03798866422700572 0.003987839814479334
0.005349773282577396 0.03784221356105758 0.004254256758344155
0.005373516542653948 0.037630315105525586 0.0041314840007981675
0.0009217253496530632 0.05519258719699019 -0.005246389134175842
0.0006734593626205642 0.05558603110787157 -0.005307938102201556
-0.008281387774813156 0.022917060182415315 -0.004075836587369723
-0.0036331883649119868 0.06175502837217178 0.0032326402348931155
0.005264229404510816 0.03801349547466757 0.004487615677386406
-0.003335034538061242 0.06235329672170253 0.0027033309566697594
0.005723829876451996 0.038096314759602457 0.004102101327453264
-0.0008328493865521147 0.056241560835426106 -0.008313834626207004
0.005626551315203349 0.03829262009461084 0.004319189891419308
-0.003456256485613654 0.06230059620431695 0.0028798348671410486
-0.0031488289657695167 0.06229168323097943 0.002970480901746406
-0.0026628916148736916 0.06224835784356917 0.0033104057991946603
-0.007843487437058896 0.02399998755504748 -0.004923738082548536
-0.003301194055953112 0.061578684109316766 0.0035000035779380895
-0.003322743754924602 0.0617561214080724 0.0034257759774722982
-0.0029260849907673907 0.061699740310499504 0.003724644116775023
-0.00815586797934078 0.024940699754093604 -0.004376749043549147
-0.0032096944216246617 0.06193416356507759 0.003369054828060383
-0.0028173743536668923 0.062010895198143776 0.0035439186948384104
0.006252407167687874 0.03716099444215736 0.0028820257007756336
0.006336085471697822 0.03736382982281264 0.002947807080727895
0.006639223395695211 0.03767648426848255 0.002763174707882972
0.006581810143902297 0.03785111748924664 0.002991118074313777
0.0060247331754896246 0.03738469987713134 0.003338430931658569
0.00584134696479463 0.03740952749454427 0.0035373865720429026
0.006353197439065855 0.03763199756492444 0.0032031368502367656
0.006586104177184858 0.03800618462541612 0.0030688984871410484
0.006479344071078641 0.03805067753053428 0.003295811292584737
0.0068144051662066465 0.038060488516179734 0.0025515533827995983
0.006737887912505038 0.03811841296298997 0.0027968745226521698
0.0069459825666497565 0.03860118096704415 0.0022573657763196274
-0.008008031593982457 0.025587625551928526 -0.004673572720776638
0.006851976444434016 0.03861163898715287 0.002559870303033
-0.007765014911858349 0.026006278197845678 -0.00509540792967635
0.006799974799542876 0.03892192727589714 0.002606399344142052
-0.008011772037836838 0.025730974071563044 -0.004670634350506263
-0.007909433857568655 0.026018616482402803 -0.004857607079315708
0.006677587382087619 0.038416941962195014 0.0029908309157477136
0.006464971173694581 0.03844603299085478 0.0034099729577887327
-0.007903035705709183 0.025400031546813986 -0.004849578286044525
-0.00801055093811255 0.025472908340188442 -0.00466442475311907
-0.0028365627568524713 0.061553488791955796 0.0038217871616629956
0.0065771569985114235 0.03883094424796091 0.0031454725409529923
-0.0027480588893108913 0.0617984087775537 0.003773180623611036
0.005558461504691487 0.05238739497284642 -0.006499307373881012
-0.002663266460843211 0.061667354759694176 0.003849227424406816
-0.007676220958805294 0.026165759258436404 -0.005243874195064944
-0.0021704944563065297 0.061442101515456926 0.004104730586522189
0.005842801377738963 0.03763748376958184 0.0036964379927076105
-0.0019401533378351683 0.0615972715155041 0.00410117884641334
0.006042658862596721 0.03784427430477994 0.0037142429728087207
0.0062542949587290255 0.03795540429475906 0.003614145651755509
-0.00785778065835599 0.026246870976067337 -0.004949992156814026
0.00619874122982812 0.03807734501301982 0.00375905045887811
-0.0024892262321515434 0.06183064027656969 0.0038335094646188544
0.006186354269901714 0.038104689196735514 0.003779057995012541
-0.0021008562916047875 0.061979702028362116 0.0038588720938040662
0.005811246229938649 0.05331110277795019 -0.0061512665335387
0.005935237313900477 0.038253752715912054 0.004056691984304759
-0.0018127121277523438 0.061981787523924095 0.003968958295621557
-0.0014521642582380554 0.0619659206667902 0.004024773387278003
-0.0011446781175720705 0.06182109659033726 0.004077549791967687
-0.0016603317102658545 0.061799792895801973 0.004097099654887414
-0.0015004560020113024 0.06182512059126603 0.004093485667300247
0.006311047369347697 0.03886051805760411 0.003735007565031333
0.006472777809075554 0.03918232716616415 0.003353193447062347
0.006330595006245596 0.03933852907882438 0.0036058879957620873
0.002563582886032438 0.05618052175839361 -0.008754496592247155
0.006161571498525175 0.03877773432922309 0.0039804848651156825
0.0031889544917724742 0.0562641168869874 -0.008533575746891337
0.006235898018467082 0.039308809412185834 0.003788012099748966
-0.008426306922179612 0.025215310235653758 -0.003825673636855405
-0.008534581829917946 0.025505997069977606 -0.003559902677760964
0.003843588086036894 0.055938957276444164 -0.008272985688083163
0.004353681543660239 0.0358326457987033 0.005154827254710727
-0.008580276517964953 0.024817511396234407 -0.0033991940240834483
0.00459365605211125 0.03671238438057905 0.005069396696975421
0.004673903558161196 0.03679260440010001 0.005045511143911939
-0.008900466496785152 0.023564885014500155 -0.002286045167470741
0.0027515674479369917 0.05659825266772798 -0.00852623418299293
-0.00130285699830166 0.057482063006704893 0.004091034748714511
0.0027355510009581608 0.05676907180970933 -0.00830120314077717
0.004972354308700346 0.03704222576293272 0.004767969843261003
-0.00047661223408736793 0.057184006312139025 0.004014860216354858
-0.0009789846499994271 0.05706632760015637 0.004189020168208431
0.0050308618153913996 0.03755928336077892 0.00467458519271793
0.0032187753831718876 0.0565996243806679 -0.008384760281027012
-0.008781803759506929 0.025164752496762435 -0.0028103112499445184
0.0036337954316870294 0.05625129248411228 -0.008365265909977325
-0.00042923184726400437 0.057533957319110804 0.003978202396528087
-0.008595606982191927 0.025574222550145888 -0.0033867866030568156
-0.008711676911949158 0.0254189914225596 -0.0030477931056775965
-0.000527547124666703 0.05744481507134713 0.004014703227177803
0.0032430418579735775 0.05675152311266395 -0.008232501122704239
0.0034202212104601512 0.056808311264763114 -0.00807641922614831
-0.008829191183592202 0.025138261790278765 -0.002642640888756559
0.002656621936756425 0.05679277697197176 -0.008102754194542549
0.0028072114447751 0.05682715087270372 -0.008029106250113254
0.0023886361403675596 0.056569715711036736 -0.007686836669863189
-0.00877390302447766 0.02568113500976649 -0.002851907999469717
-0.008933193306834826 0.025536874473599546 -0.0022585500015990306
-0.0002211676119839497 0.05687351136332798 0.0039680405016935955
-0.0003726497335590812 0.05714280692437071 0.003972148809940956
-0.008709842410762674 0.02490986790800709 -0.0030356557044698427
-0.008841647649383774 0.02472858708132586 -0.0025797330235289
-0.0001758422240160593 0.057629752959045266 0.0038427162755385403
0.0033587895165054314 0.056879840218150304 -0.00783966425236192
0.0033937071180225493 0.05688213577739705 -0.007730947217405491
0.003890972764780431 0.05608955748062169 -0.00824434944266511
0.0038473662867975073 0.05638339995963528 -0.008181229657658632
0.004115005268786193 0.05628040471772183 -0.008040138278822767
-0.00019145914817572706 0.05827265424708465 0.003822520579739595
0.004099414249020581 0.05587744443178521 -0.008091855133550771
0.0041575214981607106 0.05627101376047079 -0.008009137644747675
0.004387100405036993 0.05600179885368285 -0.007821077634508483
-1.4244356494586334e-05 0.05902696733383676 0.00370329393042703
0.004273449142972199 0.056368037867713605 -0.007849676446556549
0.004510458445705788 0.056241787510648775 -0.007614096294842571
-0.0005115818516057835 0.05847817464138814 0.0040013223148922805
0.0039610937847468575 0.05667714997362038 -0.007870980244293554
0.00012224401315491718 0.05787815066996963 0.0036986383937225665
-1.2043612118478771e-05 0.058237231420990965 0.003741924777636467
-0.00821675985863431 0.025495040701564668 -0.004275063896142555
-0.008216157812435327 0.02565138479088056 -0.004284715648946733
5.0253158287917694e-05 0.05839304537479382 0.003701947290657937
-0.008298027586958107 0.025473581472365833 -0.0041086689661262235
0.004089466553005713 0.05671449748407843 -0.007662991656059247
0.003586477021024751 0.05687455597811221 -0.007617071976793309
0.003975468035798144 0.05682335800842196 -0.0074156266647354835
-0.008049694582073996 0.026309822995285823 -0.004617334663998981
0.004074917771439792 0.05679933211102459 -0.007281106593166702
0.0043829274111371105 0.05669904467599547 -0.007149645447652769
-0.0080067946864117 0.026811425480975933 -0.0047123563440557275
-0.008103968322116009 0.02710639969600601 -0.00453867002579107
0.002276597358611617 0.056730559437343606 0.00589390730003784
0.0021118799618718 0.05684399719225677 0.006285052710909188
0.0021753102405302122 0.056851494372046375 0.006296191754124847
0.004664572029766562 0.055530932535261215 -0.0075631853806809035
0.0020745071997408334 0.05692319949375068 0.006579510423236605
0.004946878909271248 0.05552016938839586 -0.00732652144806278
0.0019301484753070064 0.056946810163139516 0.0066619662412969625
-0.008263534979639824 0.02735389848743552 -0.004227450567755481
0.0021070432719808925 0.056960059823172725 0.006808520837557247
-7.51370239078628e-05 0.059119089314303805 0.0037343866162974594
0.0052823359493775306 0.05541941253428857 -0.007033546270253959
0.0004219110824996521 0.058861945537153286 0.0035406412572311905
-0.008547659495615026 0.027142011780110383 -0.0035792752168853706
-0.008447127444101477 0.02731594864488298 -0.0038387391708441802
-0.008453586444222134 0.027442117460846453 -0.0038227379372134827
-0.008441826650144339 0.027704422874340443 -0.003854318338092585
-0.008523853135600544 0.027448942964719406 -0.003646741177928799
-0.008546227011526637 0.027802586283650607 -0.00359666962966955
-0.009359976879485178 0.04406115910053746 0.0011608397361602524
0.00598952588217521 0.05476744843710858 -0.006114857392775247
-0.009298833964722083 0.044048921984175926 0.0014813545197742504
0.005526175532880616 0.055268659719474394 -0.006807609780213022
-0.008728035663031266 0.0275346179592418 -0.0030607736199171963
0.005621593071099662 0.05548881514031338 -0.006721617743379741
-0.008640043039913923 0.02718223356897175 -0.003325464413475344
0.0057070296827661125 0.055512814529492305 -0.006641074147135484
-0.008621666875720599 0.02761166472251925 -0.0033836993705458926
0.006040221986528335 0.05516847644773443 -0.006185684464896021
0.005894724288545192 0.05550928882592664 -0.006454063367097467
0.004542011871294432 0.055830507005425585 -0.007647038563866303
0.004915806610036595 0.05586180370838042 -0.00726648009091395
0.004830000142181692 0.0561594847635327 -0.007204757077387381
0.004985494916594462 0.056229124708136846 -0.00702377680228621
0.005324356538899237 0.05582016577834009 -0.006950429070361735
0.005197757076003843 0.056341314106010607 -0.006846274345560497
0.005349399185793419 0.056303162413328896 -0.006781898464510586
0.0015841841690129722 0.057024117934184264 0.0071137053500996755
0.0016923173708913782 0.05693278971881265 0.0073786448074394375
0.005617600631161522 0.055840797051939936 -0.006692907764484164
0.005619049958699376 0.056122605425912735 -0.006631036673066006
0.001234149247614045 0.054677845146947464 -0.0057903076128081495
0.0010948464059527684 0.05460749090533076 -0.005517747409502677
0.0016707491460865556 0.0546170425502312 -0.005594738428141673
0.0019455344497655326 0.05447655773128361 -0.005288064799834188
0.0019048986887540364 0.054520109462859505 -0.0053737625560658486
0.0013700981676865972 0.0545020270186975 -0.005143521256869754
0.0010392884633570894 0.05507180905132431 -0.005189105841737753
0.0014035801070025312 0.05479184119769474 -0.004960682730561715
0.0019740017620866464 0.05439173684332238 -0.005070494969355993
0.001766704128312688 0.0544061521084179 -0.0048555755963744385
0.001490283376216599 0.054886855688652494 -0.004898582069051561
0.006387127949797067 0.0517616216974693 0.004115715201783438
0.002078265393604201 0.054421840163954516 -0.005081917784282164
0.006120204327519903 0.05174001358412034 0.004786785656687713
0.002483225709654367 0.05464073801598973 -0.004964434530277126
0.002087762461443283 0.05454137643043658 -0.004639963300902664
0.0024835469824346155 0.05453419306189665 -0.004517660448105977
0.00279124096481011 0.05462356387320748 -0.004400542732288805
0.0016042850545978805 0.055092230882398056 -0.0048269263346597995
-0.007303347774564846 0.029194752341970068 -0.005884348478291187
-0.0073694173925850735 0.02925070683678626 -0.005780089676639691
0.006444033869145901 0.05211618458659978 0.004123253555341372
0.006526373864640496 0.052343403987720596 0.004019610871399064
-0.004051880541136159 0.03384719929119992 0.0061016038046932215
0.0060826632303819985 0.05518312988633004 -0.006122007160032833
0.0061276832440135785 0.05545003088265605 -0.006140611567393928
0.006414443285956085 0.05226626620269676 0.004295054065115562
0.0064518065469172554 0.052312581938785616 0.0041935504172895734
0.006295730317631348 0.052520528610989235 0.004597807187857686
0.004577279586226491 0.05669355081677649 -0.006906448079287443
0.004686391465976442 0.05675937157347757 -0.0066452689913893
0.006536516751439349 0.05282899299360987 0.004091932480939684
0.005214901054404011 0.05646035403033908 -0.006743163765141034
0.005368647673167968 0.05649836961984033 -0.0066004935231168405
0.0053675618746809525 0.05661291015784386 -0.006434132629020372
0.005721505496627354 0.056062326318599864 -0.006533983132201482
0.00585445117196052 0.0562895129482676 -0.0061181713011995995
0.00674769203031195 0.053417795396388586 0.0037000552916144295
-0.006489759077269378 0.0292786284954744 -0.006739651401125963
0.006152487897466722 0.05593392814942515 -0.005994328279019377
0.0069823810906163904 0.05378359734163851 0.0031824823125657497
0.006014704332826151 0.05604180879554901 -0.006144842867254046
0.005654216450033508 0.056320534262417836 -0.006458007193867686
0.005522154843092389 0.05655140893318529 -0.006324809199936094
0.006588498850858498 0.05354533111022442 0.004009580028641579
0.0064441428410076185 0.053487570635247714 0.0042346539954001864
-0.0033800769243031033 0.05449911816925603 -0.005634440994755555
-0.003676257182471409 0.05469458502026007 -0.005567043726020792
0.006682184097182404 0.05411174602023766 0.0038903627862878027
0.006619303832883781 0.05416889866503666 0.004037672040151124
-0.0031277811864580357 0.05442675505806087 -0.005729700522339808
-0.006573311741488563 0.02948864169305742 -0.006637992290066095
-0.00677959256447904 0.029726318653860953 -0.006380095962431623
-0.0027691553162575437 0.05457560402374566 -0.0056317092062772465
-0.003106202348167446 0.054847013008778214 -0.005479819862944232
-0.00638251542431866 0.02996868460115453 -0.006752154613763103
-0.006760524474060592 0.02999901386884202 -0.006383191776360136
-0.006575382531614783 0.030211498164853145 -0.006529854671874039
-0.007126677681020211 0.02959553383770932 -0.006012406981278745
-0.003599999035926347 0.0549201642070637 -0.005377802888214975
-0.00716417836553255 0.029834395129026192 -0.005930839924715914
-0.0035933072149624433 0.05520210486415096 -0.005298462452682321
-0.003352091632877437 0.055096883539008136 -0.005370311227530108
-0.003628071351338127 0.05544456345188219 -0.0052266115512766215
-0.007190721538342597 0.030044666123975293 -0.0058809870627629405
-0.0070073382243774456 0.03051080864841938 -0.005981434961763415
-0.002601327481044577 0.054733047111215904 -0.005578310165744368
-0.0022818299379529653 0.054875320701269895 -0.005617709654179879
0.00610259020236891 0.05226515581614295 0.004937683247978983
-0.0026117094040458634 0.055264994928139716 -0.005552616229916544
-0.0024541683419214665 0.05566573795276521 -0.005504856820319459
-0.0033800906486128653 0.05560951628221057 -0.005266557919199279
-0.0030521478731730853 0.05530110761852064 -0.005428717433414887
-0.00293410922146867 0.05559160016582147 -0.0054162840487817394
-0.0025525965044296615 0.0558555783159574 -0.0053336378746000924
-0.002565828237371034 0.056067157959349884 -0.0051507624934688705
-0.002309379538970635 0.05498460749282407 -0.005600707404418831
-0.00225008741695558 0.05528111565379017 -0.0056256997881653625
-0.002497302459575769 0.05514137064910786 -0.0055622061691259165
-0.0023122581917953662 0.05534557603795494 -0.0056069473079283505
-0.00841216413258616 0.03031887172850234 -0.0038075036512948
0.0062553280810814915 0.05245848404962176 0.0046913521568913204
-0.007975144534246878 0.027865412224881606 -0.004791941194127493
-0.0020133662345688495 0.05560139897581162 -0.005538198452718404
-0.0018229655084496116 0.055419886634133775 -0.005650685212869875
-0.0013097187162365615 0.055665303442075126 -0.005601577795162447
-0.0017804430831556398 0.055741359002627985 -0.005421287150242137
-0.0017716332693202357 0.055779732254942066 -0.005384869414883423
-0.0014362174728430625 0.05579129721316853 -0.0054098919444925155
-0.0021806277874140303 0.055888842678357725 -0.005316659485988259
-0.008083942831180633 0.027751912152134996 -0.004593441574893171
-0.008145540880955843 0.02805186923152745 -0.004485144887431585
0.006159863494073192 0.05462445723948296 0.004826297460545518
-0.00234039678109673 0.056092477636378285 -0.005134959480127647
-0.00814185377417423 0.028158669001195617 -0.004497240158995462
-0.0017354720061382618 0.05589285326507528 -0.00527568958874059
-0.008066582863841192 0.028391944146663267 -0.004645304249400959
-0.007626561719210289 0.02904617190467605 -0.005404099528315141
-0.0020727130238559306 0.05629328866610099 -0.0049874563565433195
-0.001366846662518541 0.056147849651220355 -0.005049612568999132
0.006810191028087874 0.04944010332811943 0.003468752010307974
-0.0016791038108125284 0.056226473525727697 -0.00501599271777819
-0.0013525260254003558 0.05624506871194833 -0.005003882771925783
0.0066441189966928264 0.04958818220844283 0.0038530687768625425
-0.001491149872446619 0.056422408581801975 -0.004936883674799187
-0.0076991338046002835 0.029452460547779752 -0.005263348243957771
-0.001105720958665009 0.056932049008517886 -0.0049292315916969545
0.006873399805920685 0.050042878696299704 0.0033698379336699717
-0.003680491073452109 0.05600675227161392 -0.004995916690317317
-0.007774629663206354 0.029658603424378146 -0.005116332543608071
-0.00798491627423089 0.0296359100795151 -0.004766217666418942
0.006736431048875848 0.050086696239202005 0.0036674339526068453
0.006820422407474625 0.05026902159700859 0.0035079175393387036
-0.0034598099689137638 0.05622413099133391 -0.004921102357713956
-0.0033296189980400103 0.05627966348378502 -0.004895479696187762
0.0065921776181369785 0.04982954852287126 0.003920547658630149
-0.0027892504268361594 0.05634566672536626 -0.004891424413689704
-0.008068632754776732 0.02958583674785233 -0.0046217941359453655
-0.0028989585481903426 0.05647342874063088 -0.004771328840422319
0.006857718807242231 0.05067950757231107 0.0034134895804430474
-0.008166580568764787 0.029999844704072378 -0.004389984476182383
-0.003653136570510013 0.056340009808959174 -0.004732284355958539
-0.003450993819018956 0.056628922597674616 -0.004512552300796105
-0.003508530057078729 0.056686422974648196 -0.004452473323085885
-0.002571514712152155 0.05679327364028283 -0.00473340797699686
-0.0025487272386777535 0.056894654016384175 -0.004736998221995763
-0.00809140876117902 0.030343394902627045 -0.004466696669722767
-0.008042623626379173 0.03054293267746451 -0.004504966821688342
-0.007891383903658013 0.030684796832888748 -0.004724765664726077
-0.0032084330715052263 0.05702589365206323 -0.004523820842907085
-0.0034818871696962596 0.05739106470374777 -0.004474641184119005
-0.0030982601703291816 0.05724357416577888 -0.0045961692227422775
-0.0029984494952076833 0.05669022073747664 -0.004621716619042059
-0.008113209658838199 0.03057467777739565 -0.004369695759098117
-0.0028461373439650564 0.057147233785574666 -0.004672310188663728
-0.007486162778622903 0.038185865434481374 0.003891006556615075
-0.00810184871989434 0.03089416452857175 -0.004300333748473205
-0.007933701412933487 0.031204905656294146 -0.004497683892840552
-0.008206002259427476 0.03109000300401362 -0.003999224769063134
-0.008045149667364651 0.031223070837246014 -0.004275395082857891
-0.0030916697118411243 0.05785302855426988 -0.004678353847916944
-0.0026641973703546568 0.05730288421456599 -0.0047684938505305925
-0.007819631042449942 0.03135153661476332 -0.0046269323184752326
-0.0027203657406821903 0.057739857761173435 -0.004829789358175975
-0.0022044598422795 0.056564207809748725 -0.004874680794443107
-0.007898826253250803 0.03154652617565564 -0.004377969328359312
-0.00177428874993619 0.056762431173084694 -0.004888632056264477
-0.008031500262654829 0.03148779706303216 -0.0041457597669387215
-0.0022115445048348312 0.056887626805807744 -0.004832283628174648
-0.0017078747805016655 0.05664423361311595 -0.004905513313066551
-0.00762355571258178 0.03235277227030322 -0.004331792015554298
-0.0017871403526793896 0.05711267629425697 -0.004932515536474217
-0.0016189477889369292 0.05730065887675147 -0.004997609502435002
-0.007438358408792921 0.029934208577227124 -0.005578703502129042
-0.001984951000364897 0.05719489667503664 -0.004930937066176239
-0.0016125725743548862 0.05693652469304246 -0.004917444325796315
-0.007461063734220673 0.02996515645167725 -0.005542166914482184
-0.0010496384351587197 0.05709374440256048 -0.004961786185286369
-0.00759344435237543 0.03014548277213899 -0.005312855650163235
-0.007687102896070332 0.030385260229108337 -0.00511364914846764
0.007558980539297076 0.05467077576057787 0.001965196573122333
-0.0009866189503494702 0.05587509308910931 -0.005487029372677621
0.007291750086059415 0.05448171284171559 0.0026504908146692346
0.00744637503117512 0.05475124224467458 0.0024464528050104867
0.007242701010542986 0.05445489109902167 0.0027230607389217127
-0.008033360939776314 0.030064960401770223 -0.004624659788080951
-0.0006007055623355776 0.056161199865797456 -0.005315571602651241
-0.00810582768694976 0.0301016202389609 -0.004491688729485251
0.006538055764236776 0.055845660061115604 0.0013700084888438914
-0.0003176530978059607 0.056187349972368086 -0.005396147043145991
-2.7246819660216602e-05 0.05612431819250646 -0.0054334046074599514
-0.00026492988511836246 0.0564275534918218 -0.005239443658380662
0.006657925127558666 0.056145119072448006 0.0015334290388648267
-0.007722718192814815 0.031124517024314884 -0.004866357464592616
-0.007459042367571182 0.03154853275699505 -0.005085314974473518
-0.0011487048934184913 0.05621956831724299 -0.005031877032136117
-0.006032155516765059 0.03553940697146363 0.005132842116738091
-0.00735162836895166 0.03173759091242585 -0.005153135284485447
0.006293049969613689 0.056069830022899614 0.0017237800005320543
0.00632099612293713 0.056206563003383114 0.0018867945228071136
-0.005914232084656431 0.03542783102626014 0.005407905816861427
-0.005886003463750195 0.03502757575173816 0.005291935788181001
-0.005793123685000177 0.035009232470024465 0.0054491232790446886
-0.0005395270057695524 0.05657362605632901 -0.005084631136242299
-0.005525198646765538 0.03492318328142431 0.0053764065796607
0.007552500626349463 0.05505075499126298 0.002195396294923131
0.007578568454236599 0.055093333027976706 0.0020798862790204643
-0.007488326751055978 0.03211900717886687 -0.0047253016843350915
0.007665786921233073 0.05549945677308264 0.0018153835029247711
-0.0004436732945286209 0.056876465557052995 -0.005039862663146025
-0.0002310853093876121 0.0568061400683085 -0.005079242480707159
0.00761683764620954 0.0554829200343714 0.0019317253184581488
0.007689475232811392 0.0558541505342854 0.0018163306256104156
0.0075032452884934014 0.05503658027062172 0.0023774565497210022
0.0008056202381116672 0.05582245485122289 -0.00506062823750236
0.007359136017337403 0.055575831814017845 0.002654087013853803
