-0.026567867566311274 0.013058733014352184 0.010648086166712672
-0.027401107045422986 0.013140845570157364 0.01166624433882097
-0.008552000715048432 0.013631656346772658 0.03653359685654571
-0.008866858345942927 0.013628880134457337 0.03771015677549358
-0.008620695309710817 0.013636025379894886 0.03713648811264234
-0.01201709253435032 0.013656094789152445 0.035208379187221084
-0.013379648008516239 0.013575290113425 0.03491054010505471
-0.01258788895985053 0.013615864827469702 0.035669309008786745
-0.013163460746172667 0.013580999088108135 0.035610714302384446
-0.017661518113283155 0.013575137464462246 0.030873550771026513
-0.01806177872966782 0.0135728183362885 0.03186901335530945
-0.011926900523558348 0.013741522227896192 0.03787986760425679
-0.02742142479824354 0.013006308997318874 0.016279610537063123
-0.027300123748326084 0.013007264125547736 0.015198950777120463
-0.027604296248366113 0.013022283173884467 0.015406437862417358
-0.026994790534583816 0.012987943782782932 0.015600519855849027
-0.011455779347737331 0.013636295121807782 0.03408717521141499
-0.01181943485737527 0.013622061086612156 0.03410490512611173
-0.0115512865821265 0.013642812785356985 0.034338725318297667
-0.011237635113914152 0.013680953366100548 0.034946056849348255
-0.01424214134296281 0.013505988056850623 0.03089185071275184
-0.013547074821249352 0.013430347658844228 0.03038069984892246
-0.002197642612189536 0.013504422599270767 0.023475431903553706
-0.03740287758386173 0.013325904135269384 0.035155660057080776
-0.0377294936364852 0.013137645303383622 0.03406194134703715
-0.035964100953995264 0.013181220832590757 0.034494496801821525
-0.005772041279662558 0.01357677720105032 0.03020877081244158
-0.005629338398494045 0.013568762335564422 0.03221829571382315
-0.005532294464318504 0.013574786364002441 0.031249535616407177
-0.00596830000491248 0.013569696500004376 0.031129563867951314
-0.03719022157853604 0.013289264144631809 0.043925169818638074
-0.007640076728955343 0.013633964549866154 0.03344365665923907
-0.008054824844522914 0.013640868215086425 0.03294271853827143
-0.007446521848188345 0.013611387984591073 0.03141762913497987
-0.01893067976536828 0.013619647832092551 0.04160596586710069
-0.01904719953077059 0.013624102978642654 0.042092681120012444
-0.019015746802521605 0.013624600189925333 0.04205563499873005
-0.01890899719210018 0.01360688424418412 0.04085305758132051
-0.018850357827167805 0.01361379295327432 0.04111596096510618
-0.030635465232127235 0.013031840931924806 0.020814361671532
-0.007467137378846632 0.013562218192149126 0.024442973872856016
-0.007172215355543886 0.013599913160272004 0.025023909719016815
-0.01467013308339533 0.013670490461088699 0.03460871149753708
-0.014290605237631853 0.013628588298714292 0.034650646892692705
-0.014747342587967744 0.01367490781671484 0.03505762277581734
-0.014847555252632951 0.013686498062069341 0.0349879458326175
0.0010136695655260212 0.013561040060645069 0.028366374675872018
-0.02344171199542746 0.013527647961919402 0.03845181440689902
-0.023291059769840562 0.013518969995348195 0.03793242747016071
-0.02300271461971333 0.013491059113011461 0.038625883806345185
-0.04035271483345948 0.002215266672529445 0.012134935250025456
-0.040370027810479124 0.0017299961019826898 0.010464740974256672
-0.0403729909429312 0.0010852266235587555 0.011854155193381623
-0.040353537544534065 0.0020103195585400705 0.012598031378538353
-0.027006458377441173 0.013373544828063032 0.035064820988816144
-0.02791337085076885 0.013371323855926839 0.035340228367467946
-0.028107921217450545 0.013369884966474111 0.03535980502259708
-0.027796385314122183 0.013375700556150547 0.035472585007486915
0.003074299811622084 0.013624667091290236 0.01493142486168338
0.0039199159681698225 0.013666231138331255 0.015110038380766827
0.0032035193958042897 0.013630921098194675 0.015124430157536783
0.0029875877494908655 0.013620935758139555 0.014010484548485835
-0.02037107470692496 0.013173497470772979 0.006051372312141641
-0.02017314443812364 0.01315023426522184 0.0067676727719241546
-0.024981743536529166 0.013659880299434008 0.03976151897620355
-0.024966210313083693 0.013650809038524515 0.039831503887959176
-0.029956089514551268 0.012917297826915248 0.007764014736994252
-0.030418674393650647 0.012931071420355912 0.008082772114441071
-0.02937432049053671 0.012909322498594776 0.007866687084219894
-0.029640390715416326 0.012906265580157766 0.0074585394516391195
-0.029634692975469633 0.012788113393958671 0.010443373832198604
-0.029338800515276667 0.01277879057365514 0.010458882060927637
-0.014771043630596994 0.013516397327297399 0.029960816821443685
-0.015638422576288703 0.013573628565183068 0.030010138393719007
-0.024111903987340432 0.01349857722466391 0.033575413663721465
-0.02384700799449376 0.013506292292666554 0.033442762371397664
-0.023728555260393525 0.013531373914821258 0.034048470981658675
-0.024347856729313014 0.01351510142519423 0.03441284633115489
-0.024353501597573837 0.013513635873330248 0.03437567182152951
-0.02998755640358159 0.012844660409091102 0.013060159955712608
-0.009818850508926438 0.01356791630919994 0.028037874100139384
-0.00873109818062002 0.013572321451601954 0.02589437998217066
-0.00829225923875616 0.013591313132222296 0.02755283358304113
-0.008863378629711247 0.013583914101646031 0.02793276457934053
-0.008800195265468248 0.01357276255416414 0.02613621117600841
-0.04045257279551797 -0.004612170964369913 0.008178991796882086
-0.040420882971535 -0.004950107507716192 0.008373581771456149
-0.031670743610835064 0.013520191549266496 0.03442510310821134
-0.030615609302016948 0.013530382240141983 0.0336793911755351
-0.03148427197565309 0.013416004306566542 0.03366464272684249
-0.03314204292011316 0.01314508820799503 0.03332428890168583
-0.03241900271129812 0.013430461371301276 0.03446456115337559
-0.03070629491521252 0.01357662812370099 0.034022986892414855
-0.007158611059743988 0.01354006416237287 0.023512986166576853
-0.007797673528493837 0.013604868790413366 0.021826636462825368
-0.007637062259079525 0.01355447137314636 0.024124379442204046
-0.03953305130977708 0.011770669868044285 0.03256817252822954
-0.0392224092706038 0.0122107165609877 0.03209227296783483
-0.037231805166144626 0.013070394536773543 0.03199885260785293
-0.03817257532555219 0.012956192576310806 0.03192350660430564
-0.02493499020314332 0.01349382911294543 0.043159457886436006
-0.025227265314807575 0.01357121821238878 0.042461013708072745
-0.03908508747929272 0.01276965015312475 0.03571917520447991
-0.03907516197411043 0.01261006900727553 0.034447180594160375
-0.039120534252335484 0.012660425661420598 0.035475450100597744
-0.03513177802691045 0.013204911572227977 0.04300924121964056
-0.03458770798187157 0.013231951287534932 0.04099482753107439
-0.01186844306957025 0.013614008988594481 0.040787300725973065
-0.012157573288447932 0.013605297964914252 0.041318455036153945
-0.011239803964269584 0.013615546280086923 0.040007309212087346
-0.04033479776570778 0.004146610151281756 0.008547966808759343
-0.04033216747440658 0.0026921438604207955 0.00456566192025459
-0.04137815553659982 -0.009453044318551188 0.024777284576051203
-0.04137203443515373 -0.009735446320417925 0.024773290945250853
-0.0247797630226309 0.012798983411581156 0.0066187427869022954
0.0014609451396376803 0.01355567243300148 0.022496748495739766
0.0012115526505550758 0.013550022536822238 0.022860943915084128
0.001446775058454087 0.013555401785946403 0.022501624251463445
0.0012970840148320978 0.013555283912115329 0.02169235033440006
0.0010157903320744534 0.013550459391534361 0.0216170099650735
-0.031339893151474674 0.013405245948806727 0.043456824419890176
-0.03105367828233234 0.01345139475987017 0.04406369940581129
-0.031198453598077606 0.013449310185826718 0.044524796066869446
-0.04121635513157982 -0.010071336254317729 0.0242457218602707
-0.04128803153913157 -0.010071801599540567 0.02485021420954863
0.0013969212887361424 0.013496324272931862 0.010130454827370121
0.0023079535637326827 0.013416554802334215 0.011770696574755574
0.0022012075912277527 0.01334339701557127 0.010428880695736564
0.0024678562541439702 0.013322644825610101 0.010945125479381377
-0.008138286930216386 0.013571362967618648 0.026570271925459958
-0.035051596725761074 0.0131149192879883 0.036145226956166676
-0.03530140139303222 0.013139886538212346 0.03507882770742754
-0.03506323878782461 0.013124057777751507 0.03575873876163736
-0.0403035785221299 0.002402030684181581 0.006850772320260174
-0.04034583371179854 0.0022602635410210047 0.008144152677809189
-0.024563252112441872 0.013268906185236651 0.011225994292336736
-0.02464140643863616 0.013260831976698653 0.012372250121406246
-0.02446046052962423 0.013303461243336572 0.01182292751019369
-0.04116736613561941 -0.009744987388203561 0.02360470469261967
-0.04099814510391294 -0.009562441179008122 0.02305071920719258
-0.040469321072605716 -0.010529763511883119 0.022229082378571605
-0.04041555550182684 -0.010550925473025538 0.02195421254479185
-0.04031846023092279 0.00308562653349891 0.01299118016982263
-0.04031627367309917 0.003726920637691671 0.013808880141844608
-0.040295329469959666 0.0031873707768581665 0.012400847185606908
-0.04029856342559471 -0.01162106591689467 0.021357505261442825
-0.04049843215091725 -0.010922423297905116 0.02302148148319977
-0.04046865600555617 -0.010887339844814995 0.022792049110057916
-0.029944880937852462 0.013107541802679043 0.019171975432096058
-0.04116582303528954 -0.009527869399817463 0.02595236281438147
-0.04097242913530825 -0.008739175849342178 0.027824610780683275
-0.041176681330828774 -0.0095925145103114 0.02584150822036574
-0.024843659282833736 0.013318231697221766 0.02247592111652651
-0.0249283307001485 0.013329860614848029 0.02269715419073156
-0.023801730905709043 0.013522176765842157 0.022702127898798413
0.0005673384834083851 0.013547892480959327 0.010639519559195074
0.000928841806391126 0.013529423870486702 0.010293892329880969
0.00015931729101747834 0.013615028826057068 0.011601378427787844
-7.662678940861155e-05 0.013588607396124745 0.011414999627543582
-0.001401570186004225 0.01368264476913873 0.009044572751658726
-0.0016780737897455734 0.013707916998733792 0.0091148977472161
-0.0007019233480116038 0.01357983546545953 0.00968519420370539
-0.0008586333804412859 0.013623084608954564 0.009115772569280168
-0.03980990302150923 0.010989285388973244 0.03576902548115556
0.0020486609773007077 0.013508231352401043 0.027770476524942994
-0.0028091283437502155 0.013627403704858137 0.007363570559354875
-0.0025885188639929954 0.013673809832478305 0.008016861097819088
-0.00355168777090283 0.013661317036778493 0.009310278331760666
-0.004003243274610881 0.013612081754347896 0.008970746961703222
-0.0026300764196819405 0.013667674739159185 0.00795063909748747
-0.006271436994877943 0.013530332576382215 0.008311548164182203
-0.005996719981673977 0.013561201647763805 0.008308715760024413
-0.022631850599611605 0.012992736523711176 0.0006783705742682028
-0.022982025387886535 0.01297357261817839 0.0006958963976682892
-0.03197908232979843 0.013317224975101396 0.04156429331729498
-0.03116858136344593 0.013293624872734638 0.04140560244960721
-0.03148090761056854 0.013391412718708365 0.04026408254063619
-0.030897713372160636 0.013402987496618899 0.042559527236533806
-0.030828575987301203 0.013354291233431462 0.041769193979712224
-0.031403101668876145 0.013319182803840906 0.04212510708020123
-0.007262702378886053 0.013585262878257322 0.026333556251858667
-0.039462089352381574 0.011919129392167084 0.046598419271770254
-0.006148660901805725 0.013603466807489303 0.021845734323357038
-0.0334167766119747 0.01329994629143295 0.04434718575612086
-0.034088859032912575 0.01337559324086774 0.04352881339994423
-0.03384435442375717 0.013357985415005278 0.04327946673305227
-0.032411665761218705 0.013269701836490554 0.042803386841144826
-0.03314452227272313 0.013300183361870714 0.04346103359892613
-0.002976142590674865 0.01365608923195872 0.011034715630436617
-0.00411162115910693 0.01352712780781488 0.012749763573558982
-0.002930778575108847 0.013582291118267607 0.012650510193896316
-0.002872143704260186 0.013565931240449768 0.013053037140391053
-0.0024213298660515775 0.013747485827973362 0.009591176232553903
-0.003388001835379145 0.013645933697538155 0.010875525160895898
-0.0030094089722680576 0.013583362030822178 0.012555908421780384
-0.008223421562059985 0.013593029453558773 0.0092658446416248
-0.008452490970876195 0.013623196234113288 0.009093404172331301
-0.006220444603571625 0.013603833384024197 0.009990850486439107
-0.005598034289329668 0.013592531734317882 0.009909108012340174
-0.00489358123082735 0.013506259451451692 0.012529012043190714
-0.004936645581920186 0.013546145589939457 0.011056545480085465
-0.005304936388258039 0.013566377360068403 0.010657618925685518
-0.00526843158706642 0.013560113673497791 0.010858981567400781
-0.04033300095859455 0.0027855403251833616 0.00986967815199805
-0.04025202366423836 0.003918621808774993 0.009531923404766494
-0.040248510412141114 0.00394855454403518 0.010764826352015188
-0.040252510699390134 0.003914340640971748 0.009369550981512528
-0.037034537225847944 0.013246477413676346 0.04002438601239971
-0.001151803004436268 0.01351967959276456 0.011984035328065605
-0.0010672188451388745 0.013498132084139084 0.012900698887585419
-0.0013778704438107217 0.013515908598014978 0.012617217674095942
-0.007238089622059636 0.013568743539369255 0.010044966838294502
-0.007763930356387161 0.013606284801939126 0.010304470877111664
-0.007178852551057226 0.013605028294314689 0.010536691108702437
-0.03774501500050805 0.01331169984072301 0.04449750672478822
-0.04028944852577625 0.002291782794286286 0.005645806086551804
-0.040289505493755935 0.0011226830648981547 0.0029761067179583794
-0.04035956777324314 0.0009169420371437498 0.003971494235726066
-0.040316386519242506 0.0007590677444331449 0.0030656713532361286
-0.04041698850079193 -0.00035200762210381155 0.00444249773773831
-0.04025589254956803 0.0010486382246989168 0.005441881642324403
-0.0402711848324588 0.0003768600191775708 0.005745628353139622
-0.007067832897557195 0.013591840457786136 0.011390980917729256
-0.007300972386829077 0.01360898373685204 0.0108483290077829
-0.008081033859351243 0.013612990780056978 0.011348723592657296
-0.008273878050945916 0.013627521464717893 0.01088465096865033
-0.04031613750211582 0.001340499617916676 0.004451211147146027
-0.04031122520168666 0.0015271373768325947 0.00437233464949195
-0.04020645923138651 0.005846273967733853 0.011429561200679894
-0.04018190616561534 0.00636767505968967 0.011968799240141369
-0.040045763258298714 0.008040248598949962 0.011705902454662655
-0.04005927977005581 0.00826745186402836 0.013242915909275198
-0.04000741228435024 0.008446691870288936 0.01176493138997098
-0.009249104770761192 0.013655098554316658 0.01853674204206376
-0.00941897403206016 0.013773965079638299 0.01724899095101361
-0.03213924520340726 0.01298337721604416 0.010381946407134347
-0.032335399697454026 0.012893388772951618 0.00967547987341581
-0.032868410252534015 0.012802616515480921 0.00946737086161185
-0.031063145075587356 0.013444856230634862 0.04592242288844344
-0.03155190506155767 0.013387909852498754 0.0469462910663026
-0.03131236285577821 0.013413969408926783 0.046496033180638975
-0.04021542508506623 0.00684975136636172 0.010919016360065953
-0.0402313339420398 0.0063845298042381655 0.01065596042171809
-0.040220957024501534 0.005083857838342816 0.01196175210035519
-0.04020385733164211 0.005494854941462991 0.01274012667806163
-0.04021631283084184 0.005040750855045226 0.012456341204226557
-0.03540823126324791 0.012187649365128216 -0.002932914035546767
-0.02607433382520456 0.013347853167996603 0.02414774600150304
-0.02683923703631532 0.013335218015345929 0.025064160688603922
-0.027174676906747918 0.013279369421621324 0.02413682595867646
-0.004855285753860989 0.013570508523144736 0.00858288684689882
-0.004802185916695708 0.013575055122764565 0.008814670536338429
-0.037693701004513 0.012135474934189478 -0.007603976234383391
-0.008404316577878296 0.013596903372566374 0.015929700363876417
-0.008711247216084851 0.013632899117019311 0.015345516287027731
-0.008665805350684203 0.013645168431965905 0.014355151135267662
-0.00792808454908066 0.013586523986686614 0.01405372536909194
-0.016771056268517208 0.013587292282806904 0.0410290860746992
-0.016916011747651623 0.013605513872526238 0.03934537357092936
-0.016162213648208336 0.01354225468467819 0.04028372040594215
-0.016939237306576503 0.013606674399465451 0.03951218123986562
-0.03763582877552361 0.013463644397956128 0.042432727531653176
-0.009360844427633817 0.013695881695114397 0.014426594987417865
-0.008756385227596917 0.01362806405753086 0.015705587905732524
-0.023470255853687866 0.01329230525155112 0.020709044029049425
-0.023908285948740452 0.013243392045320502 0.02058754639796369
-0.023662640199798836 0.013284489631359113 0.020032512442498564
0.0007666800533288553 0.01353752614200091 0.00933777658460686
0.0002961259228073237 0.013543815457653006 0.009255886426079735
0.00044047894610107715 0.013552248519010802 0.00873030967525218
0.000231539214910754 0.01354359885414677 0.009302033846448643
-0.010565057236293859 0.013598009178068181 0.02401999688812214
-0.010400832366946253 0.013606242794777991 0.023883341252677343
-0.0023274389553531887 0.013744685332299124 0.009708690328350344
-0.0021477324227306884 0.013550533462196552 0.012890410921539072
-0.001147526965651795 0.013581476929540726 0.010588021776891656
-0.0015272416305823525 0.013626799115168852 0.010434676089528092
-0.0019160528832450527 0.013661300724161607 0.010492005557664812
-0.001925820491703774 0.013537253663491377 0.012742259139980113
-0.004575813841493127 0.013567446311231525 0.00805729555018486
-0.004694183061139293 0.013563807079889873 0.008085094293061834
-0.004977888784170475 0.013535477546920995 0.00667536209550947
-0.004814025798012119 0.013547752124009722 0.0071817796308758525
-0.04027522929177812 0.004131393660892268 0.01319870686045485
-0.04026566964830543 0.004211609447322738 0.01304387791428129
-0.04029363312929739 0.004300937467308433 0.014144698228320433
-0.01831749047773657 0.01347282670282969 0.015727400721907585
-0.01713251211568215 0.013477340379111304 0.014136699310145922
-0.018744742369479126 0.013504267155224396 0.01570740860443963
-0.0187888395761405 0.013507069607981268 0.01571328855856747
-0.017628015448482342 0.013422890342795766 0.01574529535899187
-0.01926361147237713 0.01352964511846549 0.015912953284414763
-0.04020064115959016 0.008075207682347214 -0.00532154952304012
-0.04018865134628488 0.008696536839626134 -0.006652811165251387
-0.040155233728617776 0.008052369016121252 -0.005713175151177244
-0.04006108339592114 0.00842397180776646 -0.007345167760035443
-0.04020427301481981 0.008779663033389385 -0.006665393419048831
-0.04003507475821298 0.007889094935955934 -0.006548239635404178
-0.037855249129989145 0.013472209494757198 0.03819627514659876
-0.03720748366896229 0.013445445251845496 0.03826672238654766
-0.007486245179012779 0.01358178026124435 0.015538598053721535
-0.007296427706042576 0.013580771740759888 0.015637186143943542
-0.00784654386456205 0.013574263758483349 0.014491774543635361
-0.008254120837789107 0.013591545645018225 0.015658059948090358
-0.004013905783458373 0.0136233953748247 0.009657797097582143
-0.0031397343017139407 0.013685447065184693 0.009942780477757138
-0.004511340507255608 0.013542777168906908 0.011772080115362306
-0.004616582003658631 0.013572905358515932 0.009848696956206384
-0.004495906653347908 0.013557697121404602 0.01108252912806006
-0.003788620184493047 0.013612664865103008 0.01107384292656423
-0.04016341270389252 0.010027266869117956 -0.011390390155030117
-0.03988649077021108 0.010857650657302403 -0.01010515350084186
-0.04003883574183656 0.010423163119462973 -0.009700722328401454
-0.040118195324563975 0.010190503299829661 -0.00980484684576017
-0.009157892544801156 0.013621628825121999 0.020934517923194527
-0.009165513868190228 0.013624800843351513 0.02139837262988461
-0.00882015763734761 0.013625266015560078 0.02189115788678892
-0.008541229910842206 0.013615700895917172 0.020806197096970885
-0.009660617806402566 0.013636295170604421 0.022506108012336677
-0.040534860456132554 0.008081216169097924 -0.001391978888454106
-0.04052151640073094 0.008036863526047983 -0.0015395405240480116
-0.040464514025642745 0.00747993350552552 -0.0017708265623373031
-0.04056232912383013 0.008449529407509941 -0.0013890534189109193
-0.019543342911494333 0.013259917165934141 0.009002302026964844
-0.01881507850509295 0.013478225767281207 0.007700170943758959
-0.006729390206048336 0.013537706097712945 0.009805580588485546
-0.006587147365815454 0.013543821758543441 0.009355112126342966
-0.011304813874392812 0.01346239429343414 0.02570426018557157
-0.011614555115764669 0.01344725419133598 0.02519860068587701
-0.03906782977731405 0.012785765916657373 0.04078027062329729
-0.01386255769708685 0.013548569495770863 0.03652096247838479
-0.013289491622073747 0.013573086132080085 0.036157552657018366
-0.013465012642186023 0.01356881249846893 0.03507134209231961
-0.013000388925144952 0.013583570588027024 0.03667146211413238
-0.0060596896911151174 0.013541708270555824 0.012377282325986998
-0.007024433152371487 0.013556560901380504 0.012813915733444203
-0.006302276167068983 0.013547899540418861 0.01239179856013197
-0.006553885427250795 0.01358941206059906 0.01104586907803315
-0.02410026341485276 0.012943540333213219 0.0027000772073894623
-0.024252766002866244 0.012961058543838697 0.0012635255531832958
-0.004438747423958521 0.013597941486610999 0.03125415709240753
-0.005201303674252086 0.013580787143197732 0.03131937494174479
-0.005308742216521112 0.013579271412171193 0.03117249055456396
-0.004357419288004797 0.013603336111686827 0.03062978049648893
-0.005029910872241347 0.01357976916076542 0.032148755712293677
-0.004340572166613184 0.013601041080132974 0.031091441998155056
-0.005418411589966577 0.013578197457080613 0.030940596454323233
-0.010089825268765935 0.013582963060319628 0.025373896163684764
-0.00951970005428302 0.013604531709226183 0.024400100459645607
-0.009136246303627847 0.013585586128474207 0.025040462121735704
-0.009666885679424066 0.013604303143787144 0.024444739395502645
-0.008539933131402201 0.01360130151002606 0.02359000649678121
-0.008165743148640717 0.013611998410923587 0.022121462325572966
-0.008440650786793933 0.01362034459982718 0.022032278608932688
-0.008037466475082867 0.013611188773372763 0.021940715327910344
-0.008631100949448687 0.01361725474067188 0.02261000072548832
-0.0064293780041421705 0.013631972384544604 0.025032340835974224
-0.006170507967878438 0.013616170606731074 0.02534693461720621
-0.04028402278217214 0.003089782416231281 0.005964610290684901
-0.040291287275114086 0.003659218837478435 0.0059710805942648475
-0.04046552085841845 0.004555133783124967 0.007388258446266545
-0.004719965652763395 0.013574331061042534 0.02896961590287816
-0.0037940503058423143 0.013582183499740273 0.02930901099408041
-0.004131869862469803 0.013595051967645818 0.029876527969458715
-0.005086610195202384 0.013586336005970055 0.029499364570226387
-0.004598888321727859 0.013599851004729185 0.030090253151883878
-0.03234236487469592 0.013338410818504556 0.04157899499203237
-0.03327264700037322 0.01333893767372579 0.04252488693905632
-0.03265654203548904 0.01340118296699306 0.041048653718505516
-0.03806341121385616 0.013394318201493685 0.03674873821885983
-0.035239721188420725 0.012708663215033836 0.027690223873554742
-0.0336487697210715 0.013282215009906626 0.040080701669120575
-0.03377095247981332 0.013259036583239087 0.039922839437933774
-0.03362385442776891 0.013255201080942098 0.03954584770526723
-0.03354860173929279 0.013138841359313957 0.034648976308269006
-0.03341509331835762 0.013190276318249422 0.034958676593255994
-0.03302974994829263 0.013271733605985632 0.034501571098298885
-0.023976398132327957 0.01355133430437 0.04462204038795931
-0.023529333155389888 0.013598978589927618 0.044823310358529024
-0.023969811515559998 0.013555219139937335 0.04475033588418427
-0.005902391080171366 0.0135788862384334 0.03597391708125706
-0.005518061125831174 0.013586617953271658 0.03643714808206114
-0.005973089752478546 0.013574285483802311 0.035602887215565315
-0.005629657257210022 0.013577293348874869 0.03566602800273315
-0.005496316814057473 0.013586664203518301 0.03642817973808159
-0.029992295574992864 0.01318535437730332 0.01974051014459739
-0.038391040669945205 0.013251390380907328 0.04167111368007287
-0.04018222957694547 -0.011529767500687413 0.012937019294366487
0.0020094543784521532 0.013577026688675737 0.017763762184021512
0.0032331712788853722 0.013648334499914589 0.017342715868136783
0.0030148444049546814 0.013684134519531786 0.01844209126151624
0.0030344518324137127 0.0136301016427165 0.017270647786431285
-0.021836848200073297 0.01348443721102188 0.03142183134273782
-0.022363032379912853 0.013496088351214576 0.030605830390347467
-0.02158016033262937 0.013477755565769162 0.03144705041225762
-0.003235752484191418 0.013566808322083663 0.014790619083235724
-0.004121255431053941 0.013589332796903417 0.01690669092990594
-0.0033840003920944223 0.013569469073116444 0.015201083784648552
-0.0033688107554935565 0.013580069628225389 0.014608629224632207
-0.004357186603630814 0.013625220673081804 0.01595764308347935
-0.02242513721726117 0.013514984762019755 0.03923623205704217
-0.02275186264787154 0.013475848382065031 0.03948414142345302
-0.04006962946736146 -0.01141044848684554 0.014763408237526778
-6.4881306622548835e-06 0.013556626749476375 0.01639249580393965
0.0005961887277380107 0.013581158483566912 0.01563407066566391
-0.04049216606789487 -0.010492753786055277 0.007961685143248872
-0.04044656071838558 -0.01064714752620232 0.0083557144131776
-0.040446474202364344 -0.010795427277281546 0.008278604760305919
0.0004141677760506161 0.013583048802369458 0.014940758503279928
0.00013885841089520678 0.013582290283977004 0.014169156891890328
-0.027820622477951435 0.01340534897962134 0.04374719052467193
-0.02645052409345546 0.013464379520467251 0.037254319850116555
-0.026123211614002356 0.013484545190005316 0.037372775487008764
-0.027432792466619005 0.013446806964435766 0.037915102826788026
-0.026202655741533666 0.013476602565356871 0.037271892851304916
-0.010845316081047855 0.013573383049126855 0.04010499074901007
-0.0110836483041196 0.013599049092914314 0.039331995395115914
-0.04033173751576731 -0.011583814086693872 0.00935532493493127
-0.04039556643267116 -0.011562048746111093 0.00850876868411548
-0.0403041110487621 -0.01168300572518023 0.009669920571253416
-0.032752428529358724 0.012496258811255437 0.004716304233352548
-0.030950333211381784 0.012672932880731874 0.0038130853977599902
-0.030718679590312176 0.012866707969293706 0.005244266844163359
-0.03221271622938154 0.012538398759738544 0.004600941770293134
0.0023705212802682045 0.013574970055740092 0.023362295250768612
0.003234019354139056 0.013595591095086174 0.02348102839876885
0.0025191190238042904 0.013580849875241554 0.02148117229022503
0.0031320297263403877 0.013593215200441003 0.023418306259685284
0.0030700045759067284 0.013591627450796962 0.02349668140729674
0.0032992602316510465 0.013597084053909752 0.02354305795675327
-0.04047390154095064 0.004833882773123033 0.007674722441448628
-0.04046631266400198 0.004143063340503579 0.007720118722810467
-0.0006978060422260003 0.013592759525781498 0.02780470866211686
-0.0013863747606010922 0.013549200763226962 0.02845157527645645
-0.0009645266542543773 0.0135898873997303 0.02716861454694445
-0.0017889750068419653 0.013551005288301542 0.02710258770219787
0.0023384972267988186 0.013629843354012452 0.018377548094046618
0.0027961692273222706 0.01368226380048182 0.018915884273575313
0.002575587531678078 0.013637859775202398 0.019939178836506633
0.0039040986521872633 0.013618335928216615 0.023148642757223708
0.003338538409074238 0.013683229685848801 0.020779943796747063
0.0031843420937769495 0.013652493994702721 0.02113128483201088
0.003125876443899606 0.013639524067085872 0.021291598660287993
-0.0332527415277666 0.012404657091682527 0.0038892727303066112
-0.035420231176739245 0.013384781439385497 0.04635239086220624
-0.03579374285658847 0.013417382974466426 0.04613468753362436
-0.03544292079640135 0.013385941303154758 0.04623040710824348
-0.007384469907996899 0.013631427082433182 0.033959973763402485
-0.007254086928606133 0.013613755276121773 0.03275284445263919
0.0014987508819902426 0.013533227052860003 0.024708018954465866
0.0014318721397074403 0.013553590797925657 0.02422841295339366
-0.040037777185005625 -0.011427977345359943 0.016367723291694225
-0.03996748002593453 -0.011583915912963325 0.01708066551414301
-0.040085480811648255 -0.011196937734414162 0.01609876443302482
-0.04000054654363247 -0.011408789286938423 0.017425673616775432
-0.04007633839189725 -0.011008698707156622 0.01797158631853678
-0.04031804733635726 -0.01105764864510505 0.021397465185097785
-0.0029811408795129045 0.013549936783124033 0.017095171456175798
-0.003264406078375113 0.013554298869296322 0.017635231171191902
-0.002755115775733591 0.013547975770827041 0.017285804971944752
-0.0034677098780432477 0.01355551831979696 0.017241075422469183
-0.002485815072837085 0.013542888639893506 0.016387849114299233
-0.0027167592985946868 0.013546467328388266 0.016837281047870776
-0.002983568186410891 0.013547847605195687 0.01622998304985093
-0.003933176103711448 0.013619790893545411 0.014090052551230223
-0.007894949445072161 0.01360989288493738 0.038029949889744195
-0.007228137819419057 0.013577740846924355 0.0383798586945292
-0.007362938665657138 0.013579888336896842 0.03887309326156521
-0.007642986309538222 0.01358683602886097 0.03957560773737713
0.00087178425737288 0.01357402214906252 0.016289260670601234
0.0013744452551099691 0.013560859537330109 0.0174773056843572
0.00022650157836854847 0.013544873672146858 0.0172735690977551
-0.003811680664442536 0.013533458972124435 0.024632753630393737
-0.0034289715331270636 0.013567542140750549 0.025197776360702407
-0.040251259688419055 -0.010628789215307579 0.01988766211056456
-0.0402507504663798 -0.010973903218042225 0.020326226912659496
-0.02045158975282494 0.013173051857744537 -0.0015080969794918416
-0.020407411502293697 0.013171698029783453 -0.001632059422187495
-0.02058701756415985 0.013126890799043571 -0.0018989726950783183
-0.021584019159364146 0.013050155966016323 -0.0007453131154865204
-0.04022077840773303 -0.010095091882583476 0.019044622730081142
-0.040199254506637694 0.003270149947669612 0.03643907728405414
-0.04013544657465415 0.003966301447904949 0.03596141689792127
-0.040206094389487086 0.002986396978937032 0.03473866418887599
-0.04020715037253126 0.003132101626946532 0.03606345306919117
-0.04016792262363586 0.0035763755668820844 0.035906280087927095
-0.04004510513207479 0.004666647678250348 0.03580885664359093
-0.040007745741352525 0.004796631099676896 0.036015648641507816
-0.04008888809091463 0.0042656049449220105 0.036118435984082424
-0.04010570450144819 0.0038193984352222973 0.03778207324025994
-0.04012706648627274 0.004031848811429792 0.03892783061258049
-0.04019762778396506 0.0032539241971378165 0.037554348597658264
-0.04000303423380416 0.004339980816617627 0.037649472017851605
-0.040117792457145085 0.003940430034835521 0.03843325175669585
-0.008091747234505578 0.013590810383134163 0.029641818649581327
-0.008812391995182967 0.013561813378191031 0.030329434653096055
-0.008362848798848053 0.013579381116059566 0.030014643222060274
-0.005398210230990189 0.013578506971041446 0.02415518204537616
-0.004114532227373887 0.01352204063789192 0.013124222480830415
-0.0030592731936700457 0.013558049960498583 0.013854403508280964
-0.001088404235437762 0.013564257418004648 0.01948695236897427
-0.0022505170075510623 0.013656891822318355 0.019773708157975023
-0.0009797056541069281 0.013546814750863008 0.019240421760880283
-0.0019412557671072738 0.013588406686900147 0.018600282136543984
-0.0017740241789070382 0.013615330837759171 0.01956655803551848
-0.016852385407105527 0.013492340382697962 0.02398247354246178
0.0009011395268236538 0.0135944659881638 0.027569354834217418
0.0012821014602514154 0.013569870115494563 0.027621577635203634
-0.001580076597746542 0.013467502864942863 0.025599997465528275
-0.015898984897853713 0.01354468680200987 0.03890746752803098
-0.01555108999973285 0.013517433570778678 0.03934096119747346
-0.015545750155278601 0.01349594470236427 0.04026033354397103
-0.015233272026766283 0.013527120539349567 0.038238891734669773
0.0007641126570040667 0.013546628580324776 0.01921390699274838
-6.179080722769525e-05 0.013537752056290576 0.017985209919796488
0.0014017308701378083 0.01355604596027604 0.01819042792785568
0.00042043859042653435 0.01354197882561138 0.019437828885732686
-0.001885690555754805 0.013541617047218749 0.0160178627376805
-0.0019128594128669588 0.013541153530810817 0.01602749664193038
-0.0019864410959238576 0.013543773527706483 0.014975354708573042
-0.00186886148154135 0.01354543610619894 0.015029204987529583
-0.015126101779431172 0.013705182720799408 0.03390826394890084
-0.014627157289334216 0.01359249927256552 0.03253246912386048
-0.014103154444724368 0.013603266067183458 0.03428350242328513
-0.01509127387666784 0.013667381926805047 0.0330712270311648
-0.023318779961162855 0.013336409080082288 0.019028780614211364
-0.023085301316498687 0.013369154069099255 0.018344473949735606
-0.02422093503808837 0.013207400712899416 0.020480218316742595
-0.003850813405869804 0.013619409934672025 0.01927535892413321
-0.004230396923499162 0.013657278756052726 0.020660181531583808
-0.004081365902404222 0.013670529533127283 0.020892444050596256
-0.004337995903359989 0.013617035899287266 0.019645953879378737
-0.003243654939788087 0.01365779618929686 0.019791162996272222
-0.03951337130510708 0.011469776327641526 -0.013142338998743584
-0.03964425179846601 0.011416488305402022 -0.011602574461730448
-0.03955620326437823 0.01145122328682601 -0.012707986448160766
-0.038994873434499915 0.011790907074731705 -0.012373088817573421
-0.013285606341066796 0.01362683425760835 0.03852845784904099
-0.013306127591641794 0.013623594270907733 0.038474410434892914
-0.013993394746421606 0.013583560919740126 0.03840695234645161
0.0007642332910474865 0.013600430174634772 0.026890586465081693
0.0002882506936491638 0.013629433034950941 0.026661268546432016
0.0014336934148936446 0.013542067407348231 0.025294021823119173
0.0010903411243733444 0.01357586690341956 0.026535161535176315
0.0006083696772023427 0.013607311587882044 0.026529799519988177
0.0006004567682341684 0.013605874000248876 0.026316311838738612
-0.025162469419020228 0.013365254547670534 0.032154314392766115
-0.025681874939523744 0.01331525968671781 0.03198499072120159
-0.025631574821731628 0.013275776989663084 0.031366474475887314
0.00046872332923989966 0.013565924463657687 0.028552865753101918
9.082308905857266e-05 0.013541533102712385 0.02906262338985461
3.358305739251661e-05 0.013616918379138181 0.027612337034440666
-0.00044457404167083306 0.01354747207363655 0.02900261696912469
-0.010609311925185884 0.013636631238044082 0.03067693438321944
-0.010745136803470617 0.013631750267356035 0.031578098817278896
-0.010888831314424292 0.013645506202479712 0.031269241742234194
-0.029090187910050618 0.013485461891858128 0.048790586466687026
-0.028992325517622854 0.013708656264140272 0.04779719387671304
-0.0030310795556650087 0.013622290192407394 0.01900603849712617
-0.0027753559001590343 0.013634317193394412 0.019242678742829845
-0.002359341971101693 0.013606538702869089 0.01881341136730475
-0.0021669922037810593 0.013602044144415348 0.018758525439896034
-0.04020930520790712 0.0014928407812784578 0.03632072613618909
-0.0402394472402738 0.0026255437602721427 0.035626586776765834
-0.040222994863626904 0.002152412222899746 0.03643824552623945
-0.04021763597557119 0.0016979026159398647 0.0358068243930762
-0.04021897142284207 0.001980906958998564 0.03647033971012455
-0.04023868570093152 0.0023222866854135174 0.034825148986044704
-0.00501829709484467 0.013722011194263759 0.016624759177623814
-0.004653340366419794 0.013666570724210347 0.015510134092083148
-0.0016755192725818378 0.013534225355445507 0.014109308843476448
-0.0007939254043799475 0.013538753839165446 0.014579998052922713
-0.0017702264065232317 0.013516369453702999 0.01348166277266567
-0.03729962724646212 0.013235738139989173 0.040844823418071066
-0.028107226015279256 0.013102879577033853 0.012467955195136448
-0.028969601560216027 0.012989776419632617 0.0129914197895619
-0.028930706153851862 0.012990688782459734 0.013435164289030084
-0.001059697104264637 0.013551963361799172 0.0162251326034987
-0.0004871866045726403 0.013547989495854682 0.016471045889417082
-0.015516592941852543 0.013563877477788987 0.030296083300367704
-0.01592402875445685 0.013594713148754404 0.03047495737174817
-0.03712951653517381 0.013650638321600024 0.04933894063503021
-0.03690640487354209 0.013513479903122627 0.04660749214952183
-0.03782599801752968 0.013474255514500901 0.04690675459009236
-0.036692094408364684 0.013508403274794878 0.04628001634938316
-0.04013572022189183 0.010012907521277661 -0.015514375232830958
-0.0399299440779476 0.010685443871601188 -0.015402249122421274
-0.0399990157222822 0.010960361132732504 -0.017406559806403002
-0.00039088663740756684 0.013538863914426463 0.013795199607056592
-0.0005387978858313904 0.01356379416365754 0.014825496314397774
-0.015539481518605134 0.013587442526250618 0.03203251798893629
-0.016197262623129007 0.013577712833795684 0.03176207051572419
-0.01587442517244165 0.013587250409853114 0.03138055988573317
-0.01580941066833948 0.01359319248590948 0.030869489935493388
-0.040409943801718 -0.007918904273106155 0.01119919946581373
-0.0404123512650348 -0.007514654216491629 0.011172636065004127
-0.02273015324717302 0.013474747666112105 0.036886055621199315
-0.023056351404811215 0.013495617675544162 0.03610076690634947
-0.02259529301488168 0.013464705981332046 0.03684261950327051
-0.022856549316343407 0.013480830805231275 0.036059952732984416
-0.03873373436539996 0.013039722540135492 0.042385702694384984
-0.04034667748261181 -0.008196855500746853 0.012576661199360295
0.00044042421883912734 0.013536070762406592 0.024531509577510588
-4.863509525385027e-05 0.013590459597955315 0.026105896244957336
-0.00012348356940928824 0.013560910015276567 0.025550288833767344
-0.008308626521481977 0.01361325864411602 0.04019431333154937
-0.008976562549495299 0.013641154835616866 0.04080698007982365
-0.008475103799395655 0.013616941828888566 0.040959515474480214
-0.02969765949120055 0.013522066548970141 0.043875296523864626
-0.030807581015082044 0.01346430561239557 0.04401724401117209
-0.006438337965335068 0.013577207725726952 0.03281191269778607
-0.006266399578537791 0.013591813755316885 0.03380900586657229
-0.006113593832405215 0.01358312775406185 0.03362239363562366
-0.006411698677392641 0.013601185952111659 0.02429024152794535
-0.006226835465173893 0.01359261011863388 0.02386837974711547
-0.04036996161854731 -0.008073926944684158 0.01181459906327775
-0.011524965724466922 0.013665060019035738 0.038447644203739466
-0.011768100808504465 0.013676426145930093 0.03927266871247662
-0.038528392400650424 0.013144539943846907 0.04324897272070147
-0.03863543278793638 0.01309145580754456 0.042904599908780774
-0.04051313005999016 -0.00550797247309761 0.01167105664900745
-0.040525961908280415 -0.006021983590994353 0.012396510081282622
-0.011687887651006628 0.013611271672718868 0.02948525151928892
-0.011028227745769732 0.013641183216416886 0.030083790414037852
-0.02130045773962215 0.0135885985146586 0.042784798132078576
-0.022478139043470166 0.013600634981810867 0.04305085716830344
-0.022386736530059508 0.013622156457861941 0.04417506015653664
-0.020906719585225924 0.013590324323811572 0.042988996994219715
-0.02151334433786254 0.013598008593447238 0.04320171672370941
-0.015620908620400074 0.013713750338777673 0.03660337038242033
-0.015538763003380885 0.013574419703792638 0.0377253761336187
-0.015099552911220351 0.013609656691264271 0.03707851499587381
-0.011705043874502385 0.0135982294836147 0.032354767533811016
-0.011568562493626887 0.013598798892514436 0.0331959438320988
-0.012937194239271635 0.013576355142451858 0.03326121903468478
-0.011588061397067119 0.013599222039356677 0.032819486455491875
-0.03894600165828847 0.012525683376018172 0.03136582245979668
-0.036827670941197 0.013408846834512544 0.036687192297150034
-0.036592642376769284 0.013407381065058146 0.03756524241190137
-0.03703654499515685 0.013450758355751519 0.03676627590970913
-0.012780175838769121 0.013641630858429392 0.04029046929965985
-0.01195886876579342 0.013661386760668633 0.03985582855083272
-0.012489233800793833 0.013634901569275269 0.04082099659905747
-0.022153012253375678 0.01347980210484645 0.0326425939556989
-0.02170074356999747 0.013435435943179997 0.03349381146138897
-0.02183122566213106 0.013419899138613703 0.034278543035684804
-0.020887229676752193 0.01345896718350781 0.03126772520437496
-0.02179816393771387 0.013410872238007413 0.0345510601714407
-0.008125328847618601 0.01362565504934703 0.033590067615785896
-0.008784541139161661 0.013623474692538823 0.03315246163672861
-0.007549378831185795 0.013631208140669041 0.03391079753330274
-0.006781751147568247 0.013549533643231033 0.022779634700419944
-0.006924425525861749 0.013601545843005025 0.021386233128995843
-0.016233565478370595 0.013703802686854068 0.03711043159737684
-0.017181422894951386 0.013635386057912743 0.036894638363562625
-0.01652959024170566 0.013709013293101906 0.03645607223368692
-0.016460280878679432 0.013663534005157043 0.03758673873941709
-0.01049503023287679 0.013554032520564648 0.03991604332118994
-0.010165797866716642 0.013576443114335694 0.04001768762276761
-0.010499087087059713 0.013558527510911241 0.040296809864568996
-0.010344267246809235 0.013535814032675189 0.037682165705411524
-0.0032802781674668847 0.013700113966248763 0.021028578192382904
-0.002791169381558363 0.013709861769914015 0.02085496091347381
-0.003283290744111429 0.013712948257910786 0.021434102617633254
-1.8638521548665827e-05 0.013636893035462056 0.027027394560528908
-0.0013169701895077383 0.013568126378266994 0.026471759829133933
-0.04038517046735355 -0.008591771315978096 0.011571072717322816
-0.004938534020987564 0.013639864994863702 0.020898058737722307
-0.0057619937066886555 0.013565417365214763 0.019788510448136648
-0.04029227002166284 0.0032953449697608584 0.011308038839426705
-0.04028936765940513 0.0033177181991858465 0.01151394088653268
-0.04035575259796256 0.002365753839223794 0.010631197694307117
-0.04033701416247537 0.002519161807481823 0.011882666707718505
-0.0021179063651580207 0.013601355154369745 0.021786524572441505
-0.0024055263791990435 0.013617669565536143 0.02266903765358373
-0.0027175604733270576 0.013688481626507222 0.021958045658093263
-0.03112876057551869 0.013373341669276253 0.039742002687150446
-0.030630935494647748 0.01333537591137526 0.039947440240059084
0.0014755654600391403 0.01355999353809423 0.020013398047899904
0.0014873507077690262 0.013557735642669969 0.01856846614224332
0.0018964708752896528 0.01356646548179094 0.019632717616030054
0.0008719854550877677 0.013549193218352039 0.019665765079565283
0.001385092377842648 0.013558942496669016 0.0202952112344964
-0.00931191137563918 0.013593467880897124 0.03341289530598284
-0.00952157724340061 0.013569064419321724 0.03372410282401066
-0.00922305522361171 0.01355838207354814 0.03394425766814334
-0.009669960105742791 0.01357019249341525 0.030217027680760684
-0.010562246846270162 0.013621226509536075 0.029883662645598982
-0.010097852761307174 0.013603745234192343 0.030533781914404246
-0.038310165423941125 0.013045620210188211 0.029524743804925195
-0.00975160407899201 0.013571224532641707 0.031430212336717396
-0.009759046118827957 0.013597273309433718 0.031957908159321195
-0.009248185363892616 0.013596197396612985 0.031652802200206914
-0.0027380913443170885 0.013571495593211209 0.026032606801016527
-0.0024881422288000063 0.013569256165409762 0.02605017745215842
-0.04037329049048482 -0.004699794993358244 0.010853758493342507
-0.002573829846395147 0.013550512136866266 0.027052899153333126
-0.0018856216155942514 0.013540872939415822 0.028048657806554664
-0.0018556337169032006 0.013544502213615854 0.027662166670133208
-0.0017655431456471398 0.013534465650526899 0.02872405933935271
-0.036809449823569526 0.013449952673254665 0.04231607253755854
-0.036878410971398205 0.013301751381701248 0.04131704382704326
-0.030728616811958452 0.01296007828092053 0.03149661476506253
-0.030565246620276418 0.01324287859203108 0.03233045418965349
-0.0004904951746100366 0.013519181311102135 0.02152870926848918
-0.0006724638005370656 0.01350541735133735 0.023327235246847117
-0.0002077601428662802 0.01352008449713104 0.022634326699139617
-0.00034768666730645894 0.013513330741077717 0.023288019909006898
-0.0007687627111183997 0.013502884006846598 0.02337446253394566
0.0004630514330182349 0.013534733003290982 0.02287630546510523
0.0006754194435167571 0.013538730320976224 0.023074804535675158
-0.038646778801949166 0.012715669704417143 0.03377132031487946
-0.009875389312429985 0.013538021831084246 0.03651669785785211
-0.009382072066336995 0.013560264932501514 0.03608623503916536
-0.009501038938060372 0.013569097117603818 0.03663622930674047
0.0032653937026091034 0.013338496114031817 0.010886506058345975
0.0033914449773973857 0.013595135638031547 0.012393949118680223
0.0028868808846621934 0.013437414589070478 0.01181545915517005
0.0029464997734896534 0.01333492399902162 0.011123876707790113
-0.005004312343981418 0.013582299118976682 0.023621243697470182
-0.00490393028427401 0.013574662335121493 0.023718080443980553
-0.004996241586931804 0.013596781260519736 0.023208808776041836
-0.016670120784643867 0.013508439258440776 0.029291050683725606
-0.04038035475077427 -0.008508057739369319 0.010490320899541487
-0.04036923824475669 -0.008814560083095831 0.011637080298771267
-0.038358107706512226 0.01332999318739649 0.03710495777225446
-0.010456740726285848 0.013430775160916276 0.005793695165444704
-0.011643872098774845 0.013441468917101356 0.0032634163109779507
-0.0104403633855868 0.013428167522645902 0.00557007055224527
-0.011136981811754196 0.0134394914967469 0.004615856821017618
-0.019485827521081574 0.013464964723192892 0.0249160691047518
-0.019518383608334758 0.013454302838043799 0.023386830012148543
-0.01965020944727214 0.013455445738706502 0.02477305356579583
-0.019676847572845088 0.01345819298128478 0.025483486700293226
-0.03828440560632447 0.012681424590320945 0.02006856708980177
-0.03847982063640235 0.012737718914879346 0.02075097235642357
-0.031722311012632204 0.013069984171952188 0.02976193994217332
-0.03206462070141032 0.012905941005503452 0.03114645393205893
-0.03131890906506099 0.013159104204061366 0.029353375559994253
-0.040359797857107 0.0032973317834212876 0.006991948689488554
-0.04036679693551903 0.0036141723697711804 0.006898151480784683
-0.023367848527180993 0.013237344299348522 0.012328067219730716
-0.024106346940023136 0.013286097265697546 0.012480757239581228
-0.03404922167659025 0.01245825579917939 0.0054512017471358915
-0.033444039743475464 0.012530232942449242 0.005763715125534066
-0.03134670752249849 0.013238017414690552 0.03260093452881081
-0.031146294657161375 0.01320874837836372 0.03232219188764595
-0.030769929797532704 0.013312651721911919 0.032600243585193124
-0.030789971955271823 0.013332072486733331 0.03271133216677983
-0.03219847937468905 0.013010518334154036 0.03201025707999502
-0.035312017041130836 0.01250876298989323 0.01506015587954201
-0.03534840693126809 0.012565266979839803 0.015567389153625695
-0.03543809783420645 0.012490743498405996 0.015191267275713223
-0.040261218007751114 -0.011476519048336435 0.011465065430593412
-0.040354324422923735 -0.010918201066129474 0.010377172263658165
-0.04026025375654546 0.0010205094185830803 0.005654446554568815
-0.04029841798779932 0.0007921308447420258 0.006152242575120939
-0.04021488771772681 0.004804768013190302 0.02023142574548597
