0.013279503071505492 0.03458419232862755 -0.009374484223969144
0.024505758001985564 0.013353895590240488 -0.04988683421013998
0.016254907122567035 0.02635638259979592 -0.04632962223860157
0.014890523300303923 0.025923084149315583 -0.04722191355462327
0.01492120541998545 0.02617991850070175 -0.047001549696189644
0.015173803623419519 0.026191038670425524 -0.04689236728504875
0.015608260672128279 0.02607730505343178 -0.04681227837931111
0.032244355851962 0.017986708331324534 -0.035076707196816624
0.03173336194119444 0.018203757811371797 -0.03592721510253925
0.010603122163943685 0.03286779337921612 -0.04062834270113523
0.010447365862420347 0.032829948766572005 -0.04072300141286362
0.022131269875540698 0.025082782804397467 -0.0017373511786662862
0.02231433543792111 0.02498887716859052 -0.001775564475943243
0.02178771439846508 0.024784884176340793 -0.0009809847799710342
0.03461859403197482 0.00267344158104909 -0.03654274133852255
0.012922496369553501 0.02629999462392376 -0.04749743933367411
0.012870973821347836 0.026060590242786223 -0.04771767117633925
0.012746418513485808 0.025587550162451293 -0.04815633550688418
0.03429246319912023 0.003229727846725145 -0.016062091785224816
0.034258398997377155 0.0029625170456301564 -0.01594733255391095
0.029227167105375828 0.013506531210247126 -0.006220248367576249
0.029486655970206846 0.014026881534451753 -0.006781778053076789
0.02914946412994696 0.013476176614575872 -0.0060529617008189965
0.029401529201530347 0.013981363629409061 -0.0065984245205277375
0.026703189715957316 0.027119494991483528 -0.011320913615853538
0.027117589249295613 0.026470196907305184 -0.0109809410128323
0.02664799978843486 0.026625509295562837 -0.010367873982266868
0.026918534869455807 0.02647165401854433 -0.010610345333854864
0.026584377525713493 0.027454410543076405 -0.011674228118628704
0.02405465734087964 0.024019338121815392 -0.0016952598806667203
0.033427094596981524 -0.013669310613140766 -0.014071838678195668
0.03345125105900839 -0.013903492188041149 -0.01431596327882609
0.03335018193474271 -0.013793986927626734 -0.013971280756389075
-0.0012228812223273847 0.021792172149759297 0.011076018674587584
0.031067948245133283 0.012196428648717407 -0.010343492739662698
0.030869457352834348 0.012826123812138301 -0.01027371530945812
0.02307150580627062 0.023092558461106756 -0.04525541602776209
0.02308148048552375 0.022259512736220635 -0.04627231639127018
0.02307121954586556 0.023080922629667117 -0.04527018537215127
0.023364629152783326 0.022566110188494956 -0.04551696159406104
0.008929011884302385 0.03064934745487256 -0.0019946070269118536
0.02543094899073394 0.010597424604686802 0.0017399850077901631
0.02527900856710323 0.011339298321966378 0.002047291943004636
-0.001113027509527981 0.022072173939654938 0.010711302070892369
0.024637788645951994 -0.0048336997030682255 0.004849446568329675
0.024600939058255184 -0.005096480599941762 0.0050835153072992766
0.0220648107715471 0.01793913263934528 -0.049957505095387114
0.018201072853427334 0.020939948229463826 -0.050626809034941406
0.018408138234217615 0.021735578098378033 -0.04982860387224262
0.01893241027861217 0.02153652538744308 -0.04989684603017079
0.017718348215423962 0.021305946826833684 -0.050391514370494855
0.022666942895844037 0.015546128185574147 -0.05040971722314149
0.024483228065186873 -0.005165125893371324 0.005449265494361369
0.024531457582355996 -0.00573000737090705 0.005330521620330639
0.008344626146035808 0.027586870394300758 0.0019387105121479518
0.007992637402778556 0.028041868862319887 0.0014865073885601233
0.008944027300583728 0.027539701090379967 0.0018167207169389086
0.00857596372268142 0.027546520468726278 0.0019187771273659103
-0.003127329457134025 0.026450745841620483 0.005130594522704698
-0.0032288196212970494 0.026412686961073115 0.005173696361905823
0.026072676372444356 0.008382950078027505 -0.0494266244002298
0.027508323162730504 0.027117807717003905 -0.012618613810474268
0.027564191007044422 0.027190293469352263 -0.01290087662659707
0.026917554271804967 0.027493734082754302 -0.012260667798251114
0.03535255770491145 0.010053302188779638 -0.022703019246303125
0.03535808221151282 0.010348308316681508 -0.02299051587354347
0.0005238972442050099 0.03359924604127292 -0.003694851682646019
0.00012116190727755747 0.03319908179748832 -0.0033070541986444145
0.009588710317324155 0.025855101472717065 0.003601906022085802
0.00996760102436958 0.0253530522887645 0.004063045947846629
0.009033838068541689 0.025513052315475248 0.004109419809648044
0.0096185883289806 0.025892098615150107 0.0035541787595573773
0.011704147858927096 0.022036497908509325 -0.051398802447494306
0.011653607930811074 0.022038345481328055 -0.051415123434482964
0.015119276500372293 0.027625615264170837 -0.0001767301168849763
0.014344600230222092 0.028117098753053682 -0.00048081590563707835
0.0020280329910735266 0.026070415007004726 0.004938001162246892
0.0024168971946419487 0.025932953530153215 0.005001254414125291
0.001889016647413434 0.026660022575566936 0.0043213612707534476
0.002795149819577163 0.025967231104477975 0.004878145718009223
0.001455292062047537 0.026681420553555775 0.004395806047099937
0.02129713990391506 0.024875767338822352 -0.000663818543619701
0.020669424724568994 0.024906055219752022 -0.00014688553964941446
0.02088295753559355 0.025316023421931483 -0.0009107162841591784
0.022119478044411812 0.027030211936985894 -0.004164280146156468
0.022394723985480855 0.02694017148674461 -0.004346884849108697
0.022513919209915502 0.02714974517827225 -0.004769341698066956
0.01136834272465828 0.019870070074522257 0.01061903973282396
0.010819190060057578 0.020166639687300154 0.010423944543920677
0.01158294417668012 0.019823820249457426 0.0105677739257648
0.002827909659100556 0.03237646088267607 -0.0029010985909494677
0.0028734943710886428 0.032301285772504476 -0.0028253499422840594
0.005583651705053439 0.016276968805492373 0.01863414387372614
0.005912173554906619 0.016685515218128163 0.01802614405907101
0.023912021676245662 0.027724326493473967 -0.00685031658498567
0.023672169460735148 0.02824164010879985 -0.0074232191273174335
0.022964596196417997 -0.009321619660285435 0.010332335480545515
0.02286421194623671 -0.009718752363499582 0.01040128754904944
0.025492547500273747 0.028150359800093828 -0.010989164585434578
0.02570275398775676 0.028345682613340223 -0.011951342360336202
0.025239790656585298 0.02846216936063136 -0.011330331236070766
0.02696741746465013 0.016695902192974302 -0.045437692742954436
0.02683134549566983 0.01719768397328164 -0.04549939424116498
0.02922349074628374 0.02098114511589655 -0.03906659591741381
0.03171873669653684 -0.019795324726442784 -0.01671307148524468
0.03169566662191456 -0.019706849069304186 -0.016170059515090672
0.03205506224213475 -0.01940662706610332 -0.016913849804625625
0.030381793407783082 0.016997792027591545 -0.03999382284276376
0.03282068070407228 0.01547517093052887 -0.035731012414759566
0.023657582537310734 0.01214867786459245 -0.05065351237381512
0.02041411026556946 0.025558076245836454 -0.0008476455495417335
0.020296608642312912 0.025568591343085874 -0.0007598499482718169
0.019788734346823884 0.025951603800510502 -0.0008659801521277694
0.022710148224439577 0.02059691772462211 -0.04807960102187519
0.022651463381032563 0.02053481242458571 -0.04816185213289079
0.035903901548039234 0.001896997883965604 -0.021364733381329905
0.01964726764543455 0.03346410956431737 -0.02782094046308089
0.019624198980905797 0.033478775377733 -0.0278512913313338
0.021582818386814757 0.026280199442437494 -0.0026719159909896367
0.020762597085184686 0.02687108887938878 -0.0024231847654637333
0.028011707102519615 0.019409506797199955 -0.005366600389386186
0.024231651703555967 0.027610630910083964 -0.00724416685870227
0.024142031131696388 0.028044991653245595 -0.008119730647187774
0.024274415063577463 0.027800345384150688 -0.007871860081150414
0.0034556661147839727 0.01787416570302081 0.016279927856004763
0.003207238110646026 0.018350557714354013 0.015495566658432453
0.0028863678578087866 0.017984000743806704 0.016169058505278687
0.003662874165256306 0.018244073512500795 0.01561621259351387
0.003627732070934871 0.018490999557963607 0.01519686416091507
0.0208331858665963 0.03068799737761877 -0.007977054731273189
0.01309072354871319 0.033719522745146766 -0.008174624575806661
0.012754597779170908 0.03388141062770412 -0.008419754901808319
0.023419390322889262 0.02032696739059865 -0.04759142689583751
0.025626191927963435 0.027707557320599006 -0.010411587849543647
0.02568342317501973 0.027800430586612204 -0.010676047822124859
0.025739914974108186 0.027525606448686728 -0.010285826440419457
0.007331935931957832 0.038743735389884786 -0.025250180330741542
0.007890527881886971 0.038652606853957716 -0.025414299134583845
0.006831146518687615 0.038881961227497736 -0.024627759683867226
0.006646183456063967 0.03868634651931735 -0.02647187066979703
0.007113779104316887 0.03869316228710419 -0.02591055004197539
0.007122828538149823 0.03873369443274884 -0.02555999861914756
0.008168038071380033 0.03860982364575363 -0.025474900052863795
0.007751801059813485 0.038603257418914884 -0.025978763947216495
0.0072097398789295435 0.03874883083044127 -0.025339050485944377
0.022944360246910857 0.028563325752311554 -0.006714287087627713
0.022583262180734462 0.028811661146602344 -0.006540272734215798
0.01103976501026914 0.03247827151536245 -0.004703860056750308
0.011814543852386608 0.03204469042106023 -0.004383143696361847
0.011843245305351323 0.031898961535967205 -0.004186338423505585
0.036169500834146974 0.002836881472958677 -0.024527922373154654
0.03613988523814436 0.0031466857004812643 -0.02475793242360792
0.03616768803331145 0.002764769534507271 -0.024226476413725752
0.01036119251749248 0.01976228491989323 0.011365214785017381
0.009890865180423706 0.020044576449603252 0.010968169892390515
0.01825939718348097 0.03494940976825636 -0.013209339655909424
0.01812537614966205 0.035074055537195316 -0.01321136355986742
0.018296898044957703 0.0348969336078471 -0.013484634184485691
0.028216657220962085 -0.006172576676571169 -0.00223509943282569
0.028445457246294603 -0.006872864421744226 -0.0025790797119004723
0.0285482322810621 -0.0068336880061489 -0.002738113622102533
0.023458321221834603 0.028474093272163253 -0.007443564219308911
0.02358406222415849 0.0284266849156253 -0.007597279848172033
0.027063325086445985 0.007187680884877816 -0.048399335989128676
0.012963987149961326 0.0335673125420682 -0.007862261170815427
0.012107209468178854 0.03378517044315676 -0.00790415693112905
0.012987722499029717 0.03343822568295583 -0.007580317824533556
0.012953249484507084 0.03365379293152052 -0.008053889653177018
0.02293987516810838 0.029109020341108148 -0.007636653638201379
0.028164274928076573 0.022987729920417817 -0.00798784711136142
0.027951821345267407 0.02287592546688661 -0.006882004005619602
0.028051997347262853 0.02336841281017263 -0.00825904796811342
0.025624869149070004 0.02764824837006199 -0.010305130266105487
0.024964042343858305 0.027443745606686297 -0.008897984459691772
0.025214425463512782 0.0274808945562909 -0.009363554946636585
0.03326427050962904 0.00753718469402921 -0.014670790937157265
0.03326627733086405 0.006429901249195541 -0.014453666021971285
0.033293822607875084 0.007242065851545687 -0.01468477589959304
0.033401811670089314 0.006427374390785565 -0.014788777451024963
0.018197183947531274 0.02420796223905528 0.0022392171333734216
0.01749447001765313 0.024696748296971015 0.0020786381329787377
0.0024274749275581256 0.030342464156748447 -0.00012506318607285425
0.002449037323958333 0.030118226331304218 0.0001810803359483295
0.03423577181169468 0.008512435389200377 -0.01727787779373622
0.03412909732485494 0.00844164325017219 -0.016888426871770026
0.029528261849933096 0.024939159626088017 -0.032182050847785984
0.030006909600376327 0.024437008754830746 -0.03214148312574657
0.01173885975350358 0.03208276424870961 -0.04143254246102701
0.011735466110868755 0.031600210165797366 -0.04240150327578226
0.011311840427368824 0.03210630685417151 -0.04150483446991896
0.012173315386831397 0.03218115537984315 -0.041113568132807476
0.0091024950318459 0.031513995296195633 -0.04264549921522726
0.009136675700978116 0.03194515770364325 -0.042039161569179966
0.009515436726766652 0.03156563203853911 -0.04249626634440505
0.018892603759675747 0.025952859294452076 -0.00016754994854849872
0.019187769317460888 0.025615051154825253 6.805082589735775e-05
0.019151305822007577 0.025758882113895123 -0.00010034059386212308
0.0326290522378768 0.005026926807399312 -0.012576330540925844
0.032773384698597995 0.005596314962087531 -0.013055847565931093
0.03230409347515269 0.0043986939270195665 -0.01167152731699941
0.032474999150508915 0.004069979202790672 -0.011971136695588167
0.03279622211677855 0.0058480294718066 -0.013174939326194686
0.03263151803261509 0.005245206071168628 -0.012640291001464684
0.02731897923596321 0.020278547598986483 -0.042558551493797565
0.005005851623219764 0.028859148624751474 0.0012331210794598504
0.006810974112581907 0.03781135541275137 -0.03075078182964579
0.006364800233747146 0.03773557104551944 -0.03114719864234359
0.00672122128590625 0.037458031571166575 -0.03172434649127959
0.007697475985141807 0.020247305740098073 0.0112977681828919
0.007758782389934286 0.020098423841326873 0.011603781542808032
0.022226916741491545 0.029464330656898866 -0.0073126914549796855
0.02279439123134676 0.02932290104755969 -0.007946456211284087
-0.0011396528521530518 0.026026645862439423 0.005440437980166496
-0.0010198078655226143 0.026110494213201454 0.005334092343600156
-0.0013702504050817116 0.0259217358337864 0.005582825241204874
0.016059002368811297 0.035136481849256426 -0.03068343291963621
0.015133191252110054 0.03531063390667816 -0.03110073816858005
0.016126178494738505 0.0351773402894302 -0.030119421130107023
0.01576482703465756 0.035189172517540626 -0.030842430353465736
0.015298944755523592 0.03524810947186627 -0.03133876290664547
0.03468630275017112 0.014846230234949053 -0.025635095323910263
0.034687876879340475 0.01521186014288509 -0.025526933904557358
0.02380945874284386 0.028804933601334556 -0.008691416023768557
0.023777544114940905 0.028523249597650548 -0.00812622641037796
0.014136900128279421 0.03533374476875484 -0.03406846501814993
0.014124935778784084 0.0353836065071805 -0.03376075859622478
0.014398637411118215 0.035165845048590286 -0.03445572344447379
0.015051029426941366 0.035013121654369164 -0.0335939741334671
0.021785484170392794 0.010469636917953504 0.010713212435438678
0.022050851941404125 0.01036777879790663 0.01012715292873827
0.030157285568932594 0.024537399355474204 -0.014989071015843873
0.030068846327656825 0.02468703892570284 -0.014992975030700285
0.03000713097616611 0.02480620002566008 -0.015040505484825014
0.0298122554901951 0.02547032064520012 -0.01606568207305092
0.030239097014042246 0.024445002042007204 -0.015125388413763503
0.022071444264603182 0.030354300180087924 -0.009021691394143837
0.02170205739741982 0.03046923436759 -0.008582546489067179
0.021877037888349618 0.030219820495056754 -0.008420794376805082
0.03445081748381414 0.008972452168347042 -0.018049558016576296
0.034458358607500204 0.00837098301656524 -0.01791133843032093
0.021781246481150762 0.009558669942183271 -0.05221910384193752
0.022513927628114022 -0.0003149680468874178 0.011605036459988052
0.022389988524993326 0.0003906038073715623 0.012114755472213922
0.022546081903885185 -0.0007277990456379499 0.011528920564178244
0.02680026911772982 0.006662662907234587 -0.04885920224204133
0.026210242754865894 0.028718624477237564 -0.014189120575208585
0.026852063998999247 0.02839614235293834 -0.014830334842520276
0.026602485346282314 0.02849716247252736 -0.014486503318184551
0.03276894633229174 -0.005662410839485739 -0.04217960876684711
0.03283998699392967 -0.00636994626703508 -0.04181813078560686
0.03278113563946537 -0.0059331747806201695 -0.0421052317067242
0.005005744204204415 0.0374457534986526 -0.012115931318934927
0.005032664315372796 0.03678739705552313 -0.010586148482096124
0.005315885630563805 0.037119637831199606 -0.011426555729748267
0.005758381935846483 0.03703434631285195 -0.01132953928690903
0.022079651719692735 -0.002914405232073108 0.01410324785193576
0.02213350796898784 -0.0029892566238038216 0.013741060231655645
0.03454956748110366 0.016403882668184704 -0.022469870647868852
0.034615615560111716 0.016119470747673392 -0.022280848394462822
0.03384952510684987 0.018145309752027702 -0.026958778322641156
0.020521944506105748 0.023354212594593055 0.0019159449814291933
0.003635085789155208 0.036551696281900574 -0.03563229919175895
0.003728296395638152 0.03600228385464888 -0.03774976147093672
0.004415226385182214 0.03621701675255098 -0.03691947187724621
0.004168410698327345 0.03610860420378043 -0.03733828850025502
0.003809478961527094 0.03632958673843734 -0.03648781019178897
0.004192871466009773 0.036435072114103635 -0.03607976738183569
0.005216179834174743 0.03638449860273551 -0.03627089465969571
0.0048567772354139145 0.036305719550126646 -0.03657590360030219
0.004619540186702371 0.036436764264001636 -0.03607165297124232
0.01662405800133227 0.0318046310700758 -0.007310569030422145
0.017986828943208986 0.03121672316007763 -0.007138524600033484
0.016604287956875192 0.031576880537354045 -0.00694092806261167
0.01648446891612959 0.0315818576647754 -0.006882481539196855
0.017075256286509053 0.03179509265824824 -0.007545154842081115
0.01795253195682989 0.031150948922891747 -0.0070159575573329105
0.032820624511181756 0.010878348701871241 -0.014144263357798274
0.03310310635293629 0.010407574528357628 -0.01466000997670858
0.03316882789463421 0.010789278630728618 -0.014843154291749684
0.03293675429861304 0.010438146898893228 -0.014324578907231197
0.03256627984950852 0.008605824608551938 -0.012951603666919598
0.03256595874340762 0.008326179150404471 -0.012910860776501925
0.032695461174701276 0.008280020762060422 -0.013134973590736298
0.01335829644794653 0.03710571657172105 -0.01612722367509065
0.01384629551072912 0.036844402694934414 -0.01546549734793626
0.017598710844679163 0.03188707945555017 -0.03821749408517772
0.01752825831679395 0.031733384748056 -0.03856849984664004
0.023356407138660985 -0.003929854459296242 0.008443736738233763
0.02335437443308527 -0.0032188933828394685 0.008337559365943421
0.03462437120735913 0.006851090852030071 -0.03452911015824657
0.034047828163229744 0.01754547026967943 -0.02267768070083618
0.03423096461995318 0.017395749396910697 -0.023483421252371187
0.03419290475567218 0.0174969944966736 -0.02350181821824701
0.03420479744607541 0.01744495555853649 -0.023442001704411644
0.03419792863668282 0.006952581200739314 -0.0362831425566691
0.03611985977039622 -0.008046075689802321 -0.02883731780139724
0.007817892519316723 0.038856441679779224 -0.019519796162788077
0.008554504813378315 0.038578064216558024 -0.018437782827799083
0.009080482932407673 0.03849365675735838 -0.019591180674360054
0.008352542450132894 0.038685669529412915 -0.019261224822858216
0.008140509373461446 0.038728611325836805 -0.018946403728910575
0.008869105404086136 0.03849316974188643 -0.018548207665681524
0.009151027323362202 0.03848785602966576 -0.01983883473874434
0.009571274965139799 0.038379399571790894 -0.020069646518090994
0.008426683222061237 0.03869167153545587 -0.01972524794429498
0.008421699955008513 0.038621486152454476 -0.01851889903319861
0.008022863384307664 0.03876789065681787 -0.019031964862110243
0.03612139931103583 0.0037432208593846713 -0.029259191143428502
0.0060349460413621344 0.023883493322876224 0.006526470730426968
0.005905300911425198 0.023923050980689788 0.006496023187719684
0.026326585110279497 0.028496925392699532 -0.01378141178134227
0.02610618259395254 0.028744004906369133 -0.014032778012666239
0.026866171395406747 0.028063956212734716 -0.013680222046389353
0.026635482877031103 0.028010568165333823 -0.013010191941026336
0.026535185325712154 0.028384807332352217 -0.013907578712347345
0.007539524210318468 0.031282192359504336 -0.0026317866077793287
0.00816215180420812 0.03178133036448009 -0.0030535212170675944
0.0071413543502216285 0.031755623340643954 -0.0031055059638805593
0.02970231602512234 0.016091621004981363 -0.041538472353091056
0.0048392683715396834 0.03350797564756772 -0.004739305359172992
0.019091016620951286 0.02686522623983193 -0.0010553609756000035
0.0035277138511200573 0.036337647747208005 -0.008976112153874415
0.003855877621533275 0.036209482100257054 -0.008853839758555937
0.0038094862953607367 0.036460213543729636 -0.009361521755241565
0.03573909361212836 -0.00504766230126745 -0.03199108556080116
0.03588065949002626 -0.0052735665525970275 -0.03100057406266524
0.02456954549945528 0.014278272679967806 0.0029158272118905417
0.024207212957825 0.014066477691050676 0.0035330380576961812
0.012739873740403003 0.03174028212965696 -0.041768712745204904
0.012657235616914063 0.03189493556577793 -0.04150586702962242
0.012753849623524926 0.03152090664883346 -0.04218359679883856
0.012526163128865791 0.03170264119817451 -0.04192789119344539
0.01398098838950038 0.03148610715343556 -0.041750665338566306
0.01336672778273828 0.03162128122120736 -0.04174162209990963
0.013928415195171106 0.03157011151319625 -0.04161102275685423
0.03376186008940756 0.01653080507784756 -0.03156487715224021
0.03585358996137283 0.007419371872442917 -0.025851579156875262
0.035813422090903324 0.007907336684360911 -0.025699661225036315
0.03590751651124271 0.0065806260019774 -0.025632807969560304
0.0195528916934454 0.027342079676043428 -0.0020710904473829695
0.03266800500369613 0.016961250298164955 -0.03486704702991216
0.032526134161750486 0.01756138639423364 -0.03472668660280365
0.03285368067967836 0.01676172143492541 -0.03440413174517877
0.03602681738986109 -0.0021078651647955756 -0.029957898301631865
0.00755893074980252 0.03809849370614073 -0.015432296620779329
0.008995710127528015 0.038087723032605075 -0.016230441222862338
0.008687688511354302 0.03815227583171524 -0.016358937417482143
0.009133898238290004 0.038275452842741364 -0.017215814255182364
0.008172085392020419 0.038285923957764804 -0.016697214538053163
0.008507995271712827 0.03813028980745972 -0.016146804276575586
0.007983750217950876 0.03814115678268471 -0.015888971959881436
0.009532671937019975 0.03805136302873596 -0.016373088092493163
0.0053984618524142896 0.01660775452204876 0.01820736516179266
0.0051461666812069005 0.016672250163628062 0.018169293745622102
0.014054747128701441 0.02567008828847888 0.002860093166351407
0.016502724566547604 0.03613347806057504 -0.014373990012956667
0.016583100075921117 0.036162389462207914 -0.013819026869222673
0.031089374105024183 0.024826652538455642 -0.024525271685884354
0.03101497099676412 0.024895186595941206 -0.024220055434531623
0.03107564063263392 0.024790987392970764 -0.024188279852486044
0.031229950600624248 0.024676177948708848 -0.024980034616805803
0.026351196279373736 0.028290566449850188 -0.031659787370376856
0.02572664251408608 0.028976375676616088 -0.03146112402264879
0.02636909174049929 0.028108122405660456 -0.03205841654381858
0.018058220243967096 0.03541960457595837 -0.023073208393946245
0.019013673617705416 0.03484785440039107 -0.022314648433355535
0.019653108396619247 0.03452655213941516 -0.022361915710635637
0.01878769068239045 0.035011581619854196 -0.02275187259513771
0.01839871376396218 0.03524969247330269 -0.023109040258656614
0.01858055576964514 0.0350935298846543 -0.02253633205672007
0.019049693513582593 0.03480588057421467 -0.022101322336940808
0.029461993991235433 -0.00583542465273024 -0.004672436391250533
0.029056266917455206 -0.004739330728853106 -0.0040503003197618695
0.02932985492800364 -0.005617372060524071 -0.00443101555679756
0.020966692360352406 0.028434835876630492 -0.0048397823773768545
0.02185247444426594 0.02764626909999775 -0.004721356584213453
0.02201213590710681 0.027922729412550855 -0.005286318640424231
0.02135454482497131 0.028107180458626452 -0.004812621192438808
0.020718365121578503 0.028830961529376357 -0.005118169218182501
0.015474574965076664 0.02741910801329126 -0.04571635536567723
0.0155393806725857 0.027668674498848224 -0.045518263417944085
0.01703783776432694 0.033126652668467794 -0.00985388515149589
0.016378546344216722 0.03453261814445125 -0.011085400487601408
0.016988076752119115 0.03360058460011253 -0.01034866075012839
0.023856984414455093 0.020445263631864777 -0.04710344296956971
0.011503163491819304 0.02011081641431838 0.010148187388334156
0.01179273070115925 0.019951759780771988 0.010261644978819384
0.0150335859487544 0.02560161715615102 0.0024078913609112467
0.026458605335283426 0.0033499790757052926 -0.000690924173611458
0.026399759199387814 0.0034752806895993345 -0.0005350024508991743
0.02623753809104631 0.003909735165926537 -0.00010066554780078536
0.011382190901343184 0.012990106746051569 0.02270666678877141
0.0117651899905298 0.012947657492518066 0.022675082380947856
0.0016064033463055708 0.016292855816022123 0.019154357537664576
0.031010272705268682 0.015117602834181197 -0.010172849556302876
0.031390482505567356 0.01546182853476882 -0.010860236202918601
0.03108269375447259 0.014672052909070137 -0.010501644169219011
0.020995728205446935 0.02752682179612518 -0.003607469400422773
0.0206150073311641 0.027433662387921255 -0.002957754045018983
0.02046118088208595 0.02753918696772564 -0.0029790978850725712
0.016328657499512688 0.026639815052124007 0.0005168181725403124
0.016377948870514233 0.02673556510484787 0.00034018236676581224
0.01639642356999901 0.026898594128001024 8.45666838265478e-05
0.029433647811211463 0.012762952900032827 -0.006665021088820857
0.02944418820014685 0.012349603551077074 -0.006706917180149777
0.029100459954118318 0.012021817681536512 -0.005995690896238413
0.022061077227222496 0.029507161957480006 -0.007181232417942312
0.02227508239595847 0.029338982502001495 -0.007103487908911334
0.024138115142322784 0.028329920068751367 -0.008580526592912939
0.023949576983342852 0.02825508767340512 -0.008054225638012802
0.02394021818589409 0.02867609570545691 -0.008719472835740478
0.031250294001260066 -0.0033145189801824155 -0.045326089894276445
0.019324885389537257 -0.019382227577950342 0.007013558007157088
0.019317275878496035 -0.01952944300717418 0.006521119657114322
0.02555168321329239 0.028883811282451214 -0.01347515551122678
0.02557111386667606 0.02888446881695537 -0.013509564568944962
0.025734276853630354 0.028703626519222022 -0.013277850622005621
0.025385742232721612 0.028908489160363347 -0.013265928452537948
0.033544342338549325 -0.006204368204757951 -0.03976576897129354
0.02103993079737497 0.027697332500663557 -0.003966494808110219
0.021373735402436478 0.02752845743455908 -0.004046438589387981
0.020817639848324968 0.02807878936957999 -0.004247930388012642
0.02074682064655698 0.028029405351865936 -0.0041249532533474825
0.007765343847100637 0.02827055845462398 -0.046844881822636186
0.00748346601827822 0.02771976793236859 -0.04738954103211998
0.007464969776006108 0.027766797374884047 -0.047350628534754864
0.007426357836517669 0.027442480470067407 -0.047648613778332766
0.008034344639593313 0.02867515038564243 -0.04643374324172722
0.036306889490183084 -0.002261003133713056 -0.028932762012423698
0.03615792745550976 -0.0021455037420172827 -0.029441195238451224
0.022597123587060574 0.02983106744329473 -0.008880474759232232
0.02206093153493252 0.029727665050168293 -0.0077340390465241386
0.03320950611107948 2.358189497156469e-05 -0.04110546811832663
0.03318684924222245 -0.0001005697084380785 -0.041167763387550294
0.03163696707378384 0.01490928674879633 -0.03829725490128512
0.03106858115113182 0.023673317571958494 -0.029935190205907427
0.02878017461014703 0.020403976993664676 -0.04004705305341914
0.008150360160036667 0.03023824421639668 -0.0012642791095593873
0.007908382573483438 0.030151481159033777 -0.0010311999135997456
0.0013944228094042014 0.020653830630298683 0.012162397218807776
0.0012612142728340781 0.020722085675387126 0.01210430943327322
0.002592455389102492 0.020759089072313736 0.01161734841948487
0.00198283452743496 0.020817143663710957 0.01172901421455262
0.02368588583653085 0.008455917053952627 0.006187399460795754
0.023898321350914426 0.008445286409151941 0.005753154995105155
0.026084153689790234 0.0026837811156079326 -0.050497017336547184
0.024745470473519073 0.028466949730823445 -0.010054728138429425
0.025137605028205025 0.028192641885735087 -0.010421408301173093
0.02432384571240168 0.02847289264206288 -0.009209893927715627
0.024692351277368983 0.027978548750505393 -0.009185644131668873
0.027292605945069836 -0.004719552896131341 -0.0009159952588461078
0.027384193557011428 -0.005339944895767385 -0.0008895544478537808
0.017504113426697505 0.02968999394340718 -0.003995626881956585
0.03594626930183717 -0.0036929924924073957 -0.03081541335420238
0.03596707842849819 -0.0037681285510452727 -0.030613196698157805
0.0030227625875144768 0.02192119272622082 0.009818828290137908
0.02607581406046232 0.028123065952491193 -0.012169267305525287
0.025236450039133492 0.028881177572367436 -0.012816477743438573
0.03417499992688141 0.012432575783630818 -0.0334165840908265
0.034299067465625305 0.012481325045595026 -0.032947499287699744
0.03508511477780199 0.005735832432394726 -0.03402499803766278
0.031846509074757265 0.014814502718678683 -0.012126166907922566
0.031946894262264096 0.015153611773294856 -0.012411434653895034
0.032044739141020025 0.01524826098477992 -0.01270340139726577
0.015661781278803504 0.029556461191021434 -0.0030054321305867217
0.015571262171047526 0.029333269986319677 -0.002523074552978473
0.003064311956057821 0.036899505509220484 -0.009901264721607392
0.0031352433420644924 0.03678882595926987 -0.009742938796995417
0.020843280158969954 0.02916794478650661 -0.005539694559781303
0.024104820947036764 -0.002283420924937927 0.005903006315141318
0.0241153446865919 -0.0026597378960373963 0.0059555391887458654
0.019171396378043146 0.027979506057003414 -0.0028633268067237757
0.01972429234983188 0.02768645132959395 -0.002694787734429501
0.02006959992050066 0.027744084614619788 -0.002987174971742176
0.025989534496712825 0.005084300597386675 -0.04995202208787849
0.024925991584507885 -0.0005774754824775496 0.0033002742557571474
0.024904884143366002 -0.00040890225869629225 0.00332627396893859
0.018987104762274443 0.025929142409716492 -0.045572324509203635
0.019311136072937548 0.025976426626997073 -0.04529701098546836
0.01942076672329469 0.026048085685091767 -0.045118936840101445
0.019372123898107652 0.02599679900529573 -0.04522768783055829
0.018567999431068988 0.02627112367617047 -0.04531331920880228
0.024049324323895598 0.008643045041090074 0.0053207409014061945
0.024224324112011378 0.008540432949594102 0.004929240003725971
0.03301814928891257 0.0070007886188790105 -0.013871096943092702
0.03296905451226416 0.0074356351708649935 -0.013694155649873092
0.03295711308048954 0.007734631031420087 -0.013645938833378803
0.03307371922418638 0.007241997916012063 -0.014051717946110388
0.03569759138590645 -0.005760060060838039 -0.0319120490711561
0.03570376428764648 -0.0058865311306521865 -0.03165844322128273
0.019352127958680927 0.02705312372106131 -0.001559450575160243
0.024336151437591984 0.0016965809170335694 0.0045636260009867
0.02443032136588491 0.0016447032273172921 0.004248728193375287
0.024392793402790852 0.0015809883593136658 0.004372562546974849
0.024359159019689904 0.002103987456586871 0.004494936608340304
0.025413342171516716 0.02070884009868805 -0.0448122698035492
0.025478719664648652 0.009117249546125014 -0.04970434765974723
0.0037824607549149874 0.02056448103061892 0.011512374085859672
0.012839477588465608 0.03074093299534787 -0.0033498789610172854
0.02382545560144659 0.02146077164859007 9.843483528496258e-05
0.02376890742207781 0.021585632761070804 0.00019781611258729476
0.02834408309483097 -0.004719821584672423 -0.002670741518113788
0.02823416693448391 -0.0049888051194226365 -0.0024277933843502362
0.028008947337007824 -0.004142800572828198 -0.0022655772834981624
0.02434736507147068 0.007790034673735881 0.004500038521922446
0.024501173225045053 0.022034906408217186 -0.0008692056205804675
0.023732324518593546 -0.015655523990269458 0.00405407852099458
0.02382715256293588 -0.015325069476682844 0.004179800579412309
0.02377343766057337 -0.01571286601632068 0.003945285805352259
0.019725500371367 -0.02056433702026518 0.0023763893188292946
0.02452199893973394 0.02934456222395517 -0.012284430323429456
0.02490354209618243 0.028945513021218665 -0.011852751703435804
0.02436430331635902 0.029459905604455987 -0.01209339481335818
0.02369295585577387 0.029222056876730206 -0.00934663193013206
0.02297246750185024 0.029431579609539564 -0.00853726209988671
0.001508698437612235 0.029825337399218624 0.0005425105535578072
0.005552932765441152 0.015935579544759722 0.019201500593524493
0.005799014169499845 0.016057843335112447 0.018967452063140725
0.004144981799703737 0.016263646525442495 0.01891337765192741
0.0037978792579163286 0.01610375347516227 0.01932521821760095
0.024526604174493004 0.0031846178961890273 0.003921652062915611
0.024472106444516875 0.004509273526045334 0.004028766500409171
0.024513958457490687 0.003195076822754602 0.003964264633110493
0.025106316076799515 0.0002555563204143699 0.002840092171798378
0.025011206137965758 0.0006756778332634408 0.002938852136736691
0.02443526776669594 0.004805971787102375 0.004146330622645086
0.02296846232477219 0.022055349117580877 -0.04663420345331543
0.023050712554185192 0.02139225212054098 -0.04713049687693024
0.023136433583154804 0.020802843909152904 -0.04755914100639338
0.022448411226276888 0.02149284685139303 -0.04763969744468692
0.02249448911196967 0.021618755321332582 -0.04748432387502077
0.003587966316311402 0.0394316876662298 -0.022737067874491923
0.002888755950184729 0.039559533881340786 -0.02180043484576003
0.002982520998283126 0.03955251473746801 -0.02166378288317042
0.0037005867231932332 0.03944210050052156 -0.022084866516980883
0.004253164684747165 0.039384687257687526 -0.021695207391709614
0.026589777802695242 -0.002989989964532492 -4.699144233587843e-05
0.02678319297374161 -0.003105078636297503 -0.0003554661176829008
0.0268627280533814 -0.00276906256362388 -0.00050649661417397
0.002615056270948825 0.03905704610371785 -0.014320372721780581
0.0019337606578103276 0.03921234601669542 -0.014802052686687285
0.027125208520813654 0.028576255780836876 -0.02789231239424693
0.02681141423780421 0.02883463035271262 -0.027380764411742337
0.02729607252944454 0.028597631085541884 -0.027109954718238835
0.03619786012553732 0.004146104030741652 -0.02796153599735207
0.03506909326333857 0.00021037909903119444 -0.03552273310754784
0.0350380597949825 -0.00023873968656287368 -0.03564344337675264
0.026314825351593782 0.0293510006531722 -0.0256756861112234
0.02595452106939295 0.029612662125172967 -0.0249187922925539
0.026394525593638203 0.029357514644366194 -0.025419147481955694
0.026575796933171334 0.029342141737771464 -0.025034430271983193
0.025873501227908588 -0.00014438089632192328 0.001180430851830542
0.025957654240924288 0.0003534895823598253 0.0009685096633687817
0.02601639977437943 -0.00046671835285434164 0.0008504983751869098
0.025848429584585497 0.0001914406637597395 0.0012311608358452433
0.0260106217743702 -0.0004164867799304102 0.0008628856685724866
0.0009424217147171669 0.020407897464913106 0.012611364262667577
0.0006235065721408027 0.019968214288243018 0.013240840245778302
0.020581183433442347 0.033715613255871524 -0.020016832037317328
0.019956519861252322 0.03373596644060763 -0.01882459287962797
0.02029778440572537 0.03374812510215235 -0.019585200237633167
0.01999379374756933 0.03382085569538563 -0.01929990396523264
0.020586921720673213 0.03358509004964652 -0.01941598765388409
0.020350610025308344 0.033904735869892295 -0.02042923184863711
0.021786742463592097 0.03216283672225988 -0.029249257379996334
0.02185758582782488 0.03214964059996825 -0.029531589116250694
0.02144876109607914 0.032449159210436215 -0.029397008126754963
0.0331231272231853 0.016988179234990332 -0.033300350417879675
0.03307761862484269 0.016884360502464092 -0.033535549290069855
0.02410612316515155 0.006834838491062185 0.005236666956696349
0.024099883305974443 0.006469251430095685 0.005199185415306921
0.024354843883463307 0.00710937571521628 0.004458577665899441
0.012423709750599778 0.037493013627627 -0.018440384899776053
0.012884707497229735 0.03733208460651238 -0.01947888206528773
0.012006426534501168 0.037610361435719955 -0.01886896225052005
0.013111793094100021 0.037268360261289525 -0.019239061059112408
0.011897196963534692 0.03764757914634579 -0.018667023118630877
0.011935477430237864 0.03763681955439696 -0.018627436525966108
0.008912874516457555 0.015464774050992435 0.019385005604323925
0.025001937822727693 0.028960904816401328 -0.012349350250336772
0.025037313851089305 0.02892445469494105 -0.012317775244785513
-1.37597095340266e-06 0.022708470698478502 0.009616212388209975
0.0004809037571054531 0.02273476224749525 0.009456547109922223
0.02128111142391037 0.023957298403417603 -0.04604364599421715
0.028970107852210856 0.020063404321177106 -0.0400040329405683
0.028582728339112594 0.020212528565369686 -0.040607291765805006
0.03155367408411326 -0.0026201772444896954 -0.044444956195695315
0.03596980161948223 -0.007419642629551876 -0.030131219950033462
0.02878453128090993 0.003950910140985478 -0.005011623869456042
0.028846857206386106 0.0037361885470696197 -0.005091013129279828
0.03212085249151628 -0.0027539016690425024 -0.0433223304802042
0.015525244796734337 0.02977206892283266 -0.0033002042105500225
0.022522215994945898 0.031393855891544045 -0.013420822898401377
0.022636455988066365 0.03180138899490901 -0.01500097686132941
0.022636888741271965 0.03133807249144915 -0.01351188191735973
0.022206781291888605 0.03200042942202787 -0.01462769082368595
0.008431825987175998 0.01658104664949314 0.017661548778334504
0.008634242421396359 0.01624410114066501 0.018200369070535707
0.008381857030823732 0.016340118229275998 0.018077306104380002
0.024279355337765457 -0.017939192339473907 -0.00019477526210358827
0.024029531914519158 -0.018347698226661296 -0.0003060006184529788
0.026329350444616713 -0.001310831161024725 0.00026327348576384843
0.026494921143708876 -0.0010804062104660427 -0.000139517994513858
0.02608792989923802 -0.0012535737581267255 0.0007834179780849288
0.026526333110173585 -0.001284357161113176 -0.0001736309356040783
0.025986057348182705 -0.001244883002572729 0.0010055465407671673
0.01149803953837305 0.027755799758757936 -0.046685196616128424
0.010567084070141088 0.027458659023705652 -0.04705042122448779
0.011559276565321089 0.027745844475027356 -0.046682267230810225
0.011427924862362996 0.02758487384848332 -0.046818922101838883
0.009465306840479588 0.03473710705977744 -0.039129064382067535
0.009692543401379743 0.03491159625506064 -0.03881772393326819
0.023562513352627722 0.008043388036151497 -0.05124546333909269
0.02550146714304516 0.002076739787925415 0.0017606195785858003
0.025544316721954126 0.0019534994290153003 0.001677052991196946
0.02564282223807167 0.0019858341531591894 0.0014199681200138268
0.035551838017723374 -0.00028306222994872065 -0.033006146980510985
0.019008299649852754 -0.019881524238279887 0.006658699030986654
0.019021637820983123 -0.019945719678574333 0.006380372493038366
0.01874372518296731 -0.020142165528128503 0.006987287760227782
0.018625603715366378 -0.02035847393747042 0.00679570650111979
0.0363573445917901 -0.007289356185189512 -0.027848784735120084
0.008249847325890377 0.024839624606969056 -0.050124337675028094
0.007889526137799273 0.024480986527975097 -0.050768751525157446
0.00805321790209785 0.02490489640628689 -0.05010912190766985
0.0064780822839783595 0.03156770608099192 -0.0025607993819687586
0.007013426466694967 0.03136388674134617 -0.0025094624654462133
0.007326626516083459 0.03123579825695628 -0.002466153474189075
0.036031484373106576 0.005749762470177644 -0.027261140873727517
0.03605362567516238 0.005632603311130313 -0.0277635119688798
0.035968313016891226 0.006216452560036121 -0.026734537393608683
0.03453735122920799 0.014052534870805147 -0.020264832041008044
0.03443666315983759 0.014643876201381186 -0.02021741666750043
0.03434639007591718 0.014611565560173085 -0.020020312889921985
0.02480729708482375 0.029838875819559733 -0.02845690736634256
0.008125728750553058 0.02484291345933648 0.005203654871606972
0.008278389014858395 0.02519062839059884 0.004718428110903808
0.022438208386829542 0.01802591985374973 0.004267245794643653
0.023242375651393976 0.017561302081232157 0.0035641696979202496
0.0009798205684103996 0.032217622027308795 -0.0023014542766336887
0.001004478435911214 0.03267548356618911 -0.0028298963174898254
0.024964836731083205 0.02859089540437533 -0.010945089195084306
0.024953958381783353 0.028853151898956535 -0.011693785382390076
0.02420496799870334 0.007759218556043515 0.005053509719533119
0.02425138462472548 0.007269259570118376 0.004825236821291921
0.016304537112908978 0.02779045557390899 -0.001106339347051278
0.015776092831083034 0.027592966203186083 -0.0004922294679742146
0.014036862210709967 0.0296361239198883 -0.0022587040459937334
0.014754450071873974 0.02943581042462557 -0.0021200640413186695
0.0134689702509149 0.029609745592844777 -0.001975945747023913
0.027479512208207577 0.008129545576526101 -0.002629418683188017
0.027884422391951987 0.009137347231537422 -0.0032836169567748113
0.02478844734081897 0.01466911863995657 0.0024057779637918246
0.02490793605753459 0.015019705142647923 0.0020028355952011008
0.024817564269146324 0.014546934826697316 0.002369963843122766
0.02577032804618999 0.02897338846206421 -0.014028976842773381
0.025271254248017818 0.029424090000547368 -0.014128121765408607
0.025031481432843866 0.02962005363564333 -0.014134872608092607
0.02588535553673505 0.02894698259377599 -0.014160103361068193
0.029897231088060333 0.014689940036054224 -0.04200771169915663
0.018812394486064227 0.029089951243945433 -0.00392711817909435
0.019545360104792894 0.02851357440638794 -0.0037449134719812426
0.01988306916823046 0.029041075690017175 -0.004689470840890147
0.0187584139331892 0.02911970860745649 -0.003924078364521324
0.020790291027942817 0.032690504582557664 -0.027468536615334833
0.02067324152998993 0.03292810075709944 -0.0267454029833539
0.021030308877000636 0.03273348029717073 -0.026466788177520205
0.01873452348910522 0.03423325138582006 -0.02976477971066497
0.018570017922782234 0.03427689998181547 -0.02981983538581251
0.02988509985331001 0.011373768764348983 -0.00754930967445187
0.030028098209663547 0.0114329695113148 -0.007875852313664063
0.029721541413862053 0.012358689425219265 -0.00725385888726126
0.030026158822132637 0.026214465166656865 -0.022431581471013567
0.02967724630715799 0.026845769866781003 -0.022606214455361276
0.029550200773057377 0.02703759691287867 -0.02248765265502604
0.02962694454339352 0.02691493386158087 -0.022526775333809777
0.029838676920754457 0.026374545153275628 -0.02166769213450502
0.029539643515262802 0.02701287060194723 -0.022283087424126137
0.030317375640485988 0.01113385039932544 -0.00843589224796133
0.03074652004564294 0.011149969199459694 -0.009201355971545346
0.0305679277158451 0.011247701890425068 -0.008901835483813875
0.030666350969748866 0.012154210455370535 -0.009241928996450752
0.03608393005226819 -0.007475067490085084 -0.0294682647590506
0.03531405269137802 -0.0030639146078609777 -0.017792621400688897
0.03521010544844057 -0.002413511364500566 -0.017451583604322793
0.018868209680655862 0.031757512978724936 -0.037005395326526455
0.018264134334446024 0.03228507235094395 -0.036662080063896464
0.018285050073734436 0.032140458050577685 -0.03692148820368091
0.029440732583986877 0.015559417566435788 -0.006938348081477139
0.013795100308877045 0.03402205713220152 -0.0375276273941981
0.013220818935360592 0.034281018764678324 -0.037591849185970395
0.013828385308860035 0.03377502279121762 -0.03785167298942076
0.002988214799878254 0.032767285646074985 -0.0034691123897480185
0.0031823844699536987 0.032701606589636716 -0.003502471780314823
0.0025345612515304218 0.03336090308398662 -0.0042035791633315235
0.03278104763228151 0.0062489345992494385 -0.013211965410965854
0.032876456349177005 0.007591653969142884 -0.01340527845574701
0.03242980534915549 0.0068703889554210685 -0.012529048717041134
0.027246732154485087 0.005850709897879257 -0.002008030359437456
0.027392337755000874 0.005815276806807448 -0.002283891553837322
0.024006704075393702 -0.01019941255802738 0.006915803266934115
0.023968401580470998 -0.009995043455411442 0.007144135911917126
0.0206882356438889 0.029377793102996593 -0.005791050178497496
0.02046107817529068 0.029465170735529192 -0.00589209332831634
0.0244108037588262 0.004375061675473074 0.004245535348204328
0.024139204825146837 0.004711867286296772 0.005136416436472109
0.02431829621866996 0.004194198456637915 0.004570770635501009
0.02414019716394683 0.003606793093417661 0.005214566317549119
0.023960983077502277 0.004368273230978946 0.005762645495174988
0.006544074388200058 0.03915605286727994 -0.019454885421248073
0.005676086935741922 0.03914446411912759 -0.018365600504889376
0.005792367739127685 0.03889500371008517 -0.017049804410895035
0.005042628993256817 0.03920540033693609 -0.017974739738537603
0.004890571421363326 0.03931527982999836 -0.018435597780469222
0.005890784721539208 0.03909077822960001 -0.01830571506813449
0.03263923338371555 0.010596668822797433 -0.03879547272260894
0.03279580139059711 0.010388352113580577 -0.03839407840728428
0.0327368361348267 0.010481006553571337 -0.03852574388531507
0.010942821060953714 0.03221422756803161 -0.004371844260111579
0.011081008595766755 0.031927495776989716 -0.004060608773557036
0.005175944384603024 0.021254749725072488 0.01005585779257547
0.005006256255169364 0.021336301470454226 0.009962637868803826
0.013640782404695233 0.032593156943451294 -0.0064585098336865125
0.013705727912380153 0.0329109979183838 -0.00704880187922046
0.013670197681879166 0.03248620815126987 -0.006304030382780679
0.031172377286926727 0.01967483216298449 -0.012552004206233501
0.03136867431309896 0.01914637937994023 -0.012699525512756538
0.03120420425354074 0.018742122632482677 -0.01219679426635171
0.03138187855208834 0.019081611879173052 -0.012696369821977612
0.031065602544076386 0.019901616690526275 -0.012444607364229907
0.03143835014069469 0.023312891583702568 -0.02874414091971114
0.03140854042057535 0.023839048582853826 -0.027747198827948943
0.02690661532452402 0.0015632793421344305 -0.0011921938567279857
0.0267345735500108 0.000993778520158613 -0.0008179761559223488
0.026703289391900923 0.0006764144587198476 -0.0007570846082243649
0.027184898347950626 0.0015809363819340152 -0.001827745211313632
0.024655828675231126 0.008004325685756451 0.003658488104913332
0.024708381819950262 0.00755131270717882 0.0035302455700739906
0.02472216694329735 0.008163781758963682 0.0034849429973559717
0.02439748387852685 0.007904377552237388 0.004326024509740104
0.024940741460734526 0.00803832991050639 0.002923518422648164
0.027722269385425526 0.020938858322662818 -0.04136906357224956
0.02801404737572632 0.021002453503306366 -0.040823062432951245
0.02770691129458877 0.020932922852732724 -0.041400578085539014
0.02349284788301964 0.004164392445943372 0.0072495672149520615
0.02690916385582352 0.007726459899895546 -0.001335815050587577
0.01890983944807691 0.03412498788163207 -0.030793770530536
0.03545899966627784 0.0015947478885144717 -0.019105358592747163
0.03541441189155306 0.0015516848636751433 -0.01896705349767981
0.03509825251952912 0.0015817654280655428 -0.01806573817335482
0.035322208070732886 0.0015028553524183933 -0.01869056696103525
0.035418468636201655 0.0015997597926642817 -0.018990085122223905
0.03526711246172469 0.0008344748922467099 -0.01837411013620934
0.02720330210218802 -0.00462911305883223 -0.0007970719064056135
0.02697391219880407 -0.004507357236441695 -0.00043347756315773863
0.026780378705475668 -0.003908296682311997 -0.00026045718559648086
-0.0022636741335810137 0.027558888080024782 0.0038045397068453227
-0.00230998920992154 0.027783424517052888 0.003496253625796227
0.01658199286761724 0.029987699427856736 -0.04267951424815098
0.01608814522876168 0.03017614288564056 -0.04289939616056533
