0.019340236488072992 -0.009624649426075136 0.024857344399266106
0.01925539197653832 -0.009438000274515081 0.025077967366626028
0.01900716656457085 -0.008987370636589602 0.025707891420304742
0.021380282041654902 -0.0025210382572998956 0.016965180592291327
0.01648245706828927 -0.007751827721318527 0.03177132825910898
0.016409096826226616 -0.006692485081388424 0.031947129831408155
0.019136026683578316 -0.00352521163983247 0.026043822970292285
0.015292886027556164 0.004439800764769044 0.029810745153841727
0.015198486525510601 0.004593601262746922 0.02980841783874223
0.015390452603288567 0.003981901209503395 0.030031705360025075
0.015224049249885428 0.004821247559128156 0.029612166535360696
0.02138561987749809 -0.005664127808251028 0.017203731757067728
0.018653349495011372 -6.0863656591106494e-05 0.02658200311543263
0.01863084741088693 0.0002877286429405536 0.02657310031060904
0.020542544981397494 -0.006955242706582952 0.020726401720938134
0.020528351633154866 -0.008100989080201142 0.020634723683419558
0.020426749417876963 -0.006644868375442451 0.021160719333109174
0.02051693595457856 -0.0065271343817472184 0.020866458271185745
0.01685320604336225 -0.0006762577451518872 0.030468784628343498
0.018853902507545137 -0.0012749870092357944 0.026298049007111992
0.018786224065393754 -0.0005852867829077284 0.02625499999487456
0.021458499597616428 -0.004475991741876802 0.016921308025901156
0.017579334502849 -0.010610071494663718 0.028668406537062863
0.02177992975857936 -0.006531840552353062 0.015447574750039952
0.02172535931949976 -0.005511243409851846 0.015552106080969647
0.021666930362714443 -0.0061401224251410045 0.016310149391378218
0.01844254941454767 0.002341377370254664 0.02621070565025964
0.018431249556574974 0.00212716026687371 0.026380720439623823
0.021612695774610925 -0.00686727036120878 0.01622472180711114
0.021467096873956946 -0.006629071564663005 0.01686247531622582
0.017027287459632393 -0.011565701731782058 0.028974688779337822
0.01699907870292961 -0.011839471797066677 0.028784549525741214
0.021665517622841517 -0.0036861984225018706 0.01557048434496414
0.021609340715074282 -0.004044371918306196 0.01617071058788919
0.02165742363440279 -0.0042352240317876984 0.015787484841510865
0.017303641167541732 -0.008392174613203185 0.030141516402003483
0.017410224462858538 -0.008762950857716731 0.029823175122889276
0.01981711698933646 -0.0020641985233762353 0.023595907696172917
0.019732846664653376 -0.00244164251728293 0.023929329572668138
0.019802965806991462 -0.00298745742501631 0.023863789492427175
0.019984514210377537 -0.004005240658883531 0.023102596422316587
0.020004670038252608 -0.004014290812860481 0.023023850472241342
0.019449495481243313 0.0006101621346857162 0.024083460049622404
0.019297869644644597 -0.0003692703137395629 0.024789498714039505
0.019248542972644445 -0.00010831829350821593 0.024876805749005214
0.019306119336404325 -0.0003627446857326774 0.024762572408917924
0.021273141006554044 -0.0012060092193987718 0.017365103333415868
0.021294223470118598 -0.0007563774005109941 0.017295128422152462
0.020125320261089357 -0.00224017191489723 0.022434540903623967
0.02003925261999262 -0.0021408333725099755 0.022807471678736202
0.019533074729757235 -0.0011594764032405841 0.024251429783218974
0.01953472749515403 -0.0016416718597381088 0.024331931915826034
0.021517370598484842 -0.005372440920860902 0.016651517915784227
0.01890921968838988 -0.012021652924950915 0.024553514952927607
0.019195933652370965 -0.011341946421076584 0.024228653644115243
0.01985841218158705 -0.000899067798030333 0.023179397459415205
0.02000397869821252 -0.0002685354504191928 0.022577581604518462
0.019917495089149147 -0.001071574323373306 0.023034974572986783
0.02146121258960941 -0.0015302161894968846 0.016267688595115723
0.02158650601407558 -0.0029454806519205743 0.015815922371353514
0.021513403306062658 -0.0011034952751018345 0.015866174663344015
0.021604277715623173 -0.002634217369901997 0.0156443627900262
0.02152640271073742 -0.0009013886822497488 0.015746052694144436
0.020731292450302828 -0.00887400987393574 0.01953524052377181
0.021119114416515476 -0.008555450642005203 0.018301573522198855
0.02093000185177641 -0.00869862188124363 0.018906780455690723
0.02095054302234593 -0.007830821159602753 0.019095821169036773
0.0150204469304715 -0.006600104065279164 0.03409696107910349
0.015282011399571391 -0.006328797332530178 0.0337149380427709
0.017296980535181392 -0.011261556340870154 0.028693799526194275
0.02142934553674534 -0.0006342905710636966 0.016336107055125393
0.021415156877694286 -0.0007182241862892682 0.016437797502688853
0.01873285291814615 -0.013226229391266161 0.02403023430908761
0.018821618323243864 -0.01243077254955277 0.024468996431969953
0.018685772446210377 -0.013058998699498479 0.02429162897045132
0.02000974795628353 -0.0034343873749863 0.0230872753690388
0.019915780560387036 -0.0034275339746099322 0.0234493099388107
0.021344869007989067 -0.0017105730572070641 0.017035100223483812
0.021472200416280566 -0.0008397340636894402 0.016063350666200453
0.02140503030306981 -0.0018169159131009602 0.016676126946258432
0.01934415031850459 0.007377829057500655 0.019641768516742736
0.019090063836591963 0.007572432755631109 0.020005533267916934
0.019166639517125012 0.007650552050113588 0.019748458081307575
0.021383792364996136 -0.0037480018806578153 0.01710605803163631
0.019708637861628 -0.010765921009794524 0.02274727599702662
0.019662122508806258 -0.010486596155899643 0.02301044475844784
0.020449950623382826 -0.010696383352075692 0.019978351978239297
0.02034657700741468 -0.010235869822367136 0.020515438883966144
0.01960811485360395 0.007360762633791498 0.019060650826998687
0.019652474191768455 0.006442003865411437 0.019713044377004548
0.019980226303992016 0.0007300825313291313 0.02235285263868886
0.020013994209360106 0.0011696428411328075 0.022130605565925214
0.01998365703019002 0.0009588588916678746 0.022285635553684235
0.019855079046369753 0.0005176682453359772 0.022833074139677598
0.021204504743643618 -0.0027807995530877367 0.017933741626504025
0.02129532817706662 -0.0026335157612992046 0.017428937568202962
0.017472251142477937 -0.005699676310584655 0.030244804778701395
0.0175200519975987 -0.005515057355890135 0.030109948510622694
0.020420826301194017 0.0054348388940160695 0.018264264211579517
0.020320971929414716 0.00599755465078173 0.018218390840425935
0.016512347451841047 -0.010585676136309993 0.030416815248422352
0.017412244433460823 -0.011594469190777376 0.0283694064829743
0.01759736196040014 -0.011563997962212422 0.028156634523373567
0.018317157989553228 -0.01180565787752551 0.026459680763788778
0.018636635533021483 -0.01136902702322275 0.025972026224623454
0.01844072196592006 -0.012993711306937935 0.025197899802784113
0.018461772841051504 -0.013044603509727415 0.025104529187351992
0.019515261103959403 -0.005079933449597552 0.024886545287911954
0.018931410507773434 -0.00946642990525283 0.025838062787679243
0.01896171286632781 -0.0102109879674014 0.025621076567807252
0.018931234211987325 -0.009547975418561843 0.025824523274326827
0.018620955769197273 -0.010368498410400303 0.026541390984840048
0.018524893358079792 -0.010205365537061249 0.026876314680363788
0.019482065389787046 -0.00748442810169898 0.024696669258418954
0.019356170479779052 -0.007803472456552555 0.025240542650704453
0.01900790479003079 -0.0038859817461542184 0.026331794352351983
0.019535221854427902 -0.007460731025351131 0.024500329606292302
0.01959278000150495 -0.00762132882453213 0.02432353642547897
0.016555225204683922 0.004328271881354512 0.02816140071104878
0.01656439872604707 0.0044190910159697455 0.028077496702774936
0.01654856438247143 0.0042179097657600185 0.02825629104171818
0.01984555045110723 -0.006352010916745009 0.023850477518082183
0.020972859041683816 0.0022276162557110456 0.01797278879666419
0.020980546226937114 0.0029324147585177676 0.01775204901281397
0.021052345357700477 0.002873375788544943 0.017432322426888143
0.020866412421989236 -0.00267649657198656 0.01932127519494453
0.02067558152025613 -0.002288568671701628 0.020085333701036913
0.020692697412575633 -0.0029423838097741833 0.020115446194638967
0.02073250372846215 -0.0029883410216409254 0.01995049630917191
0.019020623590864275 -0.005669429689557512 0.026440992763596932
0.01893893752450373 -0.005752932558680898 0.026689364510267485
0.019030621591306474 -0.005878440594679043 0.02642987175554029
0.018837128884157717 -0.00830889748916004 0.026515241069736635
0.0186101915735803 -0.007993882836062833 0.02735343753558842
0.01893815243832724 -0.008100338085422255 0.026305717507662252
0.01926597201887765 -0.004630150585681078 0.02568197597864171
0.019234179612567837 -0.004348249701949254 0.025789393098525622
0.018466528241425716 -0.013723052594868619 0.024376712390443325
0.01879388083154113 -0.00883040698617384 0.026443753115745615
0.01879950181817445 -0.008965890867635811 0.02637657241729493
0.018662972831490154 -0.009231779577301417 0.02673196829763147
0.018654030409977186 -0.008663932298606434 0.026965276261467015
0.021272469765165447 0.0019402915741715775 0.01661150632097272
0.021253779865408915 0.0008047809601529904 0.01703925975374843
0.021304469643257808 0.0014613925375142635 0.0165395501331985
0.021218258610276926 0.0008191321743848985 0.017260113407358325
0.021268040962992868 0.0004653562804365635 0.017041533272839773
0.01970617363035459 -0.005505220262383863 0.024350876501836573
0.019795482572633333 -0.005983093968531926 0.024085494022676793
0.018986141674540498 -0.011393247130573153 0.025022748438869515
0.018945804226355858 -0.011476487670022238 0.025082799314046604
0.019077228708959202 -0.007177105277261671 0.02619873377764105
0.01889186701130286 -0.007172519390828695 0.026718121698205283
0.018916604039431725 -0.006999679691909078 0.026680877041251883
0.01883854904910951 -0.011052190128043794 0.025673573560270165
0.018912616684690096 -0.010772997686334048 0.02557552940844398
0.018890835121929978 -0.011507000578486738 0.025234864655815346
0.015029286387629081 -0.007175332886310754 0.03389584352195481
0.015490155719897057 -0.006945614563299809 0.03334324716048047
0.015421513885172575 -0.0071520770805646745 0.03335601423713421
0.01502065106257964 -0.007751069240887862 0.033675510601964866
0.019190485708914327 -0.006815109455807598 0.02581591766336115
0.019270696414890504 -0.00644625744949787 0.025473040211150686
0.0184659264343979 -0.011053659017148474 0.026597595933012495
0.018739217949813806 -0.012529100523356304 0.024647787978820376
0.0187572994519872 -0.012476167468074218 0.024632826634867055
0.01897431717952151 -0.011019495379422956 0.025315351161737103
0.018603831379502157 -0.0071419315478315135 0.027403063406231602
0.019647542312156208 0.003408356285072197 0.022324186320870864
0.019827392055806164 0.003540051174602107 0.021591288616922923
0.019911738330086238 0.003323210526130831 0.0215060793378282
0.019298028026066363 -0.00672959226934573 0.025389854080145678
0.01816029496141853 -0.012429050404971534 0.026310072832323457
0.018097636878676302 -0.012502895039931471 0.026439342250595237
0.01818739306626592 -0.01212645549053686 0.026513930654296407
0.01853231992325693 -0.011981058421340122 0.025549592344449996
0.01841322433037033 -0.012612858847870674 0.025510598153815966
0.018002420781236483 -0.010349659366558243 0.028087005712298937
0.01908921994718777 -0.004553555944402441 0.026195565690347915
0.01883561538317723 -0.0045315554063008676 0.026897874377613228
0.016272148633849168 -0.011230553357971214 0.030596118030422385
0.017833601047640875 -0.011321933726021742 0.027851999575160567
0.017951201218197557 -0.011098184464973043 0.027670450072848102
0.018076289441998957 -0.010993425273483412 0.02743613990831389
0.019091583494399413 -0.005993452931703781 0.02618371658258517
0.019104926310919916 -0.005563275739213344 0.026180783014624044
0.018863657358715195 -0.006282882327037933 0.026936297570607646
0.018638254298332428 -0.006385408536910062 0.02744870882055371
0.019467640690337244 -0.006342830891732464 0.024841292544400862
0.018768834238906174 -0.006183016339886492 0.027187343929827325
0.018522036661732428 -0.005476462659510715 0.027805888483305854
0.018651721178262297 -0.0056172538590497515 0.027466132923586656
0.018570051898661163 -0.005159133586308628 0.02765648412535195
0.01634963976319825 -0.0058017949828927 0.03217862496920221
0.01638184675651186 -0.006098583711529059 0.03209811120725721
0.017717338509946945 0.0045389539859517665 0.026227770803148157
0.017438032347159085 -0.005387881187862596 0.03029332868223055
0.01758360989065793 -0.004831709853476637 0.029918179251166327
0.01794564541976338 -0.009957692593033578 0.02837910624708912
0.018079882829787185 -0.009765253637565939 0.028089315188133904
0.016797028076145547 -0.008956060726725949 0.030856446831676265
0.016498153507672447 -0.009089835980205936 0.031164128505331144
0.017031259795963608 -0.006552521487088951 0.03113500527375374
0.017152917736975838 -0.006538288256823636 0.03097567818005547
0.02128300805190308 -9.307436423061248e-05 0.017256222445928646
0.021369380443537145 -0.0001198329466802257 0.01663897891302192
0.016376106345569706 -0.004969751026592515 0.03216589493554475
0.016218842605663312 -0.004825703877248998 0.03249621913500364
0.0016973604349388902 -0.01880509334023822 0.03287872096854369
0.001044294690736203 -0.01841954015896819 0.033060583725036875
-0.0015226952218978316 -0.01406563062451682 0.03569091390637924
-0.0017352626608312372 -0.012925393391572402 0.036217999780336047
-0.0010934712246279984 -0.013256550061802302 0.036309084538879904
0.001783055810471087 -0.012596320328936499 0.0369100931497516
0.0013725155520959895 -0.012162258617560538 0.037054061467648565
-0.0009096147805205685 -0.016260890608165723 0.03440109565153013
-0.0012172602089783504 -0.016159862682532743 0.03430512746721047
-0.0010102687130130801 -0.016453474227444326 0.03416581850444174
-0.0007766234355839608 -0.018147639143571027 0.032405179968416235
-0.0010579939715777685 -0.017876715120521483 0.032567160097575355
0.00041230388446421843 -0.01892022164512932 0.03209133057588945
0.0002466169377757715 -0.01621281369625762 0.03498784836295983
-0.000409468949790655 -0.016284443551821095 0.03467222504676761
-0.0012298891796043436 -0.015234766078763548 0.034993094606794256
-0.00036399003326351533 -0.015353670023721129 0.03539062231914741
-0.0005569917190542434 -0.015149790792459551 0.03542508247792416
0.0008582215735728361 -0.01725283808632558 0.034261184915126135
0.0010404127880844585 -0.017092804450278023 0.03450521016712152
0.0008143344554814118 -0.011335294442546943 0.03739045348437969
0.0007629264585387172 -0.01758726900885391 0.033989573958330785
0.0030547222337352488 -0.01789769857073046 0.03423954290588938
0.003005055767114353 -0.01794720857159509 0.034186604645896054
0.001843611821160426 -0.01736357668722638 0.03450351445464667
0.001455851197951634 -0.01781139129040156 0.03405347186499724
0.0020732862483967378 -0.018071134972670534 0.03400592365145089
0.0014808832374129382 -0.01672987235641483 0.03491199488698432
0.0018231187214056773 -0.017099464780345807 0.03472797999195809
0.0009849707060505097 -0.016488295885899708 0.03500564022018482
-0.00041922320671562046 -0.01865396028292425 0.031963939185280225
-0.0002003740081571054 -0.01067493676485163 0.03749531263429387
-0.0003253216807690391 -0.01058747858392393 0.03750472547013989
0.001079219633011474 -0.010795120449960574 0.0375666362608708
0.0018172489237470951 -0.012923151259066483 0.0367782456699084
0.002946972287667147 -0.01710449375076667 0.034951914738107166
0.0034876743086191286 -0.017259985708368383 0.034896688528138445
0.0009927651124246161 -0.013367560516085519 0.036663210450334695
-0.00012969023808133664 -0.011562973462660537 0.03722456091353105
-0.0004953765707971168 -0.011406917974141709 0.03720992137814799
-0.0007012807352463679 -0.013052788955236063 0.03656565598345918
-0.0007903658287973689 -0.012992351918302187 0.03655778307185519
-0.0011540833580015006 -0.013923764935039254 0.03592266843083018
-0.0008723095700504524 -0.014238416422088137 0.03586437328918772
-0.0009798131592843094 -0.013854635804702711 0.03603301051075441
-0.0006918333999374551 -0.014061102227090574 0.03603733090116748
-0.001496696765401548 -0.018402117234874497 0.03159722870885898
0.0017099177556818318 -0.01604637228941145 0.0354769693411274
0.0023681284357040737 -0.016150387807666155 0.03546292344611397
0.004197341041884441 -0.015585232413633819 0.035762942825169994
0.003984515040449015 -0.013009910208385298 0.03677512378449678
0.0011959202206524636 -0.011628938737810585 0.03725561916346074
-0.00030929402282286057 -0.017682247358019133 0.033244000936035197
-0.00042332808334081434 -0.017624724911510795 0.03324717825229703
-0.00011426870163270148 -0.017871303518972162 0.03312380169411295
0.00015959574250151343 -0.017471076662322484 0.03381304970186973
0.0008021868983913117 -0.017818642763910056 0.03382764692156039
0.0015764661073286892 -0.01159159402293209 0.03730148190430501
0.0009267119873036213 -0.01936168847580312 0.03180669575381852
0.0005233979373401276 -0.0195589796640651 0.03137019172368059
0.0006640705751747366 -0.018998663370150326 0.03212741750714348
0.0007187027325604819 -0.01872252227043026 0.032524839780137836
-0.0008901440062219452 -0.018876934771563554 0.03139284993048622
0.003365675972640132 -0.014406681132580302 0.03622599684399863
0.003158796283123185 -0.01471167549632938 0.036153918460878245
-0.001141181330812844 -0.018148209744343502 0.03213168841797946
0.0004693429601100945 -0.019865963881650357 0.03086835687928466
0.0006335428849144746 -0.02006454957784037 0.03063793646512745
0.0044988639518421395 -0.014707920089644425 0.035965013152281046
-0.0005170217367788351 -0.019466002275875388 0.030814246820945343
0.0005182490273388488 -0.016846704636017902 0.03455055095943692
0.004882511176803683 -0.0141767008367476 0.036302785974597386
0.003742207619170601 -0.01599650132438611 0.03561630723783788
0.003553423569113377 -0.015982864972824803 0.03561748170933629
0.001052260198269149 -0.018349092188674383 0.03316959388471198
-6.39315109138608e-05 -0.012845090550658148 0.03680948425648868
-0.00015455886092747962 -0.011980218533085483 0.03706412042405484
-0.00038935233606599164 -0.012340916318199415 0.03690099863026035
-2.441326688961754e-05 -0.01437778065563428 0.036097580387998617
0.0003747756210599898 -0.014352121392582726 0.03620803750245139
0.0004431300853574034 -0.01444089925108979 0.03617459401505459
0.003114895051915041 -0.013826625723282332 0.03637342283425555
0.0028253270123730595 -0.013607489445170047 0.03642298173264352
7.430709760404336e-05 -0.015222741034973848 0.03560729258676969
0.0022310324451596084 -0.019399279521770067 0.03234173830903836
0.0023286665100049793 -0.01944081854840502 0.03232735280318229
0.004485198105297483 -0.013323450935124617 0.03699504885655137
0.000785221737562527 -0.00992715135168562 0.03769303686719583
0.0012864301358606178 -0.020091796739470022 0.031008731910632206
0.0014751050248053526 -0.013182126017216472 0.03672895345906886
0.002143822361457426 -0.018145982589944532 0.03392108309446246
0.0012980315423596095 -0.013857285442730218 0.036486156596310076
0.0012146476427921079 -0.014182276827610304 0.036358709134012
0.0028030795807308033 -0.018124593001938125 0.034008726474908685
0.0002666605031393404 -0.018717527329048217 0.03227932010710408
0.00026394203567960334 -0.01850769523369774 0.03255187117658359
0.003023443123219751 -0.016240053456631345 0.03547077942235938
0.003693727729199244 -0.016499107114919424 0.03534347940189433
0.0020106039227286866 -0.013829110546436072 0.03644460133258124
0.00191869152529055 -0.013481553876350728 0.036538794628793926
0.002197596524537713 -0.012718245790322253 0.03681236599282779
-0.00048051384558906937 -0.018830052758598996 0.0316898706936531
0.001249457210793678 -0.016171792190871396 0.03525440481846162
4.091823798027328e-05 -0.017270817482012847 0.033937549271127666
0.0021704619174241755 -0.018551564289472723 0.033368608763822576
0.002930187911007987 -0.01872944625540989 0.033346804395396945
0.0003819972469456548 -0.012205509319479063 0.037078988413026204
0.002680290882809245 -0.012531337920478596 0.036873191768562616
0.0026379132897370264 -0.012898930741401471 0.03667405915785689
0.0013495292667819651 -0.019521783410074472 0.03181018408480005
0.002355225009025362 -0.019839266006815504 0.0318086163947318
0.0008457868333236504 -0.019690572221129087 0.03137225413130502
0.0010251552624516457 -0.009025199683921799 0.037789185688705554
0.0025083886958703052 -0.012127407243622455 0.03708385473724143
0.002113865136970718 -0.011978746105785504 0.03712942543832484
0.001297663856525937 -0.015921132083886576 0.03543513444098404
0.0017149659021133408 -0.016471630942208586 0.03516520995066151
0.0005536683152427578 -0.008171706960528097 0.03796202953826672
0.0010907556428844307 -0.00796766477173589 0.037960364932052765
-0.0009347341831069428 -0.017452500478555948 0.033160743844851674
-0.0007539049563772464 -0.018052181561640054 0.032536173310047524
-0.0012065436797404014 -0.01723290867978803 0.033271255316138566
0.00505792922359828 -0.014639356819858184 0.03602897549455627
0.0015966281053747405 -0.009439643146031114 0.037856582744202456
0.0010352951543228925 -0.009450884420599511 0.037780842685914084
0.0029179250082657818 -0.013326777090767098 0.03650649812456241
0.0021144673347127606 -0.015143444962959825 0.03600277954686039
0.002161234228837363 -0.015680647783367623 0.03576501235726816
0.0010179143731502093 -0.007396425320606146 0.03810209497167524
0.0014031950768777406 -0.007347528122847649 0.03802814765514494
0.0013094576517548228 -0.009593015904213997 0.037802212002749566
0.002482787107140755 -0.008104416971311963 0.037923120117354256
0.0036603651710406717 -0.014763681649229312 0.036105381338550215
0.0035099758747276924 -0.013853785602851762 0.03637357578111267
0.004213014760816299 -0.013505049552390683 0.03653545417812478
0.001602268007587867 -0.01098074020153764 0.03761772388991658
0.0038368822106816343 -0.01286023089014195 0.0368696654544035
0.003279011960345061 -0.017390609334355007 0.03474961908820543
0.0010638713219487004 -0.014767101565315808 0.03612966491817465
0.0014701380480274032 -0.014936127931120126 0.03607459412573197
0.00202836683203436 -0.009714987748111794 0.037984108248684076
0.0012886947804169962 -0.018886674368207665 0.03258666583043465
0.0012456400007232295 -0.019246486285291894 0.03210921069170223
0.004477688533723347 -0.013935187405198102 0.03637658291761077
0.0018555610740698264 -0.008056410304346546 0.03781281316234719
0.0005953652778827761 -0.012090888855067919 0.037124459164870345
0.002021231993238555 -0.010942669226691843 0.03775140036876827
0.005447134733057917 -0.01566728086735882 0.035553050724568894
0.005503166158605407 -0.015108386956469124 0.035773989167645855
0.0018832919797258148 -0.009158136706898915 0.03788710379127461
0.005485219931629696 -0.013666355119278526 0.037117010783168904
0.00414188320591361 -0.014687176077888405 0.0360096685325665
0.0006418028618171495 -0.015147088451690664 0.03577119711843592
-0.00019416297555436632 -0.015106916857518934 0.03563851030355413
0.002985520715348492 -0.015549628035990401 0.03580387724903045
0.0027750647928401905 -0.015049329531248715 0.03603052685874843
0.0019579594832923233 -0.01835786411294749 0.033559500530568574
0.0009646236446834868 -0.015096185876866793 0.035882018294373416
0.0011106300562374453 -0.01393390385344677 0.03644994374208185
0.00106032749556114 -0.014342872877752778 0.0362924030375836
0.005764078445771117 -0.013842541537301155 0.03683003647628924
0.00560674598976656 -0.014274142003049736 0.03621406799892058
-0.00011747921688651537 -0.011186745737893652 0.03736521003552368
0.004902249334022411 -0.015831291977594555 0.03556820811729894
0.004899919254704061 -0.01585545797391911 0.03555999647689931
-0.0007880497328937947 -0.01576374652387784 0.03484039223664971
0.004074036859323828 -0.0129191453055169 0.037212426733032856
0.002998508991523858 -0.012453657767793135 0.03695438139551839
0.0058191388632428025 -0.01418476722863296 0.0363382789508057
0.0007412403457774721 -0.009363692396373378 0.03777589748494704
0.0036401566644469817 -0.01273816971845604 0.03727613760298315
0.0047473083719054895 -0.013814048077643819 0.03657514350243916
-0.0010915175337586453 -0.015063873722144627 0.03518492003048724
0.0005633951543994953 -0.010437853485314261 0.03760254100823724
0.0005038608331659951 -0.010240676226514842 0.037632712464470655
0.0025035747066134936 -0.021108393107528732 0.029868901063966932
0.003157471982409222 -0.02077694637348197 0.030511972727840963
0.0029514960411973225 -0.020540069153665 0.03081979075834399
0.015217847235228298 -0.012539416178659118 0.03118890187935763
0.011071699036427182 -0.019815804427960316 0.02848738983557095
0.004579526506554038 -0.018249028595211728 0.03389596233732566
0.004498347302167949 -0.018458828913903418 0.03369656165746237
0.006264618388558674 -0.01692003180713871 0.03464506753990755
0.0066325527408482195 -0.017417916826816992 0.034271324033225484
0.006493439118513623 -0.017261108695736625 0.03438404905106866
0.005211678161619221 -0.017225596405832037 0.03466977350879721
0.015937339633167125 -0.015003140825158332 0.02801218254582165
0.016328243386738873 -0.015094553541693184 0.027319997722166606
0.01676344151464197 -0.014604073729981409 0.02712729002372253
0.01613812667490962 -0.015032546909034699 0.027673766010402716
0.011403956044164585 -0.015906298115651633 0.03301015564693418
0.014527931008189492 -0.015629051984778507 0.029617129163850522
0.006621877481819553 -0.021641347100263934 0.02856365364233524
0.005099035293331455 -0.018780369332482626 0.03329415444536641
0.004953085477155072 -0.019033626777185578 0.03299352809867227
0.005378261074230302 -0.018810848412693922 0.03317659679870903
0.005041394219555464 -0.019102286779992834 0.032876963136742016
0.009584602280711061 -0.018472538281141697 0.03167820629098436
0.006294669477932682 -0.023080443271095246 0.026243560106772514
0.013992297687257673 -0.01787809794917454 0.027578995613516184
0.004797167240226129 -0.021551855717518175 0.029065305160418105
0.004403540765495507 -0.021609482732020898 0.02900181851576732
0.008805734982414559 -0.020713012143575595 0.029253597844113043
0.00931548880762344 -0.020577195456568748 0.02897951611272226
0.01642530049456293 -0.016444831424742287 0.02525618519655912
0.01620501327766165 -0.016444760927590295 0.02574067660071473
0.01615764952316224 -0.016342326589534845 0.026010728204043022
0.008829903679837011 -0.020605624933172036 0.029419571740387236
0.01536284714485472 -0.015497840221443808 0.028404688389346247
0.01460113282973364 -0.016145027095056705 0.02894599711157203
0.006789738091403262 -0.02126097267224704 0.02926095283296028
0.010386521107600997 -0.015833587817594173 0.0336377621295645
0.006576219610086939 -0.022057266300534305 0.027706590486317094
0.014584101547526932 -0.0183575326262051 0.02614677025913724
0.014643612816901241 -0.018430811540784436 0.025932314762913345
0.014116928821503321 -0.017522989422781847 0.027946681224142764
0.012756905193609966 -0.016923123903337688 0.030555785116866047
0.012830338479573447 -0.017013112969976846 0.03026135573105125
0.005980446987537388 -0.02006086355665877 0.03108115742991349
0.00555004606516208 -0.02034456777004256 0.030909756537950694
0.012488383313520389 -0.01896521616577273 0.028249748146038936
0.012484346461485354 -0.019235842131605153 0.027761585597868014
0.008920347566947956 -0.020045135247110983 0.030181759282603422
0.006366859343952487 -0.01642395668009746 0.034971441727548375
0.003549814370499867 -0.019119668335851277 0.03290683485467081
0.01470492652393433 -0.017116223610774358 0.027653403061033466
0.006501578181327731 -0.018100389381707542 0.03370878595233199
0.006558807664461415 -0.017862739298634252 0.03392374439341975
0.013409264803033637 -0.018159473530198304 0.028167122720401304
0.01193051919085 -0.018198126376410866 0.030058343367286036
0.01198584010275609 -0.018124176059066084 0.030067300748431666
0.013263557131856436 -0.019733854435324532 0.02642018917288378
0.014468081567821166 -0.016342474898503552 0.02890295837157353
0.013409637365584242 -0.018669989487211207 0.027467293006007646
0.013263628961565447 -0.019018786869373982 0.02718149990716058
0.005821140225811922 -0.020429201220263447 0.030683584549033947
0.005651524123429603 -0.020323303656550946 0.030889575384004254
0.015034565022944044 -0.01744512580432985 0.026671447165871727
0.015108866280880075 -0.017249210711426207 0.026839782475459074
0.006334567848111646 -0.014363867775146356 0.0360033682779442
0.013957465074896612 -0.016804666782003715 0.028908014215592703
0.008297451670054188 -0.016713498667227614 0.034067936679045924
0.008976346102320572 -0.016534428145999192 0.03400939249293863
0.006445939747010548 -0.016088737544809276 0.03518873286770201
0.015049695085997834 -0.017997632832507583 0.025807477941250087
0.014756587490758163 -0.0184641200330903 0.025669057917535223
0.01641272418595993 -0.015193347277497951 0.02707802161725486
0.01662349989458982 -0.01512869009711069 0.026815257475501165
0.015711001389370188 -0.015680548190424796 0.027634048052219834
0.016305904615196144 -0.015648698899362695 0.02671582291926035
0.0079205808352886 -0.018557910160421336 0.032724945903564534
0.009607935850056558 -0.016544975353379864 0.033632445078078825
0.016063567055559006 -0.016723258366771774 0.025609282777815334
0.015657030331949574 -0.01708777456621336 0.025957137121323005
0.010117639171258186 -0.01683646456412887 0.03322181526844117
0.013490318475324857 -0.017563320591952796 0.028701760785309418
0.013235657830994535 -0.01723736110255237 0.02933587003866372
0.0156488738702038 -0.01745317530871008 0.025416480573936362
0.015750301478155114 -0.01747120555837007 0.025203017107068966
0.01682895960782456 -0.016604408387386978 0.024413980138080556
0.01629734890650214 -0.01674636494623011 0.025055826159602754
0.007174825603336179 -0.014916404799420975 0.03565218897465548
0.009767681588138198 -0.016941211097194406 0.03329833317374041
0.010342356398873978 -0.016531917628685305 0.033324128838930225
0.009121461402548079 -0.01879040901170681 0.031794727546461975
0.013778803775742407 -0.01870231552425652 0.026891088889510188
0.013910533221239745 -0.018109440667753808 0.02739820007060469
0.008628372591196837 -0.015598535086183972 0.034783221325838026
0.009903662088348322 -0.018819011038130058 0.031222242888251685
0.009823571135751427 -0.01886243149879782 0.031229077854872833
0.010805904768080616 -0.015417277296225454 0.03362697546300454
0.007962493441662211 -0.021885061444715737 0.027580359353689896
0.010376516886133365 -0.020798271721623234 0.027683807393700802
0.012974321100605903 -0.018586125331186674 0.028253257556530475
0.013192676274772209 -0.018012658112057572 0.028574216993674198
0.01452749772597312 -0.018904579239526327 0.025442665368627073
0.016783609126953897 -0.01574244906859156 0.025605937238013597
0.016924618875323618 -0.01583694010603501 0.025147526062716547
0.01337769203876215 -0.016656255320105205 0.029735141099697833
0.014357390151630907 -0.017035443975359395 0.028286458656613007
0.008256217594869062 -0.016146320717611608 0.034513974098541185
0.008771715247932618 -0.015788464081087784 0.034541195942356995
0.012951802934303216 -0.017493069385661007 0.029535504593189568
0.008711046447829466 -0.022114051129141582 0.02649047749860331
0.008886940435387408 -0.02204341627289285 0.026454963424320195
0.0075463125423282365 -0.020845235110767794 0.029672428484812524
0.007564458666769226 -0.02077831804115582 0.029742428523061967
0.008302659340174138 -0.016586335672707547 0.03413487658114789
0.006101478411963995 -0.016533693292544303 0.034954911213173956
0.015307904831833427 -0.015361059098049596 0.028618083445609437
0.015433762358414586 -0.015291987621429633 0.028499542928036088
0.013706653476496133 -0.01937746441980678 0.026345768506669462
0.012324747492937434 -0.017651467548364566 0.03018441470358347
0.012497789482822083 -0.017407009175084517 0.0302953403279919
0.00950556147556392 -0.015617049927878629 0.034366115666931846
0.012451250993738026 -0.013779266858754254 0.03346973224627816
0.012285035515406864 -0.018781323173145584 0.028729132661204866
0.013592255167079263 -0.01683794599561834 0.02927728968101978
0.01470841667730707 -0.01795936505198665 0.02650195985855403
0.014609193697571196 -0.01803826646037356 0.026548818125207513
0.011584820546437797 -0.017220840619418875 0.03153865494642811
0.006545466437135471 -0.018868611043917887 0.03276491260268941
0.006212266716167856 -0.01871148917683307 0.03308131950836418
0.006548516679114428 -0.018715892310641698 0.03297403021046523
0.012801091418922179 -0.019079641119967725 0.027692103783142307
0.009908615994902788 -0.02055750073534553 0.02857779270297782
0.01418685837144172 -0.016027941577070274 0.029447428433840305
0.007294422978549304 -0.02066469577691064 0.029937633317470957
0.011295875635152622 -0.014568422531539733 0.03391451794024955
0.011175236862357257 -0.01482560896696726 0.033806714898730696
0.015814590969651196 -0.014513798874249941 0.028801334848407335
0.01591374115873472 -0.014547004656478096 0.028557835918965963
0.016088432107554018 -0.013866471741636188 0.029053313234445582
0.008640501273324783 -0.02032200639253928 0.02992424501203642
0.007696788903933066 -0.021472031579938232 0.02868769883069407
0.007067414703956482 -0.022144337271481174 0.02750020297940827
0.012355940030467137 -0.016776577506520063 0.03125890165172977
0.01255644835953976 -0.01673665767770875 0.031070762687044347
0.006539647095164006 -0.022344679672113354 0.027268101629861326
0.011098126632201152 -0.01800604855044912 0.03124545387357017
0.007541591202775904 -0.02186228394582135 0.02788937291078567
0.009558175153079593 -0.020845978148890235 0.028190888337145784
0.014844670815134416 -0.017886229631382238 0.026367439974702745
0.015609895737794746 -0.016930261002955357 0.026281440178940976
0.0073338106706622615 -0.02282539778324768 0.02644942548911551
0.01040347638056513 -0.015590784125236158 0.0337772023519572
0.010121974372326476 -0.015265823739725588 0.034238548288977544
0.01211276749231013 -0.016871189024358333 0.03139116096516746
0.0059500599886939355 -0.022083698300085934 0.027885513363879955
0.012783383330141111 -0.013120075979854349 0.03346982418183832
0.011709543234661416 -0.01626504186532092 0.032422299008113734
0.011653641664312901 -0.016045097259797247 0.03272393230539981
0.01332984730003923 -0.016097890412120758 0.030730791055836124
0.0057812147734779456 -0.022541166061485905 0.02711349238335662
0.006279183431216228 -0.020202761089403262 0.030784810826161867
0.006633657655483041 -0.020025988439583593 0.03091186171904616
0.01640002151700152 -0.01577848797333297 0.02635493603680007
0.016421895368951778 -0.015764022985602713 0.02633134323990544
0.016592372355376722 -0.015512727054245931 0.02634404838654788
0.013786990730649592 -0.017143335125021704 0.02877621178587971
0.015090622493656423 -0.016363736623182322 0.027911335213619052
0.008545015438559057 -0.019129680719266677 0.03177083428966066
0.008576734639544071 -0.019052631290340915 0.03184608475430706
0.00894109694296574 -0.018986131062488476 0.031718461398075
0.015650120925076214 -0.016385197155387856 0.026953343231761524
0.015386041061030444 -0.016475956389569165 0.027343695350177766
0.015643658546899433 -0.01612429346835547 0.027253889309929797
0.007255776315936643 -0.018698884480044867 0.03276121608891305
0.010365109268011711 -0.014408951906117972 0.03463858506086635
0.010495403534668947 -0.014255975873586856 0.03465001104286807
0.011475595583313045 -0.017966879801292655 0.030933620304311144
0.011602692036582374 -0.01790596225848608 0.030884513040519274
0.010854926394812269 -0.015881912446628437 0.03337117163013027
0.008584591142969934 -0.018514961590134438 0.03248441822933547
0.008407466377218264 -0.018525019593298053 0.03256140806826687
0.014846362056450822 -0.01643553766622794 0.028211636810813793
0.009073548832611206 -0.01769178942153562 0.03305955393486808
0.008616822931705001 -0.017667753543457856 0.033394729103012735
0.0094810204016777 -0.015305644600818806 0.034562105544938784
0.01190587299139761 -0.013460858406993414 0.03403882413841684
0.003988279440165153 -0.019360659320139664 0.03253201868234562
0.004716572224730806 -0.01926619238833182 0.032670853880732695
0.0046043475469035085 -0.018902444903941825 0.03319715522775369
0.007538863952719185 -0.017526792569084706 0.03391825757297818
0.006832016185896522 -0.017683327761747133 0.03403885610663747
0.013777149989068234 -0.016381393731533918 0.02945367985669687
0.007257570955169587 -0.016098770604521237 0.0349879190461644
0.010692860218242901 -0.015372425778272334 0.033739231447920966
0.010549885636279165 -0.015133702763872721 0.03402528963477966
0.011149137154947962 -0.01651514344829864 0.03275511417151465
0.008183669036301765 -0.02023172923869134 0.030165310524402144
0.00895619608404573 -0.015374143784082878 0.03477600643501949
0.009124910113831096 -0.01457197802563209 0.03518524069215445
0.009907873663406078 -0.015527083386303944 0.034187686324830845
0.010952654895437447 -0.013461789694283237 0.034559872866877575
0.01060756917049056 -0.013404123880772128 0.034933258081358345
0.007320136757874498 -0.019517107488170628 0.0316798624933617
0.007427112924351916 -0.019577335441263364 0.031472051049399014
0.009410006850119688 -0.020205652098481807 0.029572367481594877
0.00890041292998054 -0.016963303595097984 0.03377699906145471
0.009386102306163366 -0.016994363694915946 0.03346267328679109
0.012120467505966234 -0.018723781573027152 0.02905265076952922
0.0078122472116685755 -0.017153160136499465 0.034018573964344476
0.006141421466647296 -0.021370209603437645 0.029100203036158286
0.0053033481727725205 -0.021323968026017527 0.02933313324854926
0.016731807640939806 -0.013233827113387107 0.028481066516500363
0.011163065982638925 -0.018349760593067067 0.030673521636332732
0.011277221459773074 -0.019549047116697457 0.02891695998484179
0.004270303987467764 -0.020828823815941734 0.03052786687086053
0.004329407047605685 -0.02089432486939099 0.030417489200270615
0.008957445994728884 -0.013865527817013185 0.03564550900008446
0.009378431658830184 -0.013799137376530119 0.03548387979983978
0.0042614870969022774 -0.02214590015653532 0.02804390404828093
0.004475767489696068 -0.021900076489362492 0.02862587061465053
0.013164390164733053 -0.015806413565032262 0.03117259911275308
0.01293583513756306 -0.015942829260490475 0.03131903566180638
0.009111730242206729 -0.020035804783582634 0.03012455215557486
0.009123407083338133 -0.020028219381709678 0.03012554444367526
0.016432681624652012 -0.01745798006320989 0.024164060472187793
0.016088912810863318 -0.01762827311343879 0.024463015328112507
0.007974717306362573 -0.021498006904261416 0.02846209583719328
0.007399975317003741 -0.021265227237971838 0.029224335640477033
0.0050943880904936786 -0.022688806132877395 0.026967240248243277
0.004423200760805078 -0.02237983153641353 0.027500848099074465
0.007053068376491155 -0.017094013563205807 0.03436162935485462
0.017817699136096633 -0.013619425695632431 0.026009655235117453
0.011197367931243287 -0.013504104334635874 0.03432553496745283
0.011191397732139726 -0.017140723743193337 0.03211192494595841
0.011954860648735466 -0.016424605315509953 0.031982367405853585
0.010284992268322808 -0.01790377481479364 0.031876461620890126
0.00545982741383833 -0.022848588687316554 0.02659428036251862
0.010176580487064187 -0.013872425253980424 0.03507014785707674
0.009789858959798437 -0.01445815934709314 0.03491063015244962
0.010094571181780043 -0.017666316368869082 0.032187440046267855
0.0127947006161644 -0.01948165978287744 0.027076949261159906
0.011463012462684611 -0.02003329459250775 0.02767022334827158
0.011162993992136222 -0.020145271145944485 0.02782733820002782
0.009821930015224961 -0.017856339757940216 0.03223301140614449
0.011615334917954342 -0.020415914315962583 0.02707270818130017
0.011837215805941948 -0.020244935413597315 0.027082051370983316
0.010681441004474674 -0.018807901566228323 0.030384354384718166
0.010625968746970426 -0.018962760880611766 0.030271868542801787
0.010629887127488184 -0.019542154414464535 0.029671265739233593
0.012318584790078637 -0.018408872157570897 0.029323222754835433
0.011478929690728593 -0.01414659289903103 0.03402890535434981
0.005414620440710503 -0.02113159570120112 0.029663854664920677
0.0052742493393692046 -0.021162061540461668 0.02965492697479818
0.015835415507560534 -0.014996600748256993 0.028185023938569708
0.01656313302572979 -0.013835051340416056 0.028229503080518657
0.01641241956754004 -0.01365808636373343 0.02867598306125904
0.016457730698535747 -0.013446823420726157 0.02883039197074617
0.017245796602346136 -0.014481447069060197 0.026254177708783542
0.003521592633313453 -0.020377614527091987 0.031264994168662824
0.003033049155884277 -0.020167033309603732 0.031500744683622905
0.011335849948119014 -0.017837136905635275 0.031175958979529045
0.012150361526915135 -0.019569420146093457 0.027601410105621938
0.006736303488591723 -0.014855350583028235 0.0357578561471892
0.0065410642914922774 -0.01488939992928267 0.035768707449591
0.015583751760899451 -0.01369053617794361 0.03021265017989961
0.007179038697827628 -0.016461291687915477 0.03473680555903476
0.014899225893596293 -0.014771550121113504 0.029848418366685926
0.004260435422659182 -0.01756825008161087 0.03457252845028923
0.010525218655841575 -0.018640274553836628 0.030788076410424303
0.015848777818655138 -0.012882516318722736 0.03034327557630842
0.01573510139233654 -0.012390487193005754 0.03062012477476707
0.010735952164020915 -0.020277031814771435 0.028096626240204828
0.011102730661833178 -0.020004778700807607 0.028113094446749587
0.009359022236364497 -0.018227392692239375 0.032237902244842145
0.007479224708321232 -0.01510239751007603 0.03546468842898948
0.010408540775834106 -0.019851810395315007 0.029334072062058826
0.010742924463499495 -0.018421312597447975 0.03094384421295808
0.011634901480171858 -0.015596280890986742 0.03303420729936144
0.012729704647489307 -0.0149916850461093 0.03240432797188205
0.013785450764603933 -0.011409183592846253 0.03347429262695512
0.01369865594717098 -0.011744490896971532 0.03338292817836004
0.014740448161154548 -0.010199986824038328 0.03315673899274428
0.01422483099322955 -0.01114475569313654 0.033118676630176855
0.014664834342882557 -0.013121828413505275 0.03138797169342221
0.014400989320458602 -0.01337474366275838 0.03162918669951325
0.01429792086053162 -0.011880836509200327 0.03270183033638802
0.014535698013163916 -0.011952129163451675 0.0324903724421239
0.014677727215943924 -0.012755850913652476 0.03182964551501989
0.0038859864548862334 -0.019624140135558146 0.03221446142714923
0.0037633274455103186 -0.01956991811207684 0.03228704151223109
0.014776252471360678 -0.01202219794415725 0.03218812615291139
0.012931425805087708 -0.01273439502061956 0.03359365764041593
0.013184686869826774 -0.013899540284624624 0.03272406531301972
0.011164603856716974 -0.019425374082525204 0.02952960157632034
0.010485651345794215 -0.01936582155525868 0.029972471043665072
0.01477977514135128 -0.010325909922794078 0.033024982309974714
0.013703509728897003 -0.013044318820621341 0.03271257228994279
0.014747614472461548 -0.011006305937700519 0.03263393155206893
0.014016800578343867 -0.013437247549003835 0.0321756474224404
0.012855634023306129 -0.013693748372524444 0.03311040613046597
0.004542114348915361 -0.01883510276831471 0.03330660996363344
0.013446687294732066 -0.01398433388829038 0.03240883282809791
0.01329086762151559 -0.012138567390858225 0.03367260359858057
0.01180689285943264 -0.017425794778132223 0.031126368722062692
0.013332187352539243 -0.01454702379732449 0.03217579724335649
0.013453728907561923 -0.01496935181297009 0.031611935725909965
0.013485732133689662 -0.014519436385403707 0.03202435065587017
0.013446272240334622 -0.013051922476351806 0.03291615908658431
0.012138926855622564 -0.01428964239366149 0.03344147770750911
0.012431720927036144 -0.014375631089792864 0.03308753318856516
0.012646540661887723 -0.01456923576368898 0.032769672276981396
0.012916266779006027 -0.015594624176857325 0.03165397758025381
0.012856777906243066 -0.01569253793295226 0.03162120499736056
0.013007700397968551 -0.015030847097290002 0.032171270269818926
0.012487534760248477 -0.015770694038092573 0.03201481156007205
0.012024424049612376 -0.016094062892154804 0.03225732161900186
0.011964614400704404 -0.01492076424775586 0.033146726400260784
0.005896098594597248 -0.019795707490324943 0.031638767015835706
0.006040366067006122 -0.019872735542775407 0.03143593326541608
0.013927708385833525 -0.015470376364313755 0.030524372703081733
0.01404873279821972 -0.015161273670863966 0.030628516322695212
0.015395192682192738 -0.012849621008372678 0.030794422868256066
0.015772129472298165 -0.012054905384544144 0.030709155224868886
0.015831407835085354 -0.013978678053991302 0.0294372001461915
0.01583170368524187 -0.013990628296291253 0.029421437571862632
0.016637063915203937 -0.013064527802913038 0.02875919919510748
0.014950649619136006 -0.011422206253834586 0.03228511684125694
0.004362564782721036 -0.016325607945971238 0.035422091682668654
0.004915812835302207 -0.016956366579847233 0.034919928199647114
0.004467151563052718 -0.016547434004120284 0.035258689481729666
0.015004858820669301 -0.010341582274893292 0.0327518798506386
0.008278299743221333 -0.02251538853386769 0.026199566200233098
0.00765191258121233 -0.022786456643580352 0.026367305894964232
0.011855189164666885 -0.01891089852975906 0.02919455191343031
0.011745897556478552 -0.018847535783718457 0.029472793865390312
0.015174226706673424 -0.011932176734957492 0.03170636721425109
0.0069535466864498515 -0.021445429417488695 0.028899473903755406
0.007170264375422978 -0.02139656722564521 0.028999423591116257
0.016687142285935968 -0.012316854652588815 0.029202036120080467
0.016687192292381938 -0.012253941537020564 0.029252618585545908
0.01625675366799025 -0.012879089282652197 0.02978607812476141
0.016205326728224 -0.01250416113642627 0.03008325529162963
0.01608081536308681 -0.012215839053556112 0.030307218753350223
0.014796231541236111 -0.014218364021070656 0.030491149286269795
0.006338641687454481 -0.015357407939470285 0.03562284868197533
0.014636209702711397 -0.013590871296258397 0.03102833573180976
0.014905798446184485 -0.013901262973329954 0.03060683799997485
0.013530133384433707 -0.016309024811549444 0.030094852342347468
0.013287586406612747 -0.016505622672833627 0.03019705507164684
0.008492101206142244 -0.015227771301739294 0.03520156940433408
0.015586317747092269 -0.014103253394375 0.029749270089013843
0.015367327945868718 -0.014117394106174094 0.030093150983626218
0.014115874115704717 -0.01440899297237478 0.031105257432438298
0.014445943277562939 -0.013832528026646525 0.03108508312311515
0.0146450462660105 -0.014697981055590004 0.030319043115806556
0.016995855853200893 -0.012774273767311611 0.028225676621954278
0.01730377237726784 -0.012612282269216802 0.02798645600290034
0.007370891767302631 -0.01583014912456213 0.03513207822385651
0.014963031270723562 -0.011819750008098992 0.032057715450576424
0.008098392544293495 -0.014205606449441775 0.03575480382159971
0.004235084214287369 -0.021407699227983936 0.029342068267994653
0.004499513595529673 -0.021275879961841812 0.029603029264352588
0.007320898972968462 -0.017501187066334394 0.034021440944978686
0.011658127164894363 -0.0195310770913679 0.028244325168366224
0.008205239530543378 -0.01643082420253359 0.03430427224291864
0.00933497549794873 -0.01792630795381602 0.032627352164930734
0.009308186296172808 -0.01793502395302344 0.032643420645917444
0.013039072802894952 -0.01711644766451716 0.029716288753767615
0.01632784049137049 -0.011716401141955688 0.03027647415148939
0.007053286000139529 -0.019154604944672173 0.03230563972049405
0.007726892010013473 -0.019175236280445516 0.032122642312547044
0.006156753424560654 -0.015593947347648414 0.035522318410421166
0.005886659922305595 -0.02280132420531378 0.026514081761514215
0.008688928464803309 -0.020998766147215804 0.028767221728810896
0.008760013534038418 -0.021094317519850046 0.028484621073009225
