0.09756827308270033 0.02146356982909746 -0.12622216010275905
0.0977551676315495 -0.028040353403281575 -0.10617369188000249
0.09849916956744892 -0.006163433207175786 -0.09787272887655846
0.09711510176771315 0.028589759979819013 -0.13545741672729916
0.09848008574076468 -0.001617372879774147 -0.11281047537501585
0.038426230693283936 0.03917018426723509 -0.0766728225256364
0.09820390873079807 -0.014406535822603338 -0.12383584321635545
0.09715806586724432 0.025831487843502893 -0.13103870551850444
0.0972247813749781 0.025192611507664567 -0.12671453389704343
0.09846937169940916 -0.0012861016798852757 -0.11490490529779848
0.09700401060086447 0.030216481372892966 -0.13187789097301375
0.09719108891345708 0.02530808990638085 -0.13031569875173016
0.09835731242012632 -0.013637957040669316 -0.12132286565242129
0.0981986950883584 -0.017084490098288756 -0.11413749890990021
0.09813561817574536 -0.018380422630503764 -0.1159933443168791
0.09777303036598517 -0.026657384339465028 -0.11454060081059461
0.0982898563787614 0.005987200463352668 -0.11715897229958494
0.04228434190720394 0.03901589878428647 -0.07024878132912546
0.09827047035491124 -0.015308393485374645 -0.12312284974548533
0.09788833162137531 0.016978956153006573 -0.12741297124906772
0.09799438615743034 -0.022267985692189792 -0.11068143860952934
0.09832884884217055 -0.006496590415371565 -0.12160058992953324
0.05742895805237012 0.03788997622980121 -0.07450564274193598
0.09826261144124125 -0.01659012535567366 -0.10305896253883302
0.09715872835282408 -0.03080710889209049 -0.11568958492649895
0.09847800447829261 -0.008732883694023894 -0.12170855571810951
0.09840414451226695 -0.003936442518603752 -0.11689208985288328
0.09835843532474405 -0.016955616461591362 -0.09475897491136377
0.09788334110121281 0.01659249352975372 -0.11828627644483586
0.09828818818887633 -0.013179395702187935 -0.12024354638262384
0.09763705507680889 0.022553049122066474 -0.14153308865238207
0.0984477958642789 -0.013273677146722583 -0.0947915500540902
0.09777221574669148 0.021069077586689938 -0.14239032232968407
0.09834153713332802 -0.004139316825754836 -0.11785377508045895
0.08949167153658903 0.034438374367664344 -0.1494742477664686
0.09046556839160426 0.03443999222536983 -0.14993762598084773
0.09831122699054616 0.0012100608117420765 -0.11608097034713143
0.09834675087760689 -0.0017802341865474742 -0.11757900124861431
0.09732565450451675 0.024441872591830102 -0.1382953832895577
0.09816578926260491 0.010562536119082139 -0.11985936912103873
0.09831516329492028 -0.008925764363251076 -0.12373508003030789
0.0977707337166325 -0.026738313220816462 -0.09806272743532814
0.09027715121582153 0.03385866781267085 -0.0843407045877992
0.09832884138026741 -0.015299687426005558 -0.09993115860616612
0.09835900153280841 -0.005873600571272576 -0.11398729330399977
0.051986922307503076 0.038484275207720846 -0.06815165432480576
0.09789476427186626 -0.023918434999233643 -0.11268741589354045
0.09788086150795278 -0.0244066748805281 -0.11281556494308678
0.0980751923972505 0.01307787439507255 -0.13132936025897246
0.055622451361226836 0.03799249719961228 -0.07170050901676156
0.09850349905564999 -0.006546213196023923 -0.10069690250079154
0.09316353660046302 0.03392268605405997 -0.10849790657778491
0.09832018730959341 -0.006313537670227643 -0.12120444572966599
0.09773832033189447 0.023644713292141226 -0.14665113451649667
0.0880855340013601 0.03491504885089945 -0.11693472305865465
0.09815512083790418 -0.021230088903355586 -0.10325802785044567
0.09829400384209709 -0.013352153284592942 -0.12294656566747146
0.0983486027424226 -0.011815746818706856 -0.11794253070899552
0.09768305960164672 0.023250433979929916 -0.14402158969667786
0.09755805197795997 -0.030463352570285405 -0.10251395424221738
0.09792525633890774 -0.024386868716617202 -0.10282997494120423
0.04935446428930628 0.038539014116316966 -0.07896472492922281
0.09741104618487681 -0.029762902642225912 -0.11695055002072935
0.09797800777558732 0.016994181883852225 -0.13833168219701508
0.030079285906435136 0.03951722167247122 -0.07128600702768648
0.09822446441736347 -0.01564207970773735 -0.117339555168264
0.09270874984024312 0.033493456644698646 -0.08279493122304546
0.091828869630728 0.033646485394954385 -0.08195904026592107
0.09832538825122686 -0.004190046229437127 -0.1210847249202334
0.09797638423902577 -0.023447603301010728 -0.0996375605817397
0.0976526641740065 0.019817121140124173 -0.10789642085784665
0.032446193951124 0.039377742049487595 -0.09371386816265818
0.09771920139075875 0.0195184921407851 -0.12346922628825661
0.09787851642520144 -0.026316158972240225 -0.10395389615468516
0.09837522991654662 0.000833796610489108 -0.11818671643057771
0.09769684156795067 -0.025756503790836383 -0.11038588774279286
0.053907034403795434 0.038278016509979876 -0.06583545257368077
0.05346401671170249 0.03835978590780251 -0.06734652383393505
0.09803594698865385 -0.024631787433106924 -0.09567775834457647
0.09773304242097557 0.020189479187851862 -0.13151454274244104
0.09317912230229639 0.03422722923629356 -0.1350378677070396
0.09834531183915754 0.0010054574810729065 -0.1191420192652069
0.09825635024030299 0.00590583202766105 -0.12042572230440576
0.09060274137854783 0.034666573811743276 -0.12570748568038365
0.09850012610653731 -0.004764883975511029 -0.12466053982643939
0.08899167552800402 0.03449081475950907 -0.11504783344801336
0.0979196474742029 0.014094019079820493 -0.13214111332365408
0.036868025651487404 0.03910458933493974 -0.12173027179017253
0.09811407927015386 -0.02117660246206785 -0.09749001147867006
0.09833167522263342 0.004128061883687133 -0.11659898835252094
0.09776995999426814 0.02032379364832565 -0.13497617161925937
0.09826364750629986 -0.016830567614890202 -0.10079121193931923
0.09836665308167244 -0.011394062069460973 -0.11862915272424124
0.0984134771077752 -0.00718397657533638 -0.11465173564885003
0.09837329811078784 -0.014094177061193853 -0.09818646975487064
0.05261638126625288 0.038338154102952535 -0.07305476363759345
0.05099962174947615 0.038352840932221 -0.07408673415449249
0.09841382254133471 -0.008064087035155359 -0.11515243648408564
0.09823645642235615 0.005573237919379845 -0.1235059326895812
0.09815767158261372 -0.01867890692779104 -0.10992703720852033
0.09294854230255477 0.034175722612506336 -0.13868557602071607
0.09751385004071902 -0.03007330136403731 -0.1047390674039709
0.09807821950162507 0.012386374325624325 -0.12225151530406506
0.09817445346936536 0.009876299812070232 -0.12134058955923854
0.05254989490043814 0.0384103622072637 -0.07688400350610078
0.09858372906830812 -0.008573863684427363 -0.09430138922196638
0.09804897555290884 -0.02119442248357902 -0.09873811912095812
0.09797895540797842 0.011289678959553087 -0.12326461303294282
0.09832984715311387 -0.008165711542899258 -0.12322738077965581
0.0985678990979269 -0.007282532004564437 -0.09344646983612258
0.09755938141312748 -0.028841950612106225 -0.09927618726538828
0.04962431622155734 0.03850097012243536 -0.07013782328633147
0.09824678036320716 0.005847286513485006 -0.11859143803890575
0.09819265473634542 -0.019514272417231485 -0.09803258026755163
0.09781046040312778 -0.024688378244489738 -0.09932649307272595
0.09794421822201738 -0.02468892974032474 -0.10402217345517677
0.0978903838517631 0.01886645606466281 -0.13772351587047846
0.09800136091097612 0.01764806650565804 -0.139077839600318
0.09796004694697061 0.016118612616011524 -0.14185181371219124
0.09852380456425475 -0.010387873075777614 -0.09533457206875853
0.09830414787330949 0.00033099898898115895 -0.12388706052723396
0.09833467188540221 0.007553295256967935 -0.1255045802899026
0.09845712596105996 -0.009941322074210649 -0.09765136617146111
0.092376897940417 0.03396809141938273 -0.11700111692318024
0.09788523749220882 0.017616076384841427 -0.13172719107237235
0.09401013771293948 0.033175344891752966 -0.14977848763672788
0.0979885695522901 -0.020324160615054238 -0.12166533124431139
0.09828016584254208 0.007209778545610464 -0.12940795785539472
0.09822324501517665 -0.019302263343806393 -0.09662050767112189
0.06966432896649953 0.03778740605554324 -0.1338253814668766
0.09820000879456853 0.01087783144889614 -0.12871731709672304
0.09802996377437022 0.014489263027778858 -0.1251322143094383
0.09851758625830816 -0.010310053541465889 -0.09281554317017984
0.09820284546527847 -0.01856689024167446 -0.10650604990579811
0.09832447452086573 -0.016214257644911856 -0.09843067519656416
0.09824089977342339 -0.01537382224267247 -0.11506323476751204
0.0971602315484546 0.030518533082407717 -0.0856248133070722
0.09847173348847378 -0.01158603057264922 -0.10053543765465708
0.09811554882006085 -0.023596429505337423 -0.09864852343025876
0.09796586414559506 0.013650784769750481 -0.13551331166554498
0.09826624381772273 -0.018024182376311832 -0.097575934486752
0.09823366798742891 -0.018782169850516565 -0.09737926651958412
0.09807609974190049 -0.016392637342614397 -0.12152705109007769
0.09858025296099872 -0.007893888366041971 -0.09318276082230245
0.09842281352726295 -0.014534723884193877 -0.09718643431913089
0.0791170786588855 0.03630638151179155 -0.127978786541626
0.07888052745558115 0.03630847435328854 -0.1271260340810837
0.0967916803506598 0.031991051721167695 -0.13923370574200322
0.09824814996006234 -0.01805455741699333 -0.09859874463044674
0.09745867904652317 -0.030647714610678244 -0.09869504235843726
0.09836371849276315 -0.014163502036620998 -0.09908419478538141
0.09809010268953296 -0.021727993364008453 -0.09662342060269838
0.04074912659334441 0.039038562976604116 -0.10611349029298504
0.040492728208986986 0.03906760785324712 -0.10682649548457154
0.05643264797591179 0.037941479371961434 -0.07293276283948373
0.09845164193862099 -0.012281264546323372 -0.0962032179815185
0.09792173151821662 0.015876299116018774 -0.13125611481586463
0.09836372447129192 0.0008401977421404416 -0.12487209762919255
0.09773320994753887 0.018223059450329947 -0.12407427927716848
0.04810777636699785 0.038705695356183734 -0.06852017316101956
0.09845019915163532 -0.015166770957668956 -0.09241419941843612
0.09623120748937435 0.03243629326902202 -0.10865441316965291
0.09842907228037402 0.006955565548994205 -0.12502889609484663
0.09843210411471617 -0.012890730012653843 -0.0968371159361553
0.09790194780791353 0.015417398293400515 -0.1218230152040595
0.09837646223766468 0.0013127359227849901 -0.12456213778527997
0.09813549637879009 -0.022190949955982975 -0.10450417209482979
0.09768348634240916 0.020269282413311475 -0.09772594196746731
0.09843893497215633 -0.01279326181991678 -0.09534943744385796
0.052555158519908135 0.038641568895411815 -0.08205943696556402
0.0359065032517477 0.03943589394138365 -0.06056836674904999
0.09703215326545414 0.030649084632395476 -0.1370735057957761
0.09834374870392756 -0.003521231229733272 -0.12309545973024907
0.09840977115844982 -0.003085545676147322 -0.12455143628792804
0.09836564721906195 -0.0015598593612871344 -0.12393480942529847
0.05439826266927762 0.03807045518548278 -0.07408472191751293
0.09823564740297881 0.005263405831996356 -0.12263675248576529
0.09764363618816857 0.019733185684239776 -0.1091376134951353
0.09751167039470875 -0.030646277914009513 -0.10250867255031905
0.0981050623209805 -0.02366334508640198 -0.09850866632579262
0.09735773325889148 0.02464617024358039 -0.1339694875687313
0.09780419272340632 -0.027027197919041214 -0.10265385041174308
0.046881532714048366 0.03877887202816059 -0.06823975550165401
0.09797369802671763 -0.023633550030700088 -0.10121144162844155
0.09796911913599435 0.017253848655810193 -0.14193714510961436
0.09834596307373297 0.007281443595989254 -0.1256849361970455
0.09803173152050051 0.013361488865429039 -0.13336464415621802
0.09854593773665479 0.00024330719380514653 -0.094421808652705
0.09825158250273497 -0.015597972429751432 -0.1181908307181794
0.09775879745020075 0.018904757856771627 -0.10335406478965065
0.09824520834831862 0.007023973211116859 -0.12702969323482663
0.0984410316767376 -0.014883795369008234 -0.11226515373985785
0.09801489873949519 0.010950925527348006 -0.13035835986743421
0.0907907319504769 0.03427661774278901 -0.1123831873487738
0.09760794080185675 0.023885266529307243 -0.14104685919237703
0.09801403989972024 0.018863931567022003 -0.1420137634595877
0.09834944248466156 -0.00267608756129727 -0.12205402772491172
0.0974742049725229 0.025311531727245682 -0.1359515439547054
0.09800871858453754 0.015666714404642634 -0.13559997689341752
0.09835990863940297 -0.016354040147442114 -0.10533092496203698
0.09833882211424191 0.00605191083012128 -0.1278508549201588
0.09822932825314966 0.00501010513171615 -0.12186782433792955
0.05255499462617739 0.03830525486466443 -0.05873000741802002
0.0981197112478024 -0.0168570902669977 -0.11642733920979585
0.09784500816585162 0.018338209992644544 -0.12820982926909372
0.09842301470637296 0.0009852724942743417 -0.11940826949413841
0.09838283282790367 -0.0039037493301114 -0.11017889020432567
0.09823882329672748 0.006952981105255528 -0.1325781606384242
0.09767291896535236 0.01942781003790249 -0.1312606171890711
0.02552669205868964 0.03806296268973003 -0.13812269222458234
0.025449025376278585 0.03810390267739884 -0.13775256725210303
0.09826053218062034 0.009907346009769448 -0.13457826964301034
0.0980872538594304 -0.017382814335601727 -0.11710386033337251
0.09765486824530865 0.020283704229332802 -0.10298862973918765
0.0975216122782572 0.0212530195999766 -0.11272069714696
0.032869146626171346 0.039501575442924236 -0.07398451391696906
0.09672286631757754 0.03211528640510981 -0.141587947487114
0.023134999802224988 0.038826288099319574 -0.13167902932690864
0.09766730557247562 0.018905039839781843 -0.12165576753692213
0.09300273336562578 0.03394961773471955 -0.10341451509946022
0.09398523770541758 0.03387319418405248 -0.10203977030216889
0.09773401712430407 0.017203730454819897 -0.10807605206689541
0.097700119434151 -0.03028088800105869 -0.11110330078412063
0.09752926904435141 0.027057363218726038 -0.07600517703093937
0.09843932010595385 -0.0021151404563169223 -0.11116880061081233
0.09815568539659245 0.011998439734970077 -0.09524273098908861
0.09803942206932997 0.01173795810902721 -0.11404983404650118
0.09801561951906773 -0.01995639415599337 -0.11884473391318837
0.09845594071764012 -0.001980563760844124 -0.10742131002070898
0.09781550089266054 0.017979460068120703 -0.1342554895557524
0.09810946085349254 0.009506029692014186 -0.13300752681008493
0.0979877109608699 0.014010926839803307 -0.12103584234771009
0.09832323345182453 0.0059846657962163066 -0.13088564399492053
0.09742963644510491 0.028429599360035016 -0.08347204095324331
0.09737617734898793 0.028436855341396554 -0.07401501577050767
0.09824032072808542 0.004422878742105179 -0.13129475498348414
0.09762747721256482 0.023059580854533974 -0.13538000398331998
0.09798769339462168 -0.020333819232084348 -0.11377036190983902
0.09769690185800683 0.02122514165248922 -0.1355740811772103
0.02441385808617416 0.03831082186478184 -0.13540519526048858
0.02548596226898971 0.03831452115352202 -0.13548377431559702
0.02542938566279512 0.03914840655137304 -0.12667837010769348
0.025063816628503904 0.03925352658722063 -0.12458700142530446
0.09806275650457719 0.011020234675718884 -0.12521356867533656
0.09757392082220137 0.02397462873226858 -0.09684259251515955
0.0982162361119611 -0.01544710347392146 -0.11398786244833715
0.042043935122332274 0.039028507837542074 -0.06799875817023501
0.041417267831900466 0.03906466264360005 -0.06852044398346237
0.09815502640098402 0.007876317011603075 -0.11531496329419837
0.09772409119394924 -0.027414640956125072 -0.11626166597423077
0.09035643223384567 0.03465372466886425 -0.12769733441909806
0.089180390560745 0.03389771336467335 -0.08092969411980022
0.0982767930092329 -0.01383259787298555 -0.1165313267059041
0.07970270065703439 0.0363173494718494 -0.13053209692198683
0.07878045721736156 0.036484845062702546 -0.13114483293689758
0.09776606602484068 0.01927753785597673 -0.10081787337475408
0.0980853892314856 0.018394407194449867 -0.08509770600204272
0.09556337845698505 0.033073769003896414 -0.103625450453567
0.03397406977658534 0.03942567120480872 -0.07165123110586491
0.08005484635485374 0.03611435119683261 -0.12664960685052631
0.09852744296461818 -0.002828053255778573 -0.09979954481743128
0.09827845321133274 -0.01631566310256094 -0.10158555298379869
0.09808671528238214 0.01234305790897271 -0.10779712477350487
0.09809561356981833 0.014950677831424952 -0.093974120016138
0.09794756829478202 0.01495891406680153 -0.09716706017122317
0.09828844583639412 0.005188065862210772 -0.11391677473531676
0.0970390263620838 0.031266641884340446 -0.07754020025442447
0.09823980121615437 0.009098595704783406 -0.10724917073042059
0.09744039337886812 0.027419548667495002 -0.0743901505349429
0.039291191047034546 0.039053774815758516 -0.07421270204558147
0.09762083655486553 -0.025828321761723463 -0.10882555105131718
0.09247251356095497 0.03403517410207181 -0.11292821802434495
0.09800734316939434 -0.02022327983604592 -0.11751917535186654
0.09672593841215787 0.03178133569403044 -0.13464490882111227
0.08840551648936437 0.0351054065865182 -0.13542095136125512
0.08928108821072386 0.03495869681421457 -0.13536825576329647
0.09801535705068751 0.012647291005755323 -0.10697059546540037
0.09797245965799319 0.013511712245435157 -0.12742914677895828
0.09840435819574529 -0.005735630650878895 -0.12241238155596672
0.09815064355238469 -0.017896458114108792 -0.11453613182679322
0.09808170514779158 0.012843940928266972 -0.10119736319638781
0.08912241534106605 0.03500195904098442 -0.12232681237343196
0.09796373634117503 0.015715427266717586 -0.09555132857349247
0.09716851118814429 0.028268154095231916 -0.08905973114487374
0.09714178477848397 0.027035989439272635 -0.12774435118868735
0.09823089556336378 0.010127226310445207 -0.11669760562439138
0.09798668279562539 0.01367003531971056 -0.1112273133610093
0.09810018457758721 0.011734449485091 -0.11132716023241096
0.09670332283444404 0.031623023261396786 -0.11741531731710142
0.09820368979769445 0.007858180015634002 -0.11256919841042919
0.09668927297338129 0.032088823735983124 -0.12272050660267465
0.0982217303267526 0.006169873475604444 -0.11119026091977408
0.09834237191488715 0.005745474453120103 -0.109325677203226
0.09822048060191801 0.009321158552738176 -0.10945115456680425
0.09817528078938381 0.011223503198662747 -0.108799310729669
0.09019418339232912 0.03393179412169789 -0.07987375294594341
0.09834558664520812 0.003045084148180216 -0.11254876378893713
0.09809499837583284 0.01112103378978418 -0.10728649588766158
0.0983416173522804 0.0007659567657211727 -0.11089825301581585
0.0982570924159288 0.008642290864692495 -0.10618952658070097
0.09837884933274077 0.002879950254242099 -0.10686497016577037
0.09816901596513018 0.010015943633688568 -0.10535487677654763
0.09826790941154259 -0.015299460473324648 -0.10846903324182501
0.09819240068334577 0.014607031912183053 -0.08729525986537154
0.09834393502587686 0.0041121203635543285 -0.11376372692692859
0.09833928917470469 0.003972412975549294 -0.10447649384603475
0.09776141782935724 0.01856880725593412 -0.13002407590145265
0.09826909657560125 0.006653566952581835 -0.10306106858896696
0.09840791222200704 -0.012277624764772987 -0.10448050414390411
0.09839275981507128 0.0003981887172910597 -0.10724221621706023
0.09851874774330083 0.0016923716959429407 -0.10496605717644941
0.09840936146287096 -0.011428306015528345 -0.10322100835425127
0.09834653555532347 0.0028255599167792914 -0.10297424342884921
0.09827074180501273 0.008091667428049596 -0.10175528462462818
0.0983965261558709 -0.0001625884762994076 -0.10672375981018659
0.09831152249923693 0.007016068526298052 -0.10179160280276134
0.0968932133200006 0.029514768798908294 -0.12159334007502542
0.09835101029737442 0.008523902682613922 -0.09864619206702202
0.09714389228447035 0.03014377487850599 -0.08952868149682763
0.09842823394662804 -0.0005761480874348455 -0.10349107081078075
0.09845341146243489 -0.004132819160748459 -0.10752023944749607
0.0945616044115075 0.03347879116958997 -0.12376760670640892
0.09841034909508117 0.001917438819056327 -0.10179656095052017
0.09849301732774723 -0.004099217135896893 -0.10230398629472472
0.09827686632682206 0.012325354732337142 -0.09206604262852026
0.09844074397538752 5.423146760064476e-05 -0.10211400116245145
0.09832567802126245 0.0017726315895202093 -0.10070691624007574
0.09439789366289947 0.0322253588582086 -0.1501674883428415
0.0934779850558799 0.03132403657833603 -0.15014196440612568
0.09826298796732708 0.00794582602745112 -0.10601620949502819
0.09850996062358149 0.005550978878235813 -0.09520008093910762
0.09845499046593334 0.0008347142075377151 -0.09971659417640498
0.0984945369291699 -0.0029787579022393963 -0.10038418108467059
0.09835611494373597 0.0077104581026992535 -0.09828745567533573
0.0984957335756515 0.0041793715256416 -0.096262319157623
0.09471746075442349 0.03183012477726392 -0.15029225864914297
0.09851646572886698 -0.0022488789078468135 -0.09840123025802004
0.09849420884805812 -0.006993485244487163 -0.09685260924574635
0.09845957869564503 0.0021994343717097365 -0.09798867640053541
0.09851265806242045 -0.007584132674944209 -0.09624891980753009
0.09530701353641982 0.03150929531488319 -0.15026928517473642
0.09837083158591578 0.00229442814438099 -0.10819233073957094
0.09599330543857948 0.032941229410020784 -0.1499704724786697
0.09831323775410862 0.004285333161912868 -0.10299371065601291
0.09847434956097509 -0.006118366185199047 -0.10658292920849559
0.09862217476663881 -0.006885994790610416 -0.09125557293774997
0.09863535284816025 -0.0034401438573445748 -0.0907213730005609
0.09863330613165565 -0.005248878312626333 -0.0916075754480335
0.09863664561120881 -0.006262650825961771 -0.09083425627626018
0.09859363422087389 -0.00553273149915931 -0.0888017554635434
0.09801433023252895 0.012131830256197573 -0.11847021383707074
0.09119525373101947 0.03172934633765074 -0.1501325585994842
0.07412869348467876 0.03632792168619948 -0.10092341368423112
0.07397450138754308 0.03633399414700736 -0.10048694897163953
0.09851398734314265 -0.005360146654967596 -0.10121049363536508
0.05595428156555149 0.037944793944293606 -0.06993648963227114
0.09846974039807119 0.0024507971783391666 -0.10500563295315671
0.09849120625302073 -0.008117646202891723 -0.10234488825958671
0.0923953385833258 0.03224028056173407 -0.1499719479226625
0.09233145792891419 0.03358730777612687 -0.07473088232056271
0.09071481160447711 0.03384559512869285 -0.07639967821548815
0.09838519224474128 0.00500019704778852 -0.10055868761862649
0.09833288202703581 0.004812576353977011 -0.11028182180312901
0.05194366828358084 0.038536649252022145 -0.06224678215552122
0.09842427088847816 -0.002052308656257633 -0.10244735391903394
0.09844838709258347 -0.005919692245468689 -0.10754447868675122
0.09303827188605393 0.03354258753730697 -0.07760255715527586
0.09788430957718168 -0.025790894890658243 -0.11355614309203192
0.052592743854555465 0.038369941148796535 -0.10295741516031692
0.05576250159479115 0.038094293629181715 -0.0612119023865286
0.05473131830303708 0.03823700952825586 -0.061881357593079625
0.048089614614147624 0.038660579684376965 -0.10263241158733742
0.08638354630781908 0.033137641629971404 -0.14978009661693825
0.09839597959547361 0.002592420309483822 -0.10197944808733934
0.09824749804461058 0.0017672623833056096 -0.1154942864002009
0.0985359768322684 0.002294572828805462 -0.09661377164454578
0.05872301665065301 0.0377880410577509 -0.07072446242302348
0.0982593354600615 0.005839621675129503 -0.11500430988618804
0.0905533757245677 0.0339266461541132 -0.0796510477718665
0.08533483084851144 0.03338275397852018 -0.14971216786121064
0.03331304294356391 0.039274670427732236 -0.10896310795873078
0.09730886734143648 0.027131136888206512 -0.10213072935239886
0.09831324105523605 0.0026848315871779915 -0.11056862855486957
0.05637500872550941 0.038002749743410766 -0.06458050763206113
0.0558097436483934 0.0380441580647391 -0.06646936099774872
0.09739256834884738 0.030448533061385955 -0.07259258291335463
0.09751115532970869 0.02783996121314969 -0.07935439157136004
0.05480205612090602 0.03817223414996627 -0.06756053084633903
0.09834204256427256 0.004238015918676345 -0.10631189505428416
0.03982698279285793 0.03910890867233177 -0.08483526989729873
0.09836158653319996 -0.0003663748371417658 -0.11889682496682737
0.053395020170262 0.038298866263479184 -0.09894910543460375
0.045472794264058806 0.038897900346041556 -0.10781128665882239
0.09051017593398192 0.035131337875991424 -0.14579249623023885
0.08770536857128731 0.035275217108462105 -0.14095600483849235
0.08384739687865045 0.036257588780411076 -0.1424901523676112
0.05340445679937335 0.03827962845613288 -0.07260647857579192
0.08430231445131428 0.03583199557848768 -0.140539618928333
0.08596091312657761 0.035553885386273874 -0.14137241377201473
0.0812855109463872 0.03675991016271979 -0.14403692264458182
0.08739921452220442 0.03603370464699715 -0.14687532761695363
0.09254678513143691 0.034231615772545014 -0.1441554903092978
0.0897230547317206 0.035402682393406784 -0.14746705093621748
0.0850514087057429 0.03620542227107086 -0.14395096944651448
0.08668643982794685 0.03569164785050801 -0.14272824693331312
0.05968680729498528 0.032858613694913635 -0.14925107093634216
0.09409653942958583 0.03394852791060013 -0.1441517430304139
0.08799825878536448 0.035856739157952865 -0.148278731521934
0.0886526176053244 0.035692789547744 -0.14567366152609748
0.09222115048548278 0.03441166967071763 -0.14706206026225782
0.08646359246596569 0.035575415538750356 -0.14189642724710905
0.09178627363849626 0.03456047569360628 -0.14416964067347274
0.08581213779131155 0.03611897195121626 -0.14447192339339437
0.0491895016461431 0.038918405321046304 -0.08868164702465495
0.04834332063446134 0.038831937110625145 -0.08976426080898198
0.07900620914695036 0.036831023327248885 -0.14243752990811107
0.039147000310174 0.03920601706288254 -0.08535343857986379
0.09632062665479982 0.032414206471907604 -0.11682061308603842
0.09733792676966838 0.0258976806893937 -0.10252176823509318
0.08854962040501799 0.03576084676420975 -0.14896177261965782
0.08222398383435764 0.03656935700792305 -0.1429162870892379
0.09612585491448408 0.03284736153091905 -0.14631167055764915
0.08483014287713618 0.03648652650946958 -0.145898154130626
0.08245401151842938 0.036621286061302105 -0.14386444860594055
0.09458217550004883 0.034060953966102064 -0.14840981789829732
0.09057138522278166 0.03490035805612179 -0.1417098915196717
0.08676792807716655 0.035760766754485335 -0.1433517383442377
0.09789684905591745 -0.024994830855590306 -0.0981233082248883
0.08226875395279695 0.03611417247709536 -0.14824305429324103
0.08062132751053654 0.036814039344225516 -0.14415155130384916
0.07870805497694812 0.03695571336006534 -0.1453266549251001
0.08120681702632572 0.036138683305646284 -0.14841074713431157
0.07738168581047879 0.03700560605867532 -0.14169221170114588
0.07753872619680278 0.0370350541322088 -0.14318687068288197
0.0770105704216904 0.036823878080384016 -0.13714346418560705
0.07606919798422274 0.03706872368958853 -0.14054523299250796
0.07217140964464397 0.037241618930342994 -0.14306524628208805
0.07167129558645907 0.03720507973882569 -0.14405614914672732
0.09834620383919165 0.0036643797531187997 -0.10415912952983886
0.08485211036454689 0.03577143330205548 -0.14893154973616732
0.09819766983565394 -0.014516405948203677 -0.11323946544857261
0.09848151872067862 -0.0003468341929595629 -0.10574833832395107
0.09852940993732151 0.00026279841406374424 -0.1051527413805819
0.0932998833754887 0.03422953533729003 -0.12707122273588997
0.019700441609162695 0.039366659044485074 -0.12056046267355659
0.08485671256701426 0.03366562813529059 -0.14966210159997312
0.03437403238036323 0.03942782245963154 -0.06361594844174165
0.035528181422813186 0.039449469593489855 -0.06630374785188771
0.04099311041253816 0.03905079951580893 -0.07377575352200413
0.08953687143348867 0.03485690802912124 -0.1270199073182044
0.08454039034827318 0.03556457151920857 -0.1295325527936364
0.03418447698528822 0.03950508945373847 -0.06053639349885403
0.09817450753391722 0.01240575816808537 -0.09763518365632158
0.09270502949002005 0.03396367934157138 -0.11070099639910011
0.09782782480635605 -0.024539922558395745 -0.10975528588001379
0.09750575818663283 0.022202252960594686 -0.10460742441386385
0.09365760160706504 0.03397747751766461 -0.09991646900935455
0.045642469451188855 0.038577172495911055 -0.04870428731962302
0.04606635060520744 0.038530981215206 -0.048233601351855976
0.04676713088519746 0.038407435159372935 -0.046244897336691904
0.06070595034393364 0.03788852019269559 -0.11211682196504134
0.08890345504324382 0.034205544806359255 -0.09247379410342765
0.06822969672433431 0.03651779732590148 -0.054852873624776255
0.052431109834983475 0.038496423144141666 -0.11693937865138665
0.08329933772329393 0.03507752011174674 -0.10271431976990078
0.09096656883494555 0.033567624557763194 -0.07121822461562996
0.060190377985078106 0.037935046253242885 -0.10751012019536972
0.08707863171101805 0.03464306618136348 -0.09783419029749761
0.04460300138711914 0.03860844352790149 -0.04435417216923472
0.04259553922994065 0.038706597381371624 -0.045201524712721604
0.08419854651277803 0.03506935378546949 -0.08926031382915373
0.08523051786793057 0.03477402131963389 -0.09617817750181801
0.03169289824228094 0.039498384153590416 -0.07761954875232815
0.08571950326000159 0.03274024876384042 -0.14975290859155826
0.08959988037543182 0.03383237210426231 -0.06905649183331182
0.08362044869775054 0.03481097151188975 -0.08547953545332063
0.043664493508269904 0.03896188596307506 -0.10185339387402606
0.06881240971546501 0.03653763197561449 -0.05142596617159759
0.09765103368900269 0.021308835003109556 -0.10019925205871094
0.04619411806301506 0.038591624701578425 -0.05459123770147528
0.056008387381829686 0.03831598855913958 -0.10356116778595298
0.05545568959154892 0.03796642680976591 -0.07297286417909307
0.07134225912925193 0.03628983649435128 -0.05668360314219581
0.08473619070022036 0.03447671440867352 -0.08327423871252586
0.07180801290884123 0.0374505174957677 -0.12989171975591784
0.07002208139844324 0.037600898841169364 -0.1292192935526062
0.05838080180265267 0.03791764015382777 -0.136713945228075
0.05826802520159577 0.03781893084679401 -0.13747313918146453
0.05890386257992068 0.03766475227630452 -0.14102068200110268
0.059449031273989955 0.03813626556478655 -0.13243754154356374
0.0588772907962659 0.03827661692377778 -0.1314619521685107
0.06742241379844618 0.036581130163441763 -0.04900512533379563
0.06658465032608166 0.03647971325168933 -0.04687969296968644
0.08273911438165797 0.035076337781909585 -0.07461132522883451
0.056105239909030234 0.03813672709624828 -0.09340167741418567
0.05703986041218975 0.03805573775899967 -0.09193253338854562
0.059425664931707395 0.03739540019949443 -0.04644117570346551
0.04594686751985471 0.03792394259269078 -0.1397931328338753
0.04549356574718519 0.0378418600420449 -0.14014902138676186
0.06604151609141058 0.03700749933423618 -0.058910232796058254
0.06668347072367765 0.03694698919462099 -0.05875409379145322
0.03340841325027231 0.039006892129318835 -0.12701335640276862
0.03519647449661314 0.039046478385503514 -0.12941174289439156
0.0838150401323153 0.03480770735846746 -0.1497420596946385
0.020453321786190606 0.03837768427337475 -0.13501755009976224
0.05312314125702006 0.038013287473834215 -0.049790613175346284
0.054292522095472646 0.03791773883518712 -0.04976855038786217
0.052231785656511 0.03808473384063804 -0.050412937535883016
0.05148351978496674 0.03815760886972794 -0.04966427247817587
0.03480433146744467 0.03798876073390406 -0.13897966101556408
0.054025739650621726 0.0379186200655776 -0.0525049982069908
0.05356973867822472 0.03795456469258 -0.052691469168434486
0.08319766204115847 0.034853352807121776 -0.06417546198996317
0.06877364196815343 0.03638885967256855 -0.054267847357503805
0.0716097232585535 0.03617325856240174 -0.0557321931745107
0.06843374914748798 0.036713520249089186 -0.0572368583779682
0.05537662745930355 0.03787823126985739 -0.04950040709676025
0.0474736663681702 0.03839131409848266 -0.04162432669708267
0.043902160462710206 0.038631337229489006 -0.04174670456954691
0.057801565557141964 0.0380688634963955 -0.1080170409541914
0.042099307195688926 0.03879673642001613 -0.05107602515425085
0.04213399393579368 0.03879878699459874 -0.05117091191195706
0.05814646604638722 0.037797709252991994 -0.0645453433451351
0.05616323588611337 0.03815506477746629 -0.10643782125004914
0.07442103523389751 0.03595934026104419 -0.07628003537179891
0.09782375087992898 0.018637830295127184 -0.09600099605343734
0.05206128261300911 0.038148983428617465 -0.046857167018530745
0.045400100497662105 0.03852497797554506 -0.046933655229830125
0.051834951729869974 0.03836668646336107 -0.13427263923771895
0.05374376093149626 0.038224878121871524 -0.13441769062637315
0.06281944004357655 0.03767248766911337 -0.08618376093752414
0.06034080915378982 0.03781800860410093 -0.08835233143749102
0.06260619192743601 0.03765897997332533 -0.08670453959111117
0.06467322728841933 0.037454558197179987 -0.10213914303043602
0.08098480033689359 0.03517612955748605 -0.06286185780274778
0.08179688147272576 0.03540881045039759 -0.10656592941927709
0.05664590113871068 0.03819972830737289 -0.0997121963835723
0.05740383646762614 0.038040206987699346 -0.09805874168730698
0.06698604427726605 0.037270581782251094 -0.11351345053933147
0.0416838586407205 0.0388355573046493 -0.05161877986538014
0.06715741174602999 0.03685835279137303 -0.06027660777284152
0.051938561297248054 0.03855945040925869 -0.11106876902895121
0.0809442663420864 0.03510114443932438 -0.056211799181833486
0.09816830097064141 0.010564065630241608 -0.12746335466642839
0.040246521003040006 0.03891545153842757 -0.05136480053016287
0.07202680145387938 0.03687614129578696 -0.11388717023251638
0.061806407007332406 0.03740750247296613 -0.06763588992121823
0.067739512911455 0.03677071491617106 -0.0725527385876247
0.048369782031051335 0.038444035192457544 -0.056608140078432824
0.048358240466259916 0.0385311070638336 -0.05400119326577156
0.0653338945718866 0.03709882595988739 -0.0755034313241374
0.053072419611537566 0.03786831432837819 -0.13961614271435674
0.08024762583578943 0.03403979509189695 -0.14982269146178276
0.060710632285447305 0.037334729630595635 -0.04493653063080693
0.06181083000157813 0.03720863731820625 -0.045125231157207235
0.05908526280403944 0.03790284642694888 -0.0981673076729389
0.059919581411479766 0.0378425679992436 -0.09848364598686651
0.04242055195134267 0.039042142170647165 -0.0631460205447672
0.07992990111099385 0.03559156559129843 -0.0924370025234112
0.060644287431615596 0.03797711445777263 -0.08410899312805326
0.06037960964130096 0.03799094562921107 -0.08451498190563832
0.0968882819606592 0.029525820978773175 -0.14925728892448092
0.05474454606643663 0.0383406402460941 -0.11448048937485386
0.0636739972971197 0.03765690150314212 -0.11219152004303058
0.07128265413260587 0.03639107921869159 -0.07600592720790254
0.05667861364386161 0.038199887667407464 -0.08868764596769324
0.0570298237169191 0.03821334144966028 -0.08786325884874199
0.06319025504624734 0.037225930080881195 -0.06040484723301971
0.05815041598764721 0.03795001251262162 -0.09328213006321094
0.05777381332701144 0.038008678102150736 -0.09670030383300474
0.05869904832196147 0.03792000356125303 -0.09598634458412293
0.056487012631293874 0.038095169178809736 -0.10619219309756904
0.08185902910625081 0.03486112646136389 -0.08335761663009489
0.0714171957312962 0.0363160253219835 -0.05771479983482544
0.07117619005156856 0.036430498443980844 -0.05990201243440311
0.06337306469629995 0.037155274473471896 -0.05358869517587354
0.06346452172637501 0.037070446453626574 -0.05032466530890654
0.06189107721317956 0.03720812923054026 -0.04931567303318908
0.06842054975012632 0.03675212892551403 -0.0597029149201267
0.06336625662252351 0.037914022103024476 -0.12657264629221535
0.06491787332884409 0.03709517410681424 -0.06451305929753748
0.06461580534510503 0.03709516487840937 -0.06576073608090766
0.04328366887650087 0.038973053593179985 -0.10837389893424834
0.052097752572099226 0.03854274138614648 -0.11163457176704177
0.047959354614618636 0.0384102688016045 -0.046664992591018487
0.07908022335900919 0.03571108004360149 -0.10006635425111021
0.08207608540738826 0.03541327416961561 -0.09222017964348729
0.06793323976414599 0.037437288970963115 -0.12440209099138055
0.06510957659296754 0.03750193172535979 -0.11970408493246398
0.06771727602685701 0.03687583702793848 -0.07687402609917754
0.04620640671085494 0.03873509427482106 -0.13041439794880777
0.09811026220916584 0.014335298703756353 -0.08802972531601083
0.08143935366358376 0.03501940735179201 -0.08267067132649938
0.03996600875590826 0.039072472875329306 -0.055187134277798665
0.03958655998756976 0.039092063426027085 -0.05596343360188572
0.0697039333333657 0.036415590881913734 -0.06410307920862092
0.07007578794797459 0.036437676808366994 -0.06152886107821928
0.07023273325471308 0.03652811496371572 -0.06008588458771604
0.07178347020378534 0.03730417544662155 -0.1281075465645886
0.07472190483522569 0.03618499571853028 -0.08971772345266596
0.06307756537770354 0.037229522154029665 -0.06933050903433763
0.07969804052956309 0.03561351445725055 -0.07551953243573678
0.07570530943435093 0.036352699634968545 -0.10570270143850366
0.07728164981665883 0.035394280936872524 -0.05554560459031473
0.04899574707354632 0.03838177855495583 -0.05104875276548618
0.048927035525395464 0.0384411602926525 -0.052361357405138476
0.04658458895489526 0.03855179384822943 -0.055419611095956806
0.08900476910344446 0.03381619467096815 -0.060584825666682426
0.08949574020088175 0.03377513742449047 -0.05989014256423451
0.039770610571663166 0.03911505228514975 -0.10888064377792592
0.07593479517503027 0.035813195042069534 -0.08396553999450043
0.07563690877514735 0.0358515478099498 -0.08385895533953344
0.06393900769956704 0.03723606193620958 -0.07720909475975306
0.04645524448930252 0.038559808122705694 -0.05612481546612918
0.07064822651153636 0.037051595949067075 -0.1195577056814441
0.07943013229846177 0.035521590035534574 -0.0676288077054363
0.06474388929904618 0.03675442242807818 -0.04688020824391141
0.051093861362359244 0.03855973225696811 -0.11027606282284584
0.07594320732276938 0.03577426097603333 -0.0844551638566575
0.07623317525230137 0.03590375165157353 -0.08235047551058562
0.07662443362498934 0.03545173619472161 -0.051805879963996604
0.06769822706495635 0.03732840878968656 -0.11576277076379532
0.08990438774306478 0.034396076596170826 -0.10458367841491412
0.07508111562250266 0.03674295136996193 -0.12570338539919132
0.06704797323458082 0.036588375606693944 -0.05421799680160545
0.06765495881844677 0.036516062824252384 -0.05424002725858672
0.07920069797383304 0.03563127852640393 -0.07934991471959221
0.0695101064751328 0.036409104650378006 -0.05533392161953491
0.07297592523854876 0.036719503852685735 -0.11344774706895189
0.04431472771959129 0.038757276338263785 -0.12342763482832947
0.07625386287367449 0.03605275142144554 -0.09246004168203023
0.03862037027867925 0.03915380107868452 -0.05542240046312349
0.03841102126049132 0.039173966584174734 -0.05618267709188659
0.09206924167212054 0.03405021296897222 -0.11192215470240661
0.06586388062746378 0.038000755438918815 -0.1319143808601066
0.06771241044266565 0.037938014491190206 -0.13096435772884849
0.05846608956231775 0.03814715811483831 -0.08537265824616662
0.057419229172782166 0.03821208776398026 -0.08705177225933641
0.03016932365687596 0.03927028845030707 -0.1187419695883146
0.08906767014629775 0.03399180818987937 -0.07322707536477735
0.06781816533706247 0.03725420389047451 -0.11470380460369842
0.08505654415606367 0.034379269245274166 -0.06776758315580034
0.05038924689923806 0.038634456386535676 -0.12007341396519178
0.05816039257113122 0.037984997250279776 -0.08047879254738421
0.09626830733377713 0.03242836517292534 -0.06609959744503416
0.05994095020666442 0.037935155225322634 -0.11823825448491998
0.07815408947167116 0.03578935983812931 -0.10104827312522724
0.09337602233710086 0.033305601933480145 -0.06714849309109358
0.07329895066224423 0.036943737044392494 -0.12043666441081868
0.08081684429240073 0.03528447064024916 -0.0649325658433527
0.055316006616746106 0.038364293129187835 -0.12184903225010707
0.0983515335570006 0.003439821488431488 -0.11346765748400311
0.06306393899632437 0.03760673268665969 -0.10821986401653695
0.0630312152361675 0.037530740516214633 -0.08073385314451148
0.06270157010627642 0.03761211104665173 -0.08105964675086093
0.07709412783409128 0.036365077958482456 -0.12028326550688885
0.07541297562700877 0.03584134973035348 -0.07628807632227745
0.042339862004008154 0.038887962345730415 -0.12087362651088848
0.06071231291673535 0.03802489980938089 -0.12042554234503407
0.06508085207192629 0.036695736254698755 -0.045812748013812195
0.06555113947831956 0.03767471532125724 -0.12528762818200645
0.07993014011591476 0.03544770686497305 -0.06806415378848896
0.08796742132484359 0.03401031738573377 -0.06715342651749898
0.04736989906280911 0.03854245367573055 -0.05852324751979221
0.0951578943298518 0.02761484654087296 -0.15098849640603795
0.05214829328801835 0.038188578132448234 -0.05588676107182877
0.05333590674672167 0.03828102865807162 -0.07398983054602283
0.05202628437249924 0.03835525439697625 -0.07486504697814543
0.07551145551381709 0.03616419772218845 -0.0789950310408794
0.06247751231323628 0.03791400931386802 -0.1181991630992408
0.05319527521430736 0.0383430149983528 -0.09016001918985653
0.05259757959261765 0.0383834939950216 -0.09049170075674831
0.05849044052908113 0.03758963357282356 -0.0503037035848795
0.027588509189495306 0.0392695509070099 -0.1210873028157885
0.06594224753399795 0.03760596314431707 -0.12405704015423283
0.04871843571684364 0.038388129271985885 -0.047355351722787035
0.07373462527963474 0.03648700094169044 -0.1031377916627812
0.061916781542808226 0.03791337805561264 -0.1214796994691776
0.05653408723545972 0.0382743977143281 -0.12068992672886039
0.07174431239548948 0.036759794651095516 -0.10202657851050402
0.07291638922208765 0.036524657121671474 -0.08037534449454231
0.061500963781391665 0.037330247255995715 -0.06999276420548053
0.04202165830855777 0.03880496145537489 -0.04711230019503073
0.0806020943558251 0.03550437534227211 -0.10361539648708205
0.07011056831795645 0.03688123502551591 -0.09568682174494851
0.037433831954487184 0.03913655495583028 -0.11489458655664521
0.07503726242830076 0.03571993710966946 -0.07396694831876297
0.06420047829890274 0.037760914435627534 -0.12578632284589827
0.09023022388846974 0.03408263492535022 -0.09198902771761062
0.07512356549549919 0.036322285988913953 -0.09249722971287774
0.07715963518850073 0.03641117398718427 -0.12168468682877923
0.08705049010927171 0.035332704117556256 -0.13997131336529137
0.055704750108523174 0.03817816205618395 -0.08959456029673832
0.04765478733030697 0.03857116581140697 -0.13230083425046865
0.05999232370249638 0.03764584528561214 -0.14145295955115716
0.09696450548258292 0.03134813076702613 -0.11092122038753423
0.04973488066554056 0.03850974646287519 -0.13314120871411347
0.062168492383621245 0.03793747106864803 -0.11677282229686059
0.054155712635311146 0.03811500277333272 -0.13394692664747443
0.08277597702767436 0.0353007070578511 -0.10571000381494337
0.06527179173588975 0.037350484731252936 -0.10724371398363611
0.050830622079170405 0.03857189823395857 -0.12244436410451617
0.09487070164038625 0.03306149843658592 -0.08099049617911575
0.04704669235069625 0.03874384078985322 -0.12073460978710004
0.08872812890616322 0.034439494826628295 -0.09877263359547739
0.05097715777482781 0.038207208659375894 -0.04912482643057332
0.049838755987380114 0.038296650045735604 -0.04966382832810061
0.09720698871388347 0.0288549857281098 -0.09713580216128792
0.09804607579656277 0.011669057979775927 -0.11780147794075418
0.04993717974789604 0.03860563766264413 -0.11474590719009249
0.039668898587979694 0.0384337994718685 -0.13532004546699763
0.0373405782264538 0.038413439153505674 -0.1357644595827654
0.04916489180412615 0.03865495789284005 -0.11638725929991701
0.04797752142596659 0.03869615463195472 -0.11680929412956544
0.09789566953104467 0.02017019728347382 -0.08609752481575532
0.09710338325658238 0.029269580064370044 -0.14089194439847577
0.09783267563842338 0.026072884968778486 -0.1474652059006264
0.04716997745691531 0.038716760782351436 -0.11881095000875887
0.09685530980917015 0.0317902396024827 -0.1313000242108177
0.07121581899363869 0.036716947144338735 -0.09625864119020805
0.09334221637962614 0.0333266647800927 -0.07247144886998372
0.08222986563479834 0.03613813888631345 -0.13256020156954507
0.04701781825467295 0.03766540250099553 -0.14184905270817902
0.09803043486622245 0.013413497307051811 -0.13093489660522661
0.07338914094286977 0.036976483182472944 -0.12477433131203317
0.08261117839297297 0.03488314187183737 -0.07194021920945859
0.08492132668549582 0.03444351203753408 -0.068785741320951
0.03705056157972327 0.03917076537561676 -0.05285898892209734
0.09743102896398032 0.02234045162005497 -0.10215888746425665
0.07956704817893892 0.03586725107737847 -0.1146281572315821
0.06663934931979165 0.03687469716242652 -0.061328332006362486
0.09195533142812268 0.03367649593379302 -0.08040515016685831
0.08060087524051224 0.03507262848848765 -0.05872307318546731
0.02359374265877502 0.03869481623908 -0.13238830240638888
0.024460149908838713 0.038627269432651413 -0.1326450427018835
0.041119217538517557 0.038685483429790744 -0.12878796739792334
0.06380541419650959 0.037524571166298704 -0.1064117686483978
0.0979341600068598 0.0210883011734104 -0.08621158391797976
0.09819609805550596 0.007445041444006139 -0.11157673197558815
0.038263988617315114 0.039055463154684646 -0.12227023016455257
0.07353272575148859 0.036278115433616163 -0.06466568287195822
0.07326264670290655 0.036122722189759676 -0.06596709380372118
0.05823959923299492 0.038124492128078516 -0.08322938101910893
0.058525521015050055 0.038114064076662124 -0.08359259150753758
0.05012257879592627 0.03818229593812355 -0.13797398024957772
0.04993129555708469 0.03842047287932165 -0.13533659720879365
0.03730481519868385 0.03895677161859558 -0.12687172143236952
0.03570886363170103 0.03893609988531752 -0.12629683029377523
0.09762393747851413 0.018974653923637258 -0.10845408715509712
0.04802264635048126 0.03875031533141 -0.12227542737936464
0.046179259372033495 0.038868082991497965 -0.11613053841536274
0.09683034942355277 0.03140383397309419 -0.12804398484463977
0.050203235451355424 0.03783543756490966 -0.14032841611708607
0.08832645151154289 0.035035397863439025 -0.12991057365543443
0.06058748687811577 0.037735953871983224 -0.09199917028837143
0.05726808656932358 0.038039371912280226 -0.09074666539248064
0.02944333118495475 0.039368909674392556 -0.10863361266660389
0.029653107260631563 0.03935852172989123 -0.1103388671961146
0.08589917972620592 0.035442782329918855 -0.126908034339633
0.06092721915450665 0.03778663153510565 -0.09664165647420808
0.05889890734473513 0.03782085161037236 -0.07449874480559254
0.03504453490312845 0.03937412127533627 -0.05335096322537136
0.055429785348443825 0.0384244595512338 -0.12562682407608783
0.04664541586564881 0.038783646689612004 -0.11306890948073045
0.05334030778327843 0.03833094735214464 -0.09352624416319599
0.05996003106540699 0.037833125687826714 -0.09622097485439932
0.059749043550021065 0.03784555522338549 -0.09614449091289781
0.07164946505447471 0.03668680098578082 -0.0969783079638866
0.061855245420569464 0.03764580145030379 -0.09528501640767012
0.06550886900707742 0.037033499177630366 -0.06373512335605075
0.04265701497200399 0.03868307144493004 -0.13282281761104123
0.09456248829134846 0.03380277069330137 -0.1014280545383701
0.09820530280190773 0.008439623648520392 -0.10875751148754
0.04411393879407617 0.03878370652776432 -0.05339250330091406
0.09721340552870586 0.026709507950831858 -0.12650284120848695
0.08350976353261144 0.035531510446657345 -0.12210540116280036
0.09839883998441734 -0.00643382435283817 -0.11628761536602614
0.08604345505562765 0.03539312783933084 -0.12906388319974396
0.09609188804923591 0.032592156473828245 -0.11707484687808917
0.09797330228597158 0.018512476185443855 -0.0928318102981644
