-0.06046504778296377 -0.038079174782571897 0.015613336371315557
-0.04310674841299274 -0.0393146820912876 0.025346808290141045
-0.04539815068785817 -0.039250623873424886 -0.009678650380592096
-0.07527896132596694 -0.037083253377915903 0.01640581940670059
-0.04826850875045705 -0.03906932585283967 0.041409505892373306
-0.07595182146538143 -0.03707463427625353 0.033364039763627396
-0.0491480817489146 -0.03903097529325562 0.027390071738149398
-0.039069654472453294 -0.03950903578415596 0.015525755407071356
-0.0962355435242318 -0.03360300796933423 0.00613689532705139
-0.05221424492213906 -0.038835220435974205 0.0358445459761516
-0.051856030947670315 -0.038876970140664394 0.03549755107468669
-0.05610444137220878 -0.038696447135205675 0.022591322933123558
-0.07336579249004563 -0.037324622431031934 0.040869350649848986
-0.06992598636100046 -0.0377357052225551 0.012097080145475225
-0.05931276271749298 -0.038402791685134774 0.006971226902015957
-0.042927104701466254 -0.03958097274382628 0.0038062673840475805
-0.041400571013120974 -0.039450465961064295 0.025488214941475174
-0.03469920521354693 -0.039585393814469946 0.016935265874270026
-0.019214579939126498 -0.040322530967234774 -0.016554971486427202
-0.08313622216044131 -0.0364415013511311 0.036521713188118934
-0.054972134689112134 -0.038648310103006865 0.005782364987664426
-0.034189975314018746 -0.03964380125084578 0.003436375086222038
-0.06815518550110436 -0.03786776604619677 0.015975746758562438
-0.0073464334490091895 -0.04033333828236011 -0.0058443525327696545
-0.02653125396432284 -0.03992708340481778 -0.015428646881995842
-0.027965832536953485 -0.039911530933703566 -0.015077797982081663
-0.023379608827862768 -0.04017335076929141 -0.008934731236737558
-0.06979559062406557 -0.037520057781535956 0.008444593515380992
-0.02316601464283273 -0.04022229671849649 -0.010142606382979376
-0.026673770192868144 -0.0400095616700103 -0.012259208388684608
-0.02509908673587431 -0.04016568022106041 -0.012203766544451728
-0.007625010849327796 -0.040303612880891675 -0.005203345538565525
-0.08206298695181144 -0.03641840082346065 0.019389698852126783
-0.0721803668235331 -0.03723783737168038 0.00177364959717921
-0.07157775407230986 -0.03729917367615718 0.0011707087378510863
-0.012153206911571086 -0.04029143747302876 -0.012885215005984494
-0.012024471984407549 -0.04028624899322579 -0.013038690476522839
-0.07545746717509715 -0.037370231004805396 0.020271845903886532
-0.06915076827609207 -0.03759838919776023 0.01944479388351447
-0.03336030277868981 -0.03979714362746763 0.002180180339919755
-0.04165537798451132 -0.03952160925723256 0.004893485118767312
-0.024567552720437966 -0.04005501509557635 -0.006254327917318033
-0.055954004552066894 -0.03877380158275243 0.015645702485169763
-0.026816791417830967 -0.040065463169340856 -0.005885944604316994
-0.030253786382585905 -0.04004550725267655 -0.009155840523664882
-0.027618568469897194 -0.040010055824091756 -0.016903082179545392
-0.06042180881754082 -0.03838921633960185 0.0026975497092485744
-0.055457718195665764 -0.0385404853472146 0.008090626457460157
-0.08050183289094004 -0.036610845869380834 0.0299429221530803
-0.05007284983142231 -0.03896432775502849 -0.007204436623203688
-0.02491373570381676 -0.040032792596262814 -0.005569607090196611
-0.06169021223448828 -0.03822741298511537 0.008868382100803136
-0.06146135485270873 -0.038295940930971585 0.010466897482259752
-0.06304270323802945 -0.03818097177954734 0.011451097305097193
-0.038482787904947593 -0.03966536714498479 -0.00011741437246030076
-0.05662583498715853 -0.03862591316864794 0.01631867966588493
-0.020104059227439467 -0.0402749404121166 -0.017602850540645094
-0.024483326225156588 -0.040164693352954424 -0.018318303868396946
-0.010038522275417756 -0.04012163722625442 -0.005352193257993639
-0.026760401212335423 -0.0401882057975442 -0.01928981955607297
-0.09761175376580955 -0.03317933200556603 0.014259631041407764
-0.024021400643873946 -0.04018136928989809 -0.013360653597581222
-0.04005589242463212 -0.039394052365912584 -0.0017498439767000852
-0.010473599213808641 -0.04018923282505253 -0.010573602881677802
-0.021690154628083276 -0.04027797128322987 -0.012760919721551137
-0.014717972287922128 -0.04030704448354941 -0.004620511559858324
-0.016394131374393828 -0.04013108270609099 -0.020737731297429708
-0.015891514934742876 -0.04010415358519522 -0.021098443351236368
-0.013567076486335351 -0.04020202794925006 -0.0034915392248428927
-0.013221697601354714 -0.04021612925258586 -0.0034300430949078813
-0.010311673482012583 -0.04022005764815935 -0.009399963899278444
-0.06065809622966598 -0.03828490480978155 0.037534470499156564
-0.054170584799592525 -0.0386981706051819 0.002362480685399912
-0.012500950843758355 -0.04012529733903043 -0.009427143883216284
-0.03325381281589691 -0.039664983032116775 0.004656849063987398
-0.053486026229576045 -0.03883683194549439 -0.010366805124502441
-0.05186408740284967 -0.03900432181814591 -0.009191381039981985
-0.06400576267819955 -0.038146880950260253 0.04235562344829791
-0.09356130406152732 -0.034884604405811356 0.018510007072303585
-0.08685861590585899 -0.035857991271216194 0.019571214170815993
-0.092074489700366 -0.034810808440583305 0.015236868692859744
-0.0866142217911426 -0.035869434452620884 0.019040446114128216
-0.08912925036322347 -0.03550000938779932 0.013275808773393703
-0.09082824477408442 -0.03510894730194069 0.011424608875607822
-0.0280694344775836 -0.039891411327935104 -0.0006524924724052492
-0.0947039890072737 -0.034387954745126875 0.009313890555616504
-0.05885575030689173 -0.038597918351202624 0.0001743877036111172
-0.011797872331941663 -0.04022924851413776 -0.0029051555090848745
-0.0869776772211435 -0.03575866670819662 0.01387349129635831
-0.08355834628295757 -0.0360958383920896 0.014837680637020102
-0.08240072547480208 -0.03642769608690411 0.03154983287604819
-0.09614720372683308 -0.03369410504461262 0.004642084086297904
-0.09136370214731294 -0.034974334537084414 0.0094079952068222
-0.09297453953617046 -0.03470809558992182 0.00815677117754341
-0.056659753790470786 -0.038538108542973605 0.052807543664062984
-0.059705758681774024 -0.03836836748084709 0.03623681758206052
-0.06753180581290302 -0.037872037446309265 0.014055560185257212
-0.08026968151643558 -0.036611853523016664 0.014942854472612182
-0.01006729980467937 -0.040207851331776234 -0.003227744949727485
-0.09426698053581248 -0.034395113982466786 0.006109085193264147
-0.08833854324292204 -0.03553515355799551 0.008367360326003118
-0.08754789464049097 -0.035761129911144524 0.01032434188369933
-0.05689494036203254 -0.03847818055240555 0.020504564430830197
-0.05640615875165958 -0.03856727825525909 0.01950515995245623
-0.03624777047507379 -0.03960484717451777 -0.009422535815368307
-0.08227223853084512 -0.03622822784603503 0.010375193554636909
-0.01498427163340918 -0.04012884054383885 -0.002815750890763961
-0.07953479911349703 -0.03663560089871869 0.029460364442945745
-0.059623780395720034 -0.03837696086274917 0.00834445496741027
-0.0752099001306549 -0.03698452431438777 0.02824470157450191
-0.09233745891514294 -0.03485878077985012 0.007448263636047281
-0.042318441504576 -0.03941943794175538 -0.006198590865441396
-0.09360875085257998 -0.03450574855770954 0.014409114961500005
-0.05414721418693668 -0.03880755952890881 -0.0039258484766062285
-0.09595372683596305 -0.0337439722388679 0.0034575377409933414
-0.08727366069938443 -0.035573930085717784 0.007162139273916179
-0.08246596309962795 -0.0360434586867998 0.008821728843472248
-0.08741088894505215 -0.0359495820172933 0.020573947844672327
-0.08823368711689991 -0.035619597459521694 0.01070491051084212
-0.08797123073961381 -0.03567416026492164 0.01012409863064798
-0.028566968252156974 -0.039863376670149775 -0.0012733045112777886
-0.0850481677450139 -0.035955603929767904 0.007373299064266964
-0.05732249677060221 -0.03839891184166504 0.005787409531626679
-0.08935627286069749 -0.03529700001019512 0.0048073673980660635
-0.07788315445494833 -0.036754691235429585 0.010906753268793368
-0.08061105065899288 -0.03662126825810265 0.03125401007123129
-0.04815004099894289 -0.03910314879126678 0.03195785461642783
-0.03634754626156044 -0.039746958712170315 0.0008627610381906647
-0.08925480039257276 -0.03533302321903453 0.003081479445880991
-0.08982259061900072 -0.03526862409725448 0.01136264977377251
-0.08102271062176836 -0.03627590059930945 0.007674522128599732
-0.0807892168738911 -0.036460263308812184 0.019457792772968205
-0.07732646921028276 -0.03714090369333503 0.007135051465342868
-0.07467651793243289 -0.03702021392237903 0.009071886021076328
-0.07516402591814329 -0.037022198435376255 0.008430567199814422
-0.04566666814476655 -0.039167914170614784 0.008133863558196437
-0.04735762261416002 -0.03897903015343261 0.008711049015897872
-0.08030137090872311 -0.0364021692164337 0.026963594961751575
-0.09186844327932865 -0.03492615486994739 0.010667900612349816
-0.09268179615977884 -0.034814788284667296 0.010596089294743337
-0.08959989820145559 -0.03513027994103271 0.01680125382878897
-0.01875109780059036 -0.040167431419250214 -0.0011709879947083563
-0.03428320451162644 -0.039879377833525555 -0.01338493918622305
-0.0517429390092418 -0.03890387843253105 0.03843233276753915
-0.05166111397327134 -0.038912548615609055 0.03839172883614581
-0.06553587269507036 -0.037883845286899046 0.028735674463871153
-0.050916823622017354 -0.03895311209508443 0.030506596556644686
-0.07404800817984576 -0.036926857765939514 0.011335745722200037
-0.08715144537332259 -0.03586177574989311 0.026184156748761775
-0.021631819310067815 -0.0401472636985577 -0.007459632542646866
-0.09072529015031566 -0.03510897045509809 0.01464815939328043
-0.08573073282144439 -0.03587214834519493 0.0126843544573039
-0.08522634030274165 -0.035944321015090486 0.01090343549969624
-0.09414439705418028 -0.03476879662666249 0.0168527041749792
-0.08047547914439973 -0.03649501093539132 0.010535167816999168
-0.0925659089864776 -0.0349622051529712 0.017676350986053
-0.0751087516691138 -0.0370302677883565 0.003297088409631938
-0.07495099752111857 -0.03701061172886938 0.0038708942559726
-0.08811471912303404 -0.03548842631042394 0.016148158719097076
-0.08754896372977883 -0.035738209188973726 0.012104433884522332
-0.047284598034368644 -0.0390398614138257 -0.007809422173283391
-0.0758574242210336 -0.037011187172188716 0.003412780806124057
-0.08157106580992896 -0.03645643371466934 0.017773786705241292
-0.04715507962270282 -0.039046495410872906 -0.007488292254635818
-0.07894551992762076 -0.03657210725920851 0.00868613091326482
-0.046039991749546566 -0.03909700047212172 0.022370858617149998
-0.0614500626310481 -0.03822895387536171 0.04515638612387467
-0.04844008457592553 -0.038968943648534086 0.008017720365867054
-0.09396753581713418 -0.03466884403103991 0.015885614752470273
-0.08040517659283317 -0.036650418883945865 0.0013799193171599392
-0.08121204547985761 -0.036200800544536976 0.002813838719412041
-0.07401301728142308 -0.037127517540450704 0.008854054969153112
-0.07371724517514622 -0.037198301237494624 0.008536244251183347
-0.08154458289806761 -0.0361942104216566 0.0024790306407088537
-0.0775464687130677 -0.03670142618437697 0.009854194382786875
-0.08008319782318324 -0.03670779893244511 -0.0004741736406038296
-0.08929871782259871 -0.03527934241156117 0.006918490235258933
-0.0685468489359127 -0.03765257991009383 0.027907466625063826
-0.07598793347212898 -0.036883396101945264 0.010245570987036578
-0.0905549900108458 -0.03505903401606514 0.017959120100326218
-0.07814051937573074 -0.03680462685449755 -0.0015437688885330337
-0.07747078253041978 -0.03676663308893349 -0.002382339792570838
-0.07364651678611571 -0.03721273714275091 0.04449624116179347
-0.0723962903540816 -0.03737341122162395 0.006917308214530486
-0.09256487343295294 -0.034932239387061394 0.012795398103111696
-0.0862799961715555 -0.035779532871352875 0.007235110598481933
-0.09726096878496893 -0.03330982731123124 0.010019254233868284
-0.06545746936394697 -0.03800515822526457 -0.0007704422807745712
-0.09035965010822275 -0.035192735789340644 0.006284426594156245
-0.08401543745352376 -0.036046707338753724 0.013954871742054354
-0.09168147599939723 -0.03508454331207734 0.012868736366149481
-0.08475577732254644 -0.03613044882228222 0.017765633888873835
-0.08642896288742669 -0.03577804158505607 0.01722586425054861
-0.02172109172708961 -0.04023393056398575 -0.006196459017738265
-0.07347120826750272 -0.037165161314215996 0.004846953955484479
-0.05529922671715523 -0.03855567537312882 0.009337281229913962
-0.064104098981754 -0.038100274551050015 -0.0016761565483706857
-0.030802151602219927 -0.03988699290696976 -0.006696213519327086
-0.08285311055413455 -0.036005276636171805 0.008502631644515512
-0.08460056174764105 -0.035982767629891985 0.008537925559980418
-0.08053689773286507 -0.03670895990928832 0.0004853509795547028
-0.03267969136700227 -0.03979798500485257 0.005578219291210194
-0.07332679532492732 -0.037228752566046026 0.00560126579866718
-0.08006046304836413 -0.03685219720301461 0.04017173909936253
-0.07892728147661981 -0.036801573795472206 0.007431789876281068
-0.08307364154949319 -0.03632283203112206 0.01712853528905322
-0.05027348952462893 -0.038918353611767806 0.04486435181881619
-0.029948661504149328 -0.0399408746557568 -0.014991943693520127
-0.02862900513531094 -0.03990669451037989 -0.014756195873403707
-0.04647925453649891 -0.039114237521011064 -0.006287264620413353
-0.047456377817920864 -0.039116243486731456 -0.00512087516531932
-0.06344917627637864 -0.03812091250293713 0.017284660130493866
-0.06301590289820015 -0.038008850778971516 0.019480549523582143
-0.06159864656497371 -0.03822606955621746 0.036272648134592814
-0.057945205108497766 -0.0384495751947129 0.024917908012220272
-0.06823553182103909 -0.037716067956907934 0.026993918323228054
-0.04245936525380277 -0.03922002196511831 0.05149609029400207
-0.08390171238738839 -0.0361091634722825 0.012384179978613012
-0.08248750257008236 -0.03600898326573089 0.007415100487638644
-0.08128526899141839 -0.036214688731738554 0.008706823546724512
-0.050478071637905936 -0.0390026957061638 0.034050704790093624
-0.04773460920172535 -0.039135077139339 0.02485246656783976
-0.030511015647496108 -0.03982728131293113 -0.005466828637811186
-0.07945525936233197 -0.036696409703068186 0.013780617346987885
-0.07955557222662432 -0.03682051842735579 3.93181984745352e-06
-0.056584026095551965 -0.038590075846280485 0.042879006184201825
-0.04281494128150386 -0.03950547888440182 -0.007893418923325738
-0.0673757651926596 -0.037920208463511795 0.04428677372508523
-0.08890319385810416 -0.035399851250257026 0.01851282857516867
-0.08473794562305562 -0.03598727165038174 0.009678504608295335
-0.08490821076595108 -0.03598047453512808 0.009359961215787825
-0.08609730117784596 -0.03576092884807932 0.014810231984517043
-0.09475059612229829 -0.0344267425629334 0.010006270180708479
-0.06395018769968105 -0.03812550446754682 0.0038036498906879675
-0.05590000678110011 -0.03857232631360409 0.040043788511004236
-0.05539224301567276 -0.03855578472923082 0.04133243466512486
-0.07841519486579224 -0.03707448662668524 0.005617510038792082
-0.046338832055910766 -0.039138444493041144 0.00038502666953243303
-0.07789659079786031 -0.036755634278640766 0.02738860083013634
-0.08255227277654711 -0.036398606915808596 0.021227253958826485
-0.03499248909019574 -0.03959288470332384 -0.00498863619234063
-0.04565133097385009 -0.03910682728492456 0.02087004593632143
-0.058236803077212546 -0.03831457662495061 0.05279016941326369
-0.021375123518974956 -0.04035745141164665 -0.00423305044581054
-0.04740519922791988 -0.03914246763475258 -0.010385710533995146
-0.04757161993239446 -0.03913214356324852 -0.010292193038310528
-0.07329698830766898 -0.03730543270983357 0.000111395600473574
-0.045694904733637985 -0.03924397163230169 -0.0022845577506726226
-0.06786868756378234 -0.037779924186168615 0.017920748182889093
-0.07253569194506992 -0.037324971694134096 0.023414217732294917
-0.06983642283938134 -0.037396627047805754 0.04364450700628305
-0.06603450277603774 -0.037965195882508865 0.02288852792553351
-0.06366965836855856 -0.038020481627344435 0.02226785525721782
-0.020129307681828062 -0.04018305652698323 -0.020134294791646457
-0.056477230452376716 -0.03848517690716298 0.011261667193447676
-0.04739838883166561 -0.03900324329755613 0.008140267365781533
-0.047481432281885734 -0.03902646689410122 0.007125233071323086
-0.05050747051807193 -0.03900082657255722 0.03647568347024855
-0.0563062682845475 -0.03861322424317572 0.0458189464772945
-0.05732442042583436 -0.038553044855854104 0.0467475953681927
-0.04907482367396067 -0.038881282130885625 0.012503981164414825
-0.04746446759225441 -0.03917872930962653 0.014090650426821054
-0.03737663360886113 -0.03965745124905507 0.00305360340353427
-0.038454667540267065 -0.039502875293530006 -0.005621345471538
-0.07116710669776904 -0.037424313859207886 0.012657355495352837
-0.04807499592077315 -0.03907989987995799 -0.005727714285992687
-0.0981501158223076 -0.033023609261634536 0.02311353965465161
-0.08523484234596003 -0.03578826000100872 0.0058194732675066665
-0.03940183929993655 -0.039612686777077105 -0.006750093618461165
-0.09408692293003323 0.027892076960429793 0.15074486496768502
-0.09866706715325127 0.01839073605484095 0.13318415621951232
-0.09747453109196977 0.031013221153837256 0.14607556771897484
-0.09850438190003832 0.02070256231064276 0.13233325480009622
-0.09845388282301368 0.024428921434834102 0.13338712762814997
-0.0911453042118321 0.029354645514239653 0.14953926887851268
-0.09858385405635015 0.021697341936208585 0.13629263806991437
-0.09703082298631642 0.01661301167229231 0.14624520172258298
-0.09344937549293317 0.0319537803679776 0.14772929551546293
-0.09765386389854738 0.030431771281005965 0.13859151018947574
-0.09845087666159236 0.014608065352574615 0.14376773769424703
-0.0956647762189522 0.016346451218664897 0.150617753590431
-0.09879349126326666 0.01841117015101556 0.13552307408166886
-0.09612854337643055 0.01890806611266177 0.15090407624284152
-0.09666488626106008 0.031319018600570396 0.13751978561081413
-0.09291384715089157 0.018207425883672714 0.15115985986925434
-0.098222759781322 0.02883565371576734 0.14071989113725544
-0.09749401133747337 0.029799013756223014 0.14703349966244786
-0.0984637625207644 0.022640159564547135 0.14297338947496976
-0.09702145133434738 0.03165979673840665 0.1470278110415611
-0.09839480240312479 0.024354856630794945 0.13519764577065724
-0.09631480437146575 0.023880236792384442 0.15073767623958856
-0.09863886169437382 0.02298947478053862 0.13428066286510046
-0.09820365420438217 0.029185189520553052 0.13638695854902852
-0.08944225309897018 0.032479000040530594 0.14545206269257702
-0.09773940310535045 0.021759133446618256 0.14666581787258137
-0.09889702899164114 0.012282189827653273 0.13727969738712417
-0.09764798149317241 0.022324685718656142 0.14633566737568637
-0.09847622405213928 0.020826933405685 0.1343828832297634
-0.09855065797295658 0.022588302177581555 0.1395675138329504
-0.09860650663551718 0.020490938713978158 0.13557110135814818
-0.09852976746132593 0.011568177879240072 0.14371455652842857
-0.09761056029113649 0.013657744847733331 0.1481221692873242
-0.09126490167323403 0.03190479983684147 0.1440018494720232
-0.09423084364926217 0.029294727071453558 0.1500556780553569
-0.0969555203039824 0.0318396665072991 0.1476545520557073
-0.09610290038393533 0.03168775864807787 0.13896318194417645
-0.09826225658037559 0.025390171519752706 0.13036484003510157
-0.09842270045398943 0.024845945688834956 0.13187023038530796
-0.09865812754946231 0.019920661788164526 0.1421270203934785
-0.08995967283187106 0.027904450426917943 0.14990447706181567
-0.09521685486539994 0.02125592882809519 0.15106545344669442
-0.09854600386512863 0.023189456354362398 0.13240009055969545
-0.09872662939439308 0.0178849784447939 0.13733522478798718
-0.09137872972870957 0.0321413608920491 0.1472604772812139
-0.0912255670681444 0.027317644849691024 0.15032065984275708
-0.09819082100912865 0.02738833073184522 0.14203249738906776
-0.0930783307174837 0.031991226517703045 0.14030821564421816
-0.09726365523090805 0.031090252153323457 0.1346782170674906
-0.0988509917012344 0.015031768985461016 0.14036066874348957
-0.09866641707148463 0.017173887141007826 0.1354668026182502
-0.09676409294074212 0.03133672397169246 0.1404841380464059
-0.09830346282386852 0.02651211632960299 0.13177036902420564
-0.09431124859665146 0.031825494059473665 0.13961528701020598
-0.0983738134194128 0.02440258182510905 0.14370956884855848
-0.09035479021079833 0.0300457279999807 0.14930969896462307
-0.09685796671363915 0.02830018994941102 0.15086327484513298
-0.09696281918070547 0.017064518053150925 0.1470523987723144
-0.09269293552260204 0.031635112220000296 0.14483855195014117
-0.09828613139258707 0.027300601828453074 0.13683534447784723
-0.09123364547680166 0.030391715063262614 0.14933073878992995
-0.09505584949784718 0.03186014337594131 0.14222168959138926
-0.09814988331091964 0.02923618473123786 0.13886251965740853
-0.09872496864874095 0.017720430558945628 0.14237321002656103
-0.09862667508398501 0.02005084677067612 0.13488762529738071
-0.09831814735235478 0.02136381875991504 0.14904791263511635
-0.09887401952730568 0.011481665894298918 0.14104333538196537
-0.09860583153450818 0.02068001449679557 0.14275377721321808
-0.09862909072589723 0.022356999469651567 0.13468979291892197
-0.0974664101134846 0.02666235198162304 0.14949776490258052
-0.09716636431921372 0.03103330543353853 0.13750418129223635
-0.09888155776946841 0.010978129509123824 0.1422883366008011
-0.0958354510869851 0.031619161673693684 0.14263139004512673
-0.09300309700776413 0.03022521398931526 0.14917094695362282
-0.09773258245239613 0.022162352980647525 0.14580406651454003
-0.09767135480687547 0.023776206282567866 0.14716553002196753
-0.09792706775866078 0.023695324177649364 0.14545360570388488
-0.09889653163646864 0.013682164245508804 0.1385142284615934
-0.0976742957019291 0.023278900754466748 0.1461522975997534
-0.09729930817654792 0.027555788872413743 0.1477834056469216
-0.09165785713641243 0.03200295943217147 0.14140927481030474
-0.0941761401324279 0.031709315973949055 0.14726658244323412
-0.09835059977299818 0.018313564854475814 0.1491734530271857
-0.09826278855724942 0.02010589965022829 0.14698445411887245
-0.09814081687791215 0.025156446501819953 0.14515008276408614
-0.09871222119986514 0.011778609448795224 0.1432936909870158
-0.09852901512911856 0.021851528555112826 0.14137864022021407
-0.0973425156681324 0.02844399495159244 0.14833669961167642
-0.09766650980995485 0.02721426949994444 0.14624557546923783
-0.09882494535733322 0.015684430280477422 0.14125764670094576
-0.09803566015752438 0.020717063668535825 0.1446740384637821
-0.09898360775702866 0.009143006559908042 0.1391957759850505
-0.09485729497639331 0.03174391539233517 0.1490800345138586
-0.09773665794273059 0.0289889681685124 0.14631223931763448
-0.09754451134065217 0.030244066729671348 0.1427535729280074
-0.0938434356254328 0.03156479531259931 0.14571254594483948
-0.09566600632676453 0.031808188787947424 0.13935791010310727
-0.09747542508366537 0.01489381819795725 0.1476705579620728
-0.0972565726408929 0.02941808263250256 0.14905823003042812
-0.09834802811385066 0.02461069024459963 0.14183888561054184
-0.09169270225388337 0.03195490743002769 0.14236030880486092
-0.097643730550559 0.030029815879972978 0.14393077624723105
-0.098832544719554 0.014124019019023446 0.1425417716986601
-0.09791316095072594 0.028950933222231516 0.14562879210123864
-0.09217435172313704 0.028359009186731156 0.15017115753071825
-0.09827373860179135 0.026392220406615152 0.1346476584119632
-0.09814750656815927 0.01664554722012952 0.14835072956176582
-0.09378856006235065 0.015679184542970744 0.1509576838076246
-0.09871599268747071 0.01947056109752794 0.1403647915792693
-0.09556559467607326 0.014194806418077403 0.1506939741312459
-0.0909855949614574 0.02499134021031114 0.15096576075027254
-0.0978774775414589 0.017425765790648494 0.15077659605683186
-0.09823190742331855 0.02654161007412898 0.14252740260857283
-0.08991375480045169 0.032230841128281666 0.14578281196176374
-0.09065881703442971 0.02750519413594282 0.15020121060883343
-0.09795686651601188 0.015013686157154578 0.14453305528819488
-0.09487248417236804 0.029152326692296004 0.15025735345294472
-0.09568078976545574 0.03148471003079075 0.14443405151327607
-0.0985878409291425 0.022360264416231835 0.13645161629954117
-0.09875447636095061 0.019091040838467317 0.13473167068340858
-0.09209958495495507 0.03169535750397324 0.1459822368845604
-0.0987333897599387 0.019022003209039164 0.13395441298929928
-0.09828183285162298 0.02654031849099469 0.14037257610484005
-0.09300508539286317 0.02252603038023491 0.1512145181443733
-0.09829058006705081 0.025424496497964306 0.14173985636973016
-0.09373619047358202 0.03150543123961888 0.14628032317453013
-0.09861506612677527 0.02286020890752411 0.1337833996907884
-0.09525410050052166 0.020199918027976542 0.15109830497173107
-0.09893770743071356 0.008437427627772786 0.14238242689186376
-0.09829411323618997 0.027590513117205628 0.13941474206630328
-0.0969046580039449 0.02569530873678595 0.15082489174480457
-0.09391756450481795 0.023285106634271472 0.150967235265921
-0.09825246431879193 0.026843722972281915 0.13412539536343945
-0.09493381845275517 0.01981114595496178 0.1510217688680764
-0.0969669021728552 0.021558043911783294 0.15103885749959453
-0.09885339521935542 0.011078598097806659 0.1404990558107602
-0.09627470159406863 0.023627519998681117 0.15068886262881057
-0.09591603628449036 0.024949425544060114 0.15102765699055934
-0.0985318245271929 0.021520633567225562 0.1334432725632499
-0.09868378224140416 0.021290469334627624 0.1381180059504984
-0.0982989808607962 0.02790322574586304 0.1384617135861558
-0.09045464066059886 0.028275619253013418 0.14982161665774496
-0.09745006427196498 0.02576443184743897 0.14957513343382106
-0.09049665370418403 0.03253407965720741 0.1483746104847515
-0.09428344058556641 0.02545424778262997 0.15077665430090156
-0.09805914876756322 0.013343005890996833 0.1448542817058113
-0.09195783913200965 0.02451985519115246 0.15116691062701243
-0.09839086396667202 0.02482030007414794 0.13446067510619197
-0.09830487549970317 0.027541862479289903 0.1368494869550291
-0.09635951990433361 0.02800649003297137 0.15126320703079052
-0.0984159642693528 0.023294596352742926 0.14125995829770757
-0.0983437327312951 0.024565986199081076 0.1393424798335293
-0.09822005583184637 0.02784875820445572 0.13434353377115957
-0.09543271480283799 0.015331145056600572 0.15063743959465614
-0.09692726059874766 0.009357842540261825 0.14759835799858342
-0.0987955550645079 0.015372236261184625 0.13665963885827048
-0.09894043087644518 0.009510386241001352 0.14177553758821876
-0.098885809653819 0.010907329802600833 0.1377859817902921
-0.0987768362559457 0.01235461012146761 0.1390495998443059
-0.09553291743377165 0.030179814759174913 0.149892713023416
-0.09854177423644095 0.02250378117843474 0.13994573789583314
-0.09396458959100905 0.019256318672797618 0.15100749106407751
-0.08278427121911971 -0.03676673815466883 0.0759018847529204
-0.08823278371852729 -0.03591784131386853 0.07526963955406095
-0.0878332127702707 -0.035960932827090425 0.07048857389382714
-0.08241535993025381 -0.03633433277276586 0.07815905195325373
-0.07921605257956804 -0.037195179017466974 0.0751944117248872
-0.08914678673602976 -0.03568846752653773 0.06808581074175801
-0.08124258898941139 -0.03695187408105752 0.07331749531803736
-0.0868539950357855 -0.03597962647372554 0.07027857674867394
-0.08337363991834443 -0.03643163692076851 0.071394563355027
-0.07904011179118353 -0.03723513897320049 0.07388748022635072
-0.08458766104366493 -0.036359791762546716 0.07082425598349852
-0.08347395285058107 -0.03680754199733781 0.07525908273335127
-0.08563406525800095 -0.03627980276377836 0.07564905423902692
-0.07707133634669061 -0.037449293214858355 0.07457794622840644
-0.0793710563460378 -0.03686920238516968 0.07126979438278308
-0.08038643784164337 -0.03672490338838308 0.07098116526317012
-0.07631524722123517 -0.037415177558273505 0.07250719375823458
-0.07719616575981429 -0.03741340670894942 0.07342675771530621
-0.08334710198801085 -0.036728116727364125 0.06155587960374338
-0.07936123130080691 -0.036720137876671 0.0696464046633673
-0.08528669030133658 -0.03638195679360634 0.06628225124178809
-0.0821358463481299 -0.03683810394872655 0.062305715336771664
-0.08778787614368841 -0.035802337702830506 0.06871825896837998
-0.08947002934319878 -0.036166857891739915 0.0729941598456779
-0.08563232073072544 -0.03623163590084261 0.06445231352793017
-0.0849017038161286 -0.036364723082057945 0.06440505632834509
-0.08158466409275968 -0.036793446727609105 0.07227301905277275
-0.09587051289909723 -0.034256024756657 0.06538470945190605
-0.08041542062483484 -0.03660331784327374 0.0676750021811742
-0.08073638477694922 -0.03660174118685743 0.06895787865621641
-0.09364629770254526 -0.03511659468529731 0.07156107983471363
-0.09373660715647911 -0.035049794862453784 0.0670436329911271
-0.09606006281891806 -0.03416474179394942 0.06774190695695174
-0.09330150190497662 -0.035208213615643864 0.0679622180453102
-0.08209917827749966 -0.03650831831952716 0.07045415859366772
-0.08660529466782406 -0.036212802016357105 0.0728904478894496
-0.08928064497834332 -0.035752572987042965 0.06425418848083912
-0.0820656312390127 -0.036570072286571956 0.06701234968159565
-0.08249047036977303 -0.036562001663450305 0.06716416203042966
-0.08643360615520793 -0.03619043249737579 0.062023040285309895
-0.08757213178773803 -0.036066876744816366 0.06570702818645444
-0.08519737970190766 -0.03628124402344063 0.06813548357105716
-0.08228666512222395 -0.036754259708790225 0.06460322016565197
-0.09536115415761048 -0.03476863806031452 0.06954854255456326
-0.07991968313824802 -0.03690175020647186 0.07713214188178669
-0.079514504495324 -0.03707811819281489 0.07601304675368875
-0.08396108281988535 -0.03663717083572465 0.07597003651334976
-0.08678815431739874 -0.035980785614693686 0.0738386838471868
-0.07729235625853773 -0.03706602106133338 0.07018182776575292
-0.09538618398783517 -0.03453654622357548 0.0670907517182514
-0.07894078870443799 -0.03687545155531487 0.06773564726329104
-0.07909075385729111 -0.03720018683362473 0.07354340287987293
-0.0876099442106655 -0.03609431407348569 0.06634848560401432
-0.08964313895127034 -0.03583511864041247 0.06613591461830526
-0.08038119782163142 -0.03688933060613505 0.06412843084789141
-0.08542588699540968 -0.03625699663297864 0.07020869491615109
-0.08709055398413847 -0.03591696252333848 0.06862266081132269
-0.08561019168889238 -0.03628103698022338 0.07156471380658247
-0.09449655561255854 -0.03482521282247344 0.06862613274556027
-0.07703491480609782 -0.03711695283725059 0.0777364720706683
-0.07668136133267416 -0.03730188865129939 0.07653484644372963
-0.075515772494471 -0.037427708255470246 0.0763827518638173
-0.09336063735780825 -0.03529281121692033 0.06545917831803333
-0.09836083892274419 -0.03313235327261482 0.06620715289860521
-0.0954270968677781 -0.03457644771690244 0.0650446420735753
-0.09671011226655427 -0.03401178229488911 0.06700095679722456
-0.09286394456200063 -0.035356399939180716 0.06977163252612278
-0.09162636405258398 -0.03542272167711926 0.07123696474181171
-0.09129101920575057 -0.03559783240226112 0.06841771433347348
-0.08952359266942482 -0.036127026656757974 0.07275026226213215
-0.07258132071176909 -0.037630684234495254 0.07506254389145331
-0.07193953333131234 -0.037579246518879644 0.07547497417873103
-0.06737281883936452 -0.03785464661840113 0.07014845145900638
-0.06712715831274704 -0.037875500244863955 0.06991903516074659
-0.06947819896508503 -0.03770350327767305 0.07303964106445865
-0.07076075556500347 -0.03758201203885775 0.06876668974188284
-0.06960221406603667 -0.037710928686962755 0.07239598402342726
-0.06797781910753684 -0.037738534583513964 0.07263673112632318
-0.06950154974823311 -0.03767020870916161 0.07406056652624819
-0.07040505250758436 -0.03764618316776633 0.0741010529245572
-0.07409281835956151 -0.0377384721447776 0.07377181592272124
-0.07263224216965243 -0.03740589926185568 0.07707696701189856
-0.07407931768573216 -0.037375757993552514 0.07702572058181428
-0.06847460942349533 -0.03776139898771315 0.06863171279079351
-0.07159299883499554 -0.037626756556578204 0.07203461476667428
-0.06865420310210008 -0.03763077978046278 0.062381270434269456
-0.06888521111522612 -0.037753596220720546 0.06489843145505575
-0.06824750282822048 -0.037796702334511434 0.06627718664951397
-0.06578342395494058 -0.03790884951271268 0.06549276776378252
-0.0682628867331761 -0.03762178883420313 0.06094815085275207
-0.0628247598645135 -0.038130895427110664 0.05606571242937519
-0.06119918812547766 -0.03824921159890584 0.05611808542583431
-0.06316496310041121 -0.038167080490765004 0.057377353455945294
-0.061685435108975846 -0.03823299862639823 0.057488481578751964
-0.06241446225385603 -0.038127359013688154 0.059678116211067084
-0.06525241056103724 -0.03793641096559339 0.06324798584563901
-0.06490566650430385 -0.03807165043515898 0.06137764608990891
-0.06432752353348406 -0.03802660000936313 0.06242334447142203
-0.06665424629046379 -0.037826255351144804 0.06202097932839072
-0.06598220951393759 -0.037879592825008426 0.06436400045131978
-0.06805421630761152 -0.03781936730109748 0.06767151862342503
-0.0669367802577211 -0.03784828808187257 0.06640743351171316
-0.07043194015192564 -0.03757360413916905 0.06611220414917257
-0.09591029846487094 -0.03471434360353336 0.07295153721976594
-0.09797784205491301 -0.033665804338809786 0.06847599510948787
-0.09632518940428776 -0.03460914969067418 0.07234227939003016
-0.09702993625704714 -0.034089240101349054 0.07249641091503722
-0.09794192329724247 -0.03351884686248874 0.06497988202935046
-0.09911422969113508 -0.0024275276954142124 0.12322903664704248
-0.09892659806229895 -0.004101726554472994 0.1235261940254219
-0.0988847344081622 -0.0015196871750052185 0.12203898489981546
-0.09901217837183926 0.000659352563605014 0.12104121359369917
-0.09941951830768306 -0.004850787003417536 0.11982737752248718
-0.09900662640430034 -0.005401191904357126 0.12228398221742337
-0.09910835023382755 -0.0042462015619716235 0.13406893012046306
-0.09935511804749196 -0.0035515288500129337 0.11983086890429845
-0.09898337967472472 -0.0014087642745405785 0.1267251686727657
-0.09922623841305848 -0.0012876027063260223 0.11858836998772468
-0.09904706199876868 0.002960738405213801 0.13385488029845177
-0.09878184438352387 0.014430717862794613 0.13216146365516868
-0.09877595560318195 0.008411569056902731 0.11587125064912883
-0.09828669522148512 0.024163179983607848 0.1118915378553178
-0.09864405707095128 0.012462150106533124 0.11080279067960647
-0.09814937085312718 0.029574807725741725 0.126789363530332
-0.09825195788611424 0.024790211073405267 0.11583651620291803
-0.0988494553839131 0.008118930728776749 0.12356239181840584
-0.09896888100294712 0.00469271625219257 0.12792138779565665
-0.09901213425659186 0.0036210469694282674 0.1303412950316094
-0.09906630867590122 0.004621566688352629 0.13429857996840402
-0.09896707250901124 0.0072493104461717715 0.13038301044645545
-0.09894316059148511 -0.00013738706461556582 0.12817356324254234
-0.09880734467100435 0.013904090104668242 0.13291179518543764
-0.09897227120440641 -0.0002483517693307764 0.13044928694474658
-0.09904680756036435 -0.00021540912239396452 0.13383382683510128
-0.0988015300096173 0.013833360256511289 0.13390988654492464
-0.09820127566171397 0.028475163563355634 0.12967372636053254
-0.09816363871586875 0.029845222549139766 0.11819485603762989
-0.09882485330928885 -0.001538606112127057 0.11573920480084446
-0.09870145389043514 0.010260815731515039 0.11427935535214065
-0.09912062726234261 0.00702854460556673 0.13490100072565367
-0.09894446108137064 0.008730515642882459 0.1326371226214176
-0.09868151282601859 0.011318897070400121 0.10745477161634245
-0.09879764080127117 0.014597943883586307 0.12965788201591333
-0.09903981560762043 0.009591862968179625 0.13491048912243558
-0.09894455947954332 0.0095951367272019 0.1334703463501891
-0.09877788019244996 0.013213906062794455 0.10976991132722219
-0.09940669549172991 -0.00014086556240157076 0.12032746147871524
-0.09892641100894954 0.0014509645652717963 0.1253011037385972
-0.09891005474759468 0.011577128812917115 0.13119082909263957
-0.09862509330362501 0.012811073941092615 0.1158860177785543
-0.09872419450679527 0.012320323054924977 0.11049881489262219
-0.09905689975729755 0.00900272470543175 0.13810740487091264
-0.09857111807119062 0.010531569497412158 0.11132290962039362
-0.09788463702290345 0.03089357466815466 0.11337349749212836
-0.098821781719274 0.0037069639429285553 0.11492686579477532
-0.09815077251708829 0.02786929729498882 0.11060430758075529
-0.09895581089097111 0.007682285898582934 0.1321728231422994
-0.0987961828216399 0.0009976580290828637 0.11590881902679415
-0.09875334939890734 0.01018018525621094 0.11269967314124368
-0.09902852590259106 0.011810629256107732 0.13587344822883435
-0.09892711194948406 0.003224579134845888 0.12727374314424889
-0.09888519778317958 0.005876656934585005 0.11256825069099834
-0.09893687819347259 0.00944937489970149 0.12897767329643575
-0.09884766982572073 0.01047894488518035 0.12762251611903583
-0.09829783258388589 0.02468543950315741 0.11244219947488465
-0.09898739606139191 0.0026465779339427194 0.1311956343667527
-0.0989418608595518 0.0054270506547453405 0.13150618070305095
-0.098826775714933 0.0077571209208405585 0.12734602748645255
-0.09901063241567969 -0.001448281869211927 0.12947331734922535
-0.09879806315568537 0.015225745163358772 0.13259887277071325
-0.09916225817893379 0.008858047154143543 0.13589545693421698
-0.09881804793132273 0.00848692465192828 0.1259706067668934
-0.0980981198576726 0.027534537399302464 0.11203084482264361
-0.09873891806438417 0.0022082777801383305 0.11419972568843081
-0.09873068702148549 0.008606250765380102 0.1105784107528401
-0.09878774800911741 0.01629923746299094 0.12149417210599986
-0.0978638157440199 0.03078511338857475 0.12742553708171908
-0.09827786171364218 0.027175433333571974 0.13095847242540584
-0.09863944685013246 0.010346047153919402 0.11598081932818262
-0.09876328419435959 0.007106141517810303 0.11787953559426426
-0.0989480285317437 0.0049128197335585435 0.12691453622732943
-0.09867504849951601 0.011749278001476906 0.11459545216464886
-0.09891651502405684 0.002472337420085699 0.1171826177343482
-0.09838904557119622 0.0198698248580459 0.10803798040744503
-0.09869609116094541 0.00968338829348687 0.1074709540062683
-0.09871999413027945 0.013954994112879229 0.12503882712833744
-0.09860303824964681 0.011708993288333174 0.10826333037357541
-0.09852009134084538 0.016443621224466097 0.10830972695904037
-0.09834935266411877 0.019895662684991256 0.10658354915442178
-0.09825330533568441 0.025163206601152503 0.11025040858413078
-0.09892031032877363 0.007708012463415896 0.1290566859946723
-0.09873997197498108 0.01639590216167374 0.11468254332548697
-0.09842772064256641 0.020873594609780156 0.13065827021147358
-0.0987463560754196 0.0008717857087120124 0.11483587049177879
-0.0991117781203112 0.005658853515973441 0.12187883469807512
-0.0984954512127 0.025720484128041128 0.11371058875116533
-0.09869747285183017 0.007344940780214341 0.10674383931285772
-0.09850510955523678 0.021227890242055566 0.11007773981898193
-0.0988067644704148 0.013060192201872173 0.12612576631118405
-0.09877228107401345 0.011155177944432325 0.12498166338818059
-0.09877968529330032 0.0255318201283336 0.12091682068729663
-0.09913821338644682 -0.0003953121332016201 0.11834775908053309
-0.09825893826618305 0.028119287200977016 0.13071638356619447
-0.09854932080226395 0.013349664038785219 0.11186298328759423
-0.09883214188797171 0.009326811997830843 0.12190030722181625
-0.09881120261679452 -0.0014283972199533477 0.11652642376204742
-0.09869100649064871 0.015456727175349436 0.12509376105478415
-0.09858742723134864 0.014070668039282478 0.10741523214939243
-0.09870594953385234 0.0047346067132092405 0.11735356410594282
-0.09869147288285049 0.009035967412008331 0.10557770789713383
-0.098808204079579 0.0035183977503035523 0.11750503182504722
-0.0983854970470574 0.02325124420557404 0.1170153895148779
-0.09851191134183528 0.01682085282458178 0.10828266094235926
-0.09901907688858251 0.01030645730828744 0.13558084506196447
-0.09877063249586931 0.01239658817317459 0.11334893639787437
-0.09876924817252086 0.0052572660843859115 0.11514369913882275
-0.09898836621447957 0.0029569643122564463 0.11843745968330255
-0.09854402905478063 0.019393513261064338 0.12598932248439323
-0.09880157419377814 0.014673008933421463 0.13383767378353378
-0.09886048747093139 0.007505872263710011 0.12527020234387387
-0.09813407223571596 0.029690117109333405 0.11301270869025284
-0.0986696586859681 0.014904225552728073 0.10471830294075615
-0.09908708044709862 0.004268226784293308 0.12913345633551215
-0.09882634326757493 0.005352295175031604 0.11313406691291397
-0.09890473769378696 0.012230527130639095 0.1340082518353747
-0.09871215729854825 0.007905826575639346 0.11621763822214426
-0.09843716699763227 0.024590395729954907 0.12197705831885576
-0.09877369005185671 0.003912277698308378 0.11614586663955237
-0.09869565557665122 0.008478377218164548 0.11725571024425285
-0.0983227023900267 0.02433869644917936 0.11683265964790135
-0.0988272935223389 0.010719434779958412 0.1274622199091162
-0.09833455195105635 0.01960237810425709 0.10595584487629453
-0.0987576574670584 0.011119743830504413 0.11743373251567936
-0.09836896253205679 0.02248266217275103 0.1095169456185227
-0.09909253585901572 -0.0023623810252321976 0.1311308913921122
-0.09815502440702657 0.029868410367267673 0.11515649815381379
-0.0985683857001984 0.014332358249040956 0.11054217417520565
-0.09865504355437493 0.010242371168049708 0.11735572282694044
-0.09845222273202892 0.017200253664447756 0.10591042396593897
-0.09887563804052835 -0.0029157022780678292 0.12191208898783694
-0.09876442757078391 0.0024372629731859866 0.12304600109813556
-0.09897059815601045 0.0059181799007105304 0.13064286458319166
-0.09870997896801362 0.005636972313627488 0.11695307197081098
-0.09868770763351302 0.016071851396496924 0.11278189909688864
-0.09884923559857492 0.007633491003565088 0.11806669520181547
-0.0987709286351431 0.004061284850515535 0.11243464144314419
-0.09901150694025354 0.0015256005393959314 0.12705410643144352
-0.09945536396858419 0.0046395766950638176 0.11989348511513531
-0.09910901599584761 -0.00477583569074236 0.13361462006349747
-0.09905140050063208 0.004362811879514206 0.13300391791054159
-0.09870800528801359 0.02380294457059064 0.12023460976179544
-0.09943714791573292 0.0015279021150246285 0.1189499637704107
-0.09816786900211887 0.029127188452501965 0.11464667948363144
-0.0985263972251045 0.012377297709252012 0.11748080213341451
-0.09891151018760869 0.0023042536308001457 0.12580074441258413
-0.09901420668416104 -0.004130283693224336 0.12884187585562312
-0.09895985180568972 -0.0038242781914095995 0.12247574759724277
-0.09905945019705041 -0.001323151421120875 0.12302456319096304
-0.09894890210560069 -0.004234831561035872 0.12756360100328298
-0.09894966984896308 3.569600736796441e-05 0.12630213133187596
-0.0989096425232765 0.0019993702297279353 0.12507853853072085
-0.09761460955291051 0.031418032592670626 0.10886765295469378
-0.09826766356320382 0.02185472959043428 0.10601463288828344
-0.09903557636914219 -0.0005369102885679043 0.1244967592824059
-0.0990643340136573 0.006199355689116527 0.12133706198299962
-0.09885072076197185 0.002924269701472312 0.12423112989327613
-0.09905978348949049 0.0053204963976251985 0.12441282653728178
-0.09903677466784122 -0.0021336212085463608 0.12471046078891579
-0.09843363953072681 0.025627926121206325 0.12540459716612146
-0.09875545101132743 0.0016639135653622192 0.12313167741560992
-0.09895793907894204 0.008286346682201925 0.12118520142557711
-0.09891473755480755 0.004444095675645093 0.1232841096842626
-0.09903827959850756 0.006464446351256474 0.12261278573386797
-0.09843793602134925 0.025873737065166214 0.12721081875840248
-0.0986947934242855 0.016733674541194562 0.12747138684415946
-0.09838858303221355 0.020764668492538812 0.10867341526655548
-0.09892375988480873 0.0005944947853473374 0.12597320659557573
-0.09834208387963833 0.026882675265437212 0.12291618945973652
-0.098430511212793 0.018911405477673747 0.11136736901422341
-0.09865721412254591 0.013123531101345154 0.10589996194518639
-0.09836611887184156 0.025295469717327015 0.12740934640925872
-0.09845907920728968 0.020471334763176974 0.111059402628638
-0.09904437433054618 0.011613556503944583 0.12277367544315622
-0.09830772807247305 0.025687463273891153 0.12947798419213083
-0.09837167492229115 0.02339376602299546 0.10827340229811229
-0.09917047762778983 0.014841559283624394 0.11916238545320577
-0.09886397755199736 0.009808669265721742 0.12371445717278064
-0.09843169021366463 0.01818142973467031 0.11625489425434664
-0.09811923955384802 0.029003005179296576 0.11300032503438104
-0.09828819846272227 0.02446593983170873 0.10748412029779067
-0.09852148837352265 0.018915502516323512 0.12209389275439667
-0.0986735747679782 0.010683621640186406 0.1059969883349334
-0.09878439172351726 0.014306443051483028 0.1210844941270396
-0.09817233144084976 0.027015678743923667 0.10896015281064442
-0.098227719087621 0.028548694495227574 0.11633784345764277
-0.09880025822519387 0.017070381957121808 0.11893544637140308
-0.09818386819153725 0.02628192765922622 0.11077488648703779
-0.09868943078963047 0.019974349202736493 0.11867379031804161
-0.09817871071761894 0.029912325291279927 0.12912684666305535
-0.09829312743396366 0.024655593991591934 0.11002871131273317
-0.0986918647329349 0.013901702292544626 0.12185364983647654
-0.09866276219586095 0.01256429815463967 0.12483087771406602
-0.09846715313115713 0.02315505808652087 0.12589340737378513
-0.09838319931015606 0.024463094959308124 0.11445016391503442
-0.09836878951173018 0.02568286874754374 0.1080931750988936
-0.09856253763654992 0.018472266258257417 0.12118594137697689
-0.09881704765497426 0.014616001958497035 0.12350541070497617
-0.0984576332544951 0.02232154234694044 0.1136320068055947
-0.09862333215366569 0.020001773124643053 0.11849691324790129
-0.09850115869454182 0.02129502716494444 0.11691674152022223
-0.09829381867947995 0.02631395455255662 0.10764395083241055
-0.09879322367433299 0.00791469609395519 0.11117433461726957
-0.09845326961475008 0.019431048360201826 0.11223395198097472
-0.0982904353969064 0.022473376615298312 0.1176431616277705
-0.09864231878705026 0.022486864569705486 0.12549793833074882
-0.09883510270913143 0.020830067501071026 0.12041342941627534
-0.09831525665361966 0.022586720956805893 0.11734475845493585
-0.09871777325832243 0.01240108477816564 0.12705007925003747
-0.09839653359373124 0.024733513645582732 0.11437595963139276
-0.09855407613871549 0.02082061957537515 0.12168992446812296
-0.09883006185942039 0.017892803083854422 0.12372143895500835
-0.09826335804124886 0.024447200064182145 0.11591602777490509
-0.09844098068929324 0.02580367622352002 0.11334193675623208
-0.09856791129943199 0.019055713432672386 0.1241701669690074
-0.09840898271895185 0.02385754503561978 0.11817018537117724
-0.09813545423517898 0.026322691597146706 0.11218928433569895
-0.09875622874028017 0.024403599570990742 0.12003191771658078
-0.09857855815345502 0.018892041661933555 0.12525433048079745
-0.09831091814404527 0.026998764866190003 0.11441617519680447
-0.09811711709649011 0.02894004548084884 0.112456447958047
-0.09864886360945324 0.016489070160276943 0.12684090736681186
-0.09845651986717108 0.024759617027100493 0.1233867450080403
-0.09884125436311325 0.0143039374891043 0.12955214283291638
-0.09861354197289535 0.023126842139667817 0.12219848637809043
-0.09833888371744817 0.026490879070514818 0.11826462330700886
-0.09873989546781936 0.0225908436398794 0.12341665371994728
-0.09819706789581266 0.02654630192459294 0.11701196281866807
-0.09790585447126994 0.03087018899971524 0.11201372882067909
-0.09856599917185647 0.02057569453512593 0.12520624005593892
-0.09868550708852342 0.015912324178273193 0.128026670375622
