-0.00025923827456474053 -0.039763038873691724 0.06179163281661782
0.003898787804778248 -0.039860420933202474 0.059765996047766105
0.018547330981895472 -0.039635077066762975 0.059745190715472817
0.017502093506960862 -0.03948969028968453 0.06987884215298477
0.01566905988728926 -0.03952735133684474 0.06709429142506532
0.02654580799590976 -0.0394183438820405 0.04918851714867485
0.020753881631800898 -0.03946794712419975 0.06291045017025448
0.02654256697407295 -0.039292904795978835 0.060600031148058855
0.005697369365966182 -0.039810955655126934 0.05951648127947444
0.02136828099490943 -0.039472364710617436 0.07022977588104676
0.015183809687471236 -0.0396332967239028 0.06287131430654175
0.0062052746305487315 -0.03975146588601406 0.05397953599015524
0.02291814461393407 -0.039570040635748226 0.0508718819938093
0.02252564488359165 -0.03947864877809265 0.05362665679895576
0.021985645432812582 -0.0395087250017304 0.05524977392554549
0.02574592565996909 -0.039462390398226715 0.05476298266124625
0.004358944937265747 -0.03980367877618205 0.06606703708875689
0.009499839769672417 -0.03965950792245619 0.06355399558507371
0.008281486691620344 -0.03963566936643375 0.06332878284993704
0.01444728857023925 -0.039709894873869375 0.05674392674085538
0.023970303617234245 -0.03925920729040447 0.05821835461305434
0.028899738006840828 -0.039351463767257455 0.06276059516084115
0.01674130177699073 -0.039534306807413586 0.05930926267880683
0.019917800706741103 -0.03958106798306926 0.06096560949486914
0.03012827161729335 -0.03926398744897653 0.05938708692731909
0.011587368321575147 -0.039644356797762334 0.058033342067990185
0.025808950425980477 -0.03920140387300676 0.06981004533468516
0.009307226308875179 -0.039639061027631844 0.059073008923392435
0.014035062073730236 -0.03967935324100706 0.05583143521783674
0.013385222750153178 -0.039690791087902674 0.05563864202080163
0.02602502285743049 -0.03942550690279002 0.06247094713380941
0.030008173596208304 -0.039359001690552994 0.06477784377367266
0.023574377190893975 -0.03950035267468137 0.06746344131828008
0.023627740872319263 -0.039520733332555576 0.04922353010005453
0.02728023654257697 -0.03938245551854639 0.0680730914842308
0.014209204123022744 -0.03977026144457939 0.058723535020131556
0.024250897326111104 -0.0394407343624576 0.06889244574200207
0.006764983271621926 -0.03941405405075054 0.06872549072223445
0.023746658157861575 -0.03951384085935731 0.055922753022701624
0.008024322161611098 -0.03968394864687278 0.05449436764007657
-0.004906011514888761 -0.03972097676529055 0.06145916164521784
-0.003623022402664554 -0.03975404130971964 0.06203119027577918
0.017235433315791505 -0.039577268221756605 0.061044986878847574
0.017044913284577266 -0.03969813931376508 0.044292250026297914
0.013732486183659649 -0.03952382181152537 0.06829624772309514
0.025276802003817867 -0.039625537823451025 0.04076006545234837
0.010330508488705144 -0.04004211774796394 0.050039811599649674
0.017864993097039206 -0.03953175473025333 0.05722834092392241
0.01982062589430008 -0.03960214728365466 0.05742406254013949
0.008678237892898052 -0.04011661743237576 0.029874271369304158
0.014975725493776104 -0.03978401373361414 0.04431241874950541
0.012403320955200142 -0.03980435623091251 0.04649787193202498
0.010185130350106795 -0.0396832706167845 0.07394657805198032
0.005125319768827158 -0.040155932069067056 0.0437075528417151
0.0037525434381228324 -0.039955158029217355 0.0452521431328133
0.012714290043790079 -0.039826180431129864 0.04129164249180414
0.008111273411113014 -0.03990416503367195 0.04221627653693631
0.008445437570225126 -0.03991146649415974 0.04018712519782722
0.004144954277584211 -0.04007833735385843 0.04196192500924418
0.005157649922695578 -0.04005888983252371 0.025798316840412047
0.002630047446583316 -0.039768851376060114 0.053783631327471035
0.0093526613689366 -0.039924240247555434 0.045092473945546316
0.009327612346277245 -0.03980293504746866 0.04387796873675274
0.012071646759219363 -0.04005277682889284 0.03303859694774669
0.004052142360701576 -0.03982472804308456 0.05410580787037564
0.012485827705844613 -0.03982297788130108 0.02797971196073483
0.019010612891067813 -0.03965490581622637 0.04918355451147495
0.01888753598969505 -0.03966310768930267 0.04776064388736264
0.02027239385236881 -0.03952850249474828 0.05572016937631521
0.0073393120603987005 -0.04014163402415351 0.04574049068699669
0.006625049808601861 -0.04017078662787461 0.04485095966424726
0.023412952985976378 -0.039622969520218584 0.04362464571778017
0.02080729531859504 -0.039631065152212624 0.045136698357570816
0.015433235390890206 -0.03967346978203933 0.04543475754475409
0.014571548997523925 -0.03988643756914814 0.03532338042004002
0.022399199169421742 -0.03955363534213464 0.06342477704138297
0.027448591446449625 -0.039325497144065066 0.061966007347060294
0.024413319122135395 -0.03945612480953115 0.05216611734103965
0.02103491269401847 -0.03972547444338298 0.03630286081304956
0.024441396781993828 -0.03922445203680131 0.07065809073055354
0.02356281892504012 -0.039280975070657524 0.07178523471710886
0.017670515196093094 -0.039697131526913135 0.035939532886188015
0.027544184015909953 -0.039463954272842494 0.04691837748826125
0.004621100342868796 -0.03995389738805076 0.050369595599529846
0.004860148888674454 -0.03986071265878846 0.05142952295609646
0.011188831180095535 -0.039870007957776496 0.039072157544572834
0.007596080032015238 -0.04017548427847567 0.026835122004115967
0.023279000466095705 -0.039637520615976446 0.039828746821641725
0.02315974287682171 -0.03963578840526577 0.039974922020638085
0.01947254326589182 -0.03977082557971219 0.037247694817024786
0.00933291011534965 -0.03982168261455217 0.051352168149992855
0.007179108233842711 -0.040067758932228 0.02979478689885014
0.014081230970551917 -0.03986984802991526 0.027229590522318006
0.015531416156284237 -0.0400175194914458 0.033450179331112814
0.012091526588391351 -0.03984775739223635 0.028353477668967054
0.002286619671536959 -0.03984051165629837 0.06070617893093028
0.020339049954636722 -0.03965604052377341 0.04649829448446862
0.021057741318911832 -0.039685313318014774 0.04712036685074525
0.01566285978348849 -0.039995170377916126 0.033694413009821
0.029357232917172335 -0.03923527714771722 0.06923091096037873
0.008299072839898055 -0.03987626951793513 0.04351634613589862
0.01879991119156312 -0.03984232141318954 0.04046652232773193
0.013043456796507405 -0.03994424075047197 0.03535369827781735
0.013210758145320344 -0.03986003736588149 0.03732216399691854
0.021892010998977234 -0.039631193666455705 0.041914480256969186
0.025147243367070374 -0.03959915460505298 0.044476490292976886
0.02687265208549739 -0.03941934890239849 0.043589955392452445
0.006135324480316881 -0.04000735242054171 0.04004295501398779
0.0029958616233719815 -0.039728118580375435 0.05308713708209849
0.01229149654360201 -0.039987441658829725 0.04936429747398688
0.005212908104969579 -0.03994495082526124 0.03652713024127396
0.025337063685702002 -0.03947983767244982 0.047800079687517
0.02916573204554621 -0.039446623708721075 0.045719555036100874
0.015080196545765524 -0.03989959375513254 0.04802910281602674
0.0037078561201165264 -0.04002037194182924 0.03832745614536497
0.015446087157211161 -0.03998472864063118 0.03249197067285908
0.013333604487324397 -0.03985234443033028 0.050784821683059665
0.012243607156768945 -0.03986855913185784 0.0511045441911292
0.00743716566950455 -0.03975128807649817 0.04791831191486083
0.022159653514362943 -0.039611400784898915 0.04439144510228668
0.022344178452673467 -0.03970275590033556 0.038000629589877225
0.008516447927140217 -0.03970757132779278 0.05204397301645664
0.0067781859967435045 -0.03945583230437459 0.06976732586096865
0.00781220086631397 -0.0400287900415134 0.035314787329114875
0.013811338858949487 -0.03985837569357317 0.047792574587684156
0.009765821604406139 -0.04014047503413276 0.026474373402741606
0.0009531352320516691 -0.03978576744620217 0.056764204867752965
0.012273591883598441 -0.03986369846244233 0.047463081987348346
0.010979002775321106 -0.03977171993414135 0.04266634383219577
0.011377638318200755 -0.039779086257414546 0.04187812045325519
0.01687856870202708 -0.039631070610320125 0.05455988374221875
0.01653666714492615 -0.039653885875297765 0.04626484092576305
0.005785907306638858 -0.03999768281998803 0.028056144669929364
0.015344258894539947 -0.03984740438128657 0.028609078706803417
0.011400153507075196 -0.03977336600751023 0.043287893255245645
0.005186035141200584 -0.03995864617157627 0.03791544481474933
0.014290594610419384 -0.039792283791899107 0.04546868432126268
0.009193341165603325 -0.04014706819120665 0.028512371367910225
0.016362133046427432 -0.039754582992105346 0.043950999304666505
0.024811550057261066 -0.03956601715325138 0.04683084564106854
0.017535487731334058 -0.03971953825620092 0.04867418769226796
0.015842082659563668 -0.039777206609485485 0.0441006390793146
0.017151915982534738 -0.03947448554142645 0.07356272049150596
0.006722783385661102 -0.039833069144142384 0.04885398824993284
0.015000903425697366 -0.039673666477438474 0.059241787084808754
0.015768183862856923 -0.0396157834815966 0.05905389444369763
0.024122883926580053 -0.0396213740454069 0.04426406796163261
0.013204914170631727 -0.039860242453853376 0.030321048679747976
0.009627374127896169 -0.03993062388753378 0.03600998181556801
0.008066379312836835 -0.03950723763767068 0.06634002035557882
0.0045590540458553125 -0.040061038982097646 0.03359802164793026
0.004571183985664104 -0.04011797306240457 0.032578158657879795
0.016432704609747894 -0.039773559470986077 0.04176393001836747
0.008931952081029608 -0.03982189499240388 0.041302941609928985
0.008880474348281268 -0.039790073028757277 0.04212016642726513
0.0052972335471251075 -0.04008257984098526 0.03204349695956466
0.004788326498659178 -0.04015713650208469 0.04302671364339411
0.010651784280653605 -0.03994779989838476 0.03519486070565427
0.014212711645101078 -0.03979799127440857 0.03739628252493264
0.020932483196746093 -0.03949145139236413 0.05415269856962736
0.004756233726330973 -0.03976187233193497 0.0524709831729661
0.021507964750889046 -0.039696790071690295 0.047403285422363065
0.016389866421707925 -0.03979322622516277 0.03795849752363481
0.015656749345546308 -0.03975172640903185 0.037354861641333115
0.009699831215332718 -0.03984401992454863 0.05131153766499834
0.018418275169562896 -0.03965400374789562 0.0504521105612636
0.0013433299947787432 -0.03991408323422417 0.06483321102895412
0.005105831298633458 -0.03964370740211188 0.06713635148876944
0.019814837840649996 -0.03982104791332501 0.03216350229701517
0.005528790201336111 -0.039988244235985425 0.03470721926291626
0.009531546851174008 -0.040210268219203496 0.02752785037822017
0.006996239618563569 -0.0396079973597856 0.07348677300917643
0.024643262366323332 -0.039241343226158194 0.06024010894236902
0.010413779970088778 -0.04012224039005309 0.030919190844879325
0.010516867671574507 -0.04009098051330544 0.030500489446444286
0.013474317984820697 -0.04000887733622177 0.032406725716325385
0.010659264306043945 -0.04005961586882692 0.03369195369969546
0.012901084222634583 -0.03974529903460556 0.029011199374950142
0.008627180210511636 -0.03956512758897311 0.07100695395958022
0.006694921086373468 -0.039695094799737894 0.06312924396204422
0.007653553058585675 -0.04011447666402861 0.025628684300890298
0.01544545468384264 -0.03951188587411887 0.06916669997585859
0.0009121453607320279 -0.03982375855442087 0.061305771198091386
0.008739242581115164 -0.040132406839729906 0.025340955429048045
0.027865027984936657 -0.03942773239519784 0.0668549798968006
0.02056410617892238 -0.03939848353676781 0.06764885508445415
0.021368019765000343 -0.03948461810966644 0.06381152169582949
-0.0007553651151660599 -0.03970967276289811 0.05899654906317416
0.011280811371511802 -0.039991602171410456 0.026111418924772686
0.012532691133626022 -0.03954320841311166 0.06695269223324696
0.011379591180239517 -0.0394746023365691 0.061661817408996
0.02747914623456163 -0.03936043759421908 0.06464626185453437
0.01233007250582247 -0.03950422369726948 0.07067293081204161
0.02009741545432414 -0.039445882382539606 0.06305875343424211
0.01710921001972889 -0.039715319265121084 0.05271579372143323
0.00883248023920733 -0.039929479086210064 0.036639998019412146
0.010287589493396114 -0.03988411561787871 0.04530211099069884
0.0075156914155341805 -0.039822571677691015 0.05126299404004636
0.01858732046321443 -0.0398303347978175 0.03825472450784426
0.017714350708696612 -0.039796557375943425 0.03776683169242228
0.02874803965894115 -0.039255783405456136 0.06799074295949441
0.018009509541826018 -0.03969880537644168 0.051637975121800114
0.015511264359029095 -0.03960278925060581 0.06481863072705656
0.016039820222165258 -0.03959466436085807 0.06421411702723345
0.006690876408023596 -0.03961228050310335 0.061278574435345
0.0013275499928476068 -0.03965577833035813 0.052488116203549054
0.02172674436768276 -0.03951014662312147 0.0646692230664813
0.007401286247274559 -0.03995002673619827 0.03934081495982118
0.011748920343655466 -0.039791844071807206 0.0413324504582155
0.013891790182460393 -0.03985146364948815 0.040436248577978035
0.009042862668475832 -0.039999574426147134 0.04984212670261406
0.01964943683302066 -0.039466128264574116 0.06536007253823597
0.02646046506309082 -0.03949891005397818 0.06698996007439201
0.004291317228925661 -0.039975033854539925 0.049968387044349215
0.004900730736696524 -0.039962546533712444 0.04865873103023703
0.0221147365137612 -0.03964800441027659 0.035126088579397044
0.021734653340022364 -0.039683361539743264 0.03462955822375831
0.010984961811926467 -0.039642645134349924 0.06326982302558948
0.01075896841596998 -0.03965249121451566 0.0634002501250132
0.009505204197256832 -0.03947294791068963 0.06655355821670042
0.01176323364857278 -0.03962917460949602 0.0651937185221663
0.012717724870085 -0.03964083319976011 0.06507041564200852
0.011190367465402551 -0.039684411507225764 0.05292815411342269
0.01576898054508723 -0.03972809686142538 0.05255837726069545
0.01614081974584957 -0.03973262502350578 0.052519384405365355
0.01982240216529669 -0.03945468909084143 0.06609406001266817
0.028863356953431837 -0.03926585087800622 0.06047330670126237
0.01962051632316407 -0.03977374650934964 0.03280372369672898
0.005378274524458939 -0.03985696654939288 0.05855931232699711
0.011857867999939953 -0.039588997363438766 0.06583740598531068
0.011957628771254954 -0.039511583740843834 0.06696482054918192
0.02561895580220204 -0.039592054296382836 0.04212320633658867
0.015501058101073845 -0.039851876618164826 0.042615638593959476
0.011166847035262042 -0.039621864515108414 0.07339152631660256
0.00315142226281701 -0.03985038017372053 0.0579126745603039
0.0013328742674555507 -0.039865224258147106 0.06549307201912836
0.03056362830161797 -0.03920965325097828 0.06959472579282117
0.021726926989416515 -0.03964290495938144 0.050868176869705295
0.01643477498635535 -0.039764140896941316 0.05093769978941558
0.016104465054404663 -0.03978221179342246 0.05152335244244348
0.010701916241809897 -0.0394805390384763 0.07012529009506571
0.026734969243086652 -0.039304256158433755 0.058848765616130484
0.0004421528450340828 -0.03965358245970003 0.06727277979695914
0.0012864053995623203 -0.03964519028913592 0.06779576061734133
0.02406086039306301 -0.039485188671387526 0.05456309908896692
0.010119674587520135 -0.03940299769504077 0.06790459878233762
0.02860912302833224 -0.03925094712968622 0.057726337598134114
0.004342032038898577 -0.03965868299360218 0.06166503105550618
0.0076138544973978345 -0.04010653418497994 0.03155245628045784
0.008255507448669626 -0.04012448184701126 0.030333132216934726
0.019640310207120492 -0.03930917663745837 0.07359343824870762
0.02785135406891644 -0.03944904865378946 0.06616634567365814
0.016281743445360437 -0.03961230459420662 0.07275011079107344
0.01796258368108768 -0.0395087174166082 0.06445442117050475
0.016706229846852386 -0.0395182896494914 0.06626488476602085
0.02096334029700543 -0.039572984321067886 0.060142376496376104
0.021913118988770533 -0.03969854560395748 0.039440074744872766
0.021111733062564027 -0.03975321230218343 0.039556489485069395
0.01647647857891025 -0.03958050392948231 0.05723566257078343
0.01858544371832575 -0.039602192610851 0.061526669174209465
0.022567083787542786 -0.03968669049759993 0.04706882830475577
0.011300563525508067 -0.03970427759943863 0.05416306389768855
0.008533101422999567 -0.03968100810281079 0.054376100895680866
0.009376505239334698 -0.03991029778758729 0.038870067017015425
0.008890149824103095 -0.039974043360302546 0.034141229287054146
0.008540329622695332 -0.039988866415615484 0.03389081279212458
0.02054622042625822 -0.039805694455231105 0.03907016061266016
0.01794388100320421 -0.03944666256316597 0.06694778074785944
0.024003706647078914 -0.03934772505701742 0.06983696760310003
0.029663148674518813 -0.039225165046509726 0.07092496074893187
-0.0019258965138850088 -0.03968907511032682 0.0654478875269132
-0.0015141251193349498 -0.039730986259600025 0.06522636238750103
-0.0020365600732258726 -0.039788795819719 0.060582831877559175
0.01421289896042878 -0.03964311472178764 0.0648141532127344
0.005570749920485601 -0.039778250865976444 0.05450419153058808
0.0058494584156829395 -0.039779911689418496 0.05590841240029073
0.02127693978617593 -0.039399357113841134 0.06772202781749509
0.001881554020978234 -0.039796856772864285 0.05568136141454533
0.014333690849322948 -0.03956200322195914 0.06951121572057146
0.019163140319653504 -0.03941071826754185 0.0701153429958524
0.004403100195510718 -0.039947404302538805 0.06486068198323874
0.009748113915577204 -0.03958040333486608 0.07053869585485316
0.024744454195662367 -0.039487087521160154 0.05579886725881632
0.00032880137391645833 -0.039838355584197044 0.060024963953539234
0.002051222400639566 -0.0398425108071365 0.058000414433782094
0.013613335918102638 -0.039582481807088926 0.07006861830672498
0.003347701884392951 -0.039897673688568336 0.05907479404992429
-0.001090653978471855 -0.03983882802706998 0.06351411026643085
0.00838907838698937 -0.03964034951276364 0.06279774122568643
0.021541251371988597 -0.03956343786848507 0.05906773148150996
-0.0009631060426066061 -0.039641618452525694 0.05782208846063258
0.011713306099501022 -0.039452425027630446 0.06977483987580493
0.025340576543184227 -0.03925923273087746 0.060352186789129035
0.013602675288390764 -0.03957459800142497 0.06165356888800111
0.01897440503099887 -0.039407055309685544 0.07279270100057257
0.01294301430992686 -0.03951726439730492 0.07282683921178204
-0.04402425400845279 -0.038998401649153545 0.07562957694935993
-0.042997527637904945 -0.03899858479967906 0.07640166960177205
-0.06044690467818912 -0.03811822031347942 0.07075521058299009
-0.05877860525758277 -0.03840370525311703 0.06966469862842267
-0.06579546429151265 -0.03781620889046692 0.06847708156254738
-0.03171965003358018 -0.03926038781581457 0.08241774480945324
-0.05351278246596497 -0.03852850000694971 0.06749921770799634
-0.06113035909623672 -0.03807858451812724 0.07009120934432234
-0.05578733294766834 -0.038531669033525874 0.05525655405962636
-0.055154723581747826 -0.038592379241291226 0.05409267776548468
-0.03388968980108579 -0.03925749468879488 0.0728308038061206
-0.06083322073671299 -0.038194347214254784 0.07273450378321693
-0.06010476495723918 -0.038276424664729115 0.06774314201954632
-0.00847048202055912 -0.039482746288067076 0.07285997723897669
-0.06544012487578675 -0.038007013368686206 0.08044606888697706
-0.06859196513108963 -0.03774206755900738 0.0761137378789206
-0.06813951127478175 -0.03785484011746464 0.07669570288603299
-0.022656083452579794 -0.039534901973021605 0.06810694339295663
-0.06512302896533444 -0.03788229921152015 0.07757753622272964
-0.061693440003600115 -0.03807102768009048 0.07917829697188342
-0.050563034440094745 -0.038574861770566536 0.0715814787805935
-0.05125651014011158 -0.038547251139167966 0.07085782887618536
-0.06521518949966747 -0.03792037172836456 0.07362346002653279
-0.04643737154734555 -0.03891087654236231 0.06977913747446748
-0.059764928075273185 -0.038220303361134814 0.08091799656250237
-0.030399385463241696 -0.039465920422237386 0.06367605418196337
-0.05017351463336385 -0.038600299408191735 0.0702235640305111
-0.062302283300315835 -0.03822839938677149 0.0756408868925354
-0.0638525144930358 -0.03803368392235712 0.07512855635693169
-0.037512056622246964 -0.03905217466482688 0.07340311612651843
-0.03847214280323512 -0.03904977965203464 0.07293533249001669
-0.04988570090471169 -0.038734728968057006 0.07587556855799438
-0.05562055296064142 -0.03838424914956016 0.0841124802959937
-0.04712922512306502 -0.03896739205925494 0.0544510024947267
-0.002770848801311215 -0.03950080225665414 0.07098864763855717
-0.029900118695565497 -0.03897847041962554 0.08853398714418906
-0.05226429017445483 -0.03859823379124527 0.06763720219684857
-0.05583573762277758 -0.03856478135278425 0.07366652529646373
-0.04278470765912194 -0.03921964200405621 0.05210237155626096
-0.04343482364724523 -0.03900114582995484 0.06130948274664273
-0.04616361315567006 -0.03893877878921181 0.0617135571434968
-0.032957545067749915 -0.03925557532980409 0.07610997108388597
-0.04772661368388417 -0.03877065054765637 0.0744051741026061
-0.021783326156583706 -0.03912755347287643 0.08303078408219043
-0.06698203678992634 -0.037855070438005775 0.07540482176352206
-0.04604643851623605 -0.03892210633039935 0.07318809741878879
-0.04461941002882775 -0.03899083689829008 0.07267869804311257
-0.06453888040609511 -0.037921686282416656 0.0701788092255374
-0.051367465724420434 -0.038765733293003396 0.054143787333837595
-0.05033484180671219 -0.038820568067160735 0.05434968487485972
-0.027920843164107784 -0.038888153294359594 0.09072583901438386
-0.05966273663611032 -0.038293009357956036 0.06493412735329554
-0.058033996461611864 -0.03840978038699388 0.06621442748055505
-0.03598861615737068 -0.03904342495702678 0.07545999721530494
-0.05397704067928623 -0.03861455781745315 0.05727859532400072
-0.015566822947059952 -0.039469666710357246 0.07519143823887986
-0.05686563208487028 -0.038480193510909914 0.07339306776925708
-0.06472060788012464 -0.03794253012550097 0.07485725443579984
-0.039911804047900845 -0.03928413998524451 0.06838249704123438
-0.06071839011814245 -0.03817729785643903 0.0792599250721416
-0.033548318190428 -0.03874499339513605 0.09179494577973195
-0.057300165022707 -0.03838650200230308 0.06134859437645646
-0.05715266522368432 -0.03834299640094452 0.0630263016209476
-0.0022542009601509666 -0.039614934076070696 0.06955074439770738
-0.02415208419675134 -0.03872727586714643 0.09055588116880647
-0.05288158118617409 -0.038633962283937874 0.07523289272033562
-0.055103113548800535 -0.03840037538692899 0.0816180178785878
-0.06194524236402029 -0.03805241920579845 0.07892646040792896
-0.05896076823819648 -0.03830408649543647 0.07092336911751017
-0.058934877629809465 -0.03827266792772685 0.07143973004018807
-0.053666720938028746 -0.0385726516892957 0.07080897243035579
-0.050059066941096124 -0.03864000947446813 0.07245818394632794
-0.03201901621527478 -0.03934919155349239 0.058555099894156803
-0.03335639767523463 -0.03940267910325986 0.05931778955985443
-0.025249259071563022 -0.03956611631335634 0.07147969070807675
-0.05791418051137065 -0.03826875658316209 0.08089955380411665
-0.06442112364827683 -0.03802188719220227 0.07603709383683599
-0.055708201153130396 -0.038389165088153196 0.07942704351455729
-0.04464984668404581 -0.03901112422516561 0.05479035977803099
-0.0014621683644673756 -0.039647572471239186 0.07405630989037282
-0.01031081779415154 -0.03949307963946244 0.07311560866865166
-0.02466512683914935 -0.03946466122337266 0.06664094356714828
-0.050176682494130015 -0.038541513382231204 0.08306547757880735
-0.0491514138088105 -0.03864484515625814 0.08211182863278528
-0.04338443579625865 -0.03908692912893684 0.06482320256295794
-0.061449746493917955 -0.038337082956558646 0.0761877528350579
-0.059193621416978405 -0.03839619964940834 0.06797967523203421
-0.051127265353631345 -0.038746491779393606 0.06729688623722176
-0.040577160191335865 -0.03916113192664293 0.06417271448147592
-0.05612381544287785 -0.03847093396642022 0.06594739730106593
-0.05558269076622589 -0.03846461855535019 0.06571211248781017
-0.053926847847379104 -0.038612490249965 0.07508312789516772
-0.009641146928280084 -0.039516196715460285 0.06961349581382899
-0.05030210906556892 -0.03875681147701836 0.06831646662491064
-0.05464979052847101 -0.03845148954570125 0.07974498810639452
-0.012085812715324168 -0.03954983445995462 0.06939718353917954
-0.05044276388991355 -0.038730970768553676 0.07421178281243074
-0.052086528917570055 -0.038667359595677214 0.07457972790257916
0.002094207808576487 -0.03948400860942145 0.07208022935302008
-0.06711760093076655 -0.037996650641150646 0.07699791594652079
-0.0521930448936704 -0.038467224434205735 0.08251565284313206
-0.05682482665159997 -0.03840828581068167 0.07619141848102702
-0.054796953049041086 -0.03851876859708818 0.06760042882502265
-0.05546755428825667 -0.03850755091687862 0.06721431186697356
-0.012603780640117794 -0.03960245894515788 0.07089822537650078
-0.01640091744697401 -0.039565848190642475 0.07774193265239274
-0.06174621565248794 -0.038140030992950685 0.06719609705596118
-0.061358090886387676 -0.03819009410287529 0.06277479388864422
-0.039345517910064236 -0.039124296924888766 0.061879685847616814
-0.0387357381265311 -0.03913065252979252 0.06175402330291513
-0.03298532322573645 -0.03925575250443933 0.0705597668858324
-0.05494575289133317 -0.03859764635439845 0.07544757416594092
-0.05485025362524398 -0.038460554013269595 0.0784160415628109
-0.016202107378445664 -0.039632569344815155 0.06640851824442123
-0.044549621068729624 -0.03902551758416966 0.06264884423049168
-0.03497679093915971 -0.0391122803639005 0.07887337491469844
-0.03453996495122253 -0.03911922509938932 0.07854070505534674
-0.029556825767713846 -0.03894470059766789 0.08962531994240923
-0.05177411197545438 -0.038577386211372036 0.07163629683937206
-0.02041798969175161 -0.03948463129442961 0.06851585378726416
0.001217634365614189 -0.039499336912965484 0.0700541234909588
-0.05399547137439593 -0.03844375740152962 0.08529021029515664
-0.0589733002826696 -0.0381434579652353 0.08605103658437101
-0.05797480072174303 -0.03838362523994195 0.06064174423268666
-0.0481062926039723 -0.03890701852791859 0.06622858211999234
-0.03921139724277692 -0.03922231117778675 0.05936434348740544
-0.038321018910629515 -0.03917951033418401 0.0597758237516859
-0.04212148897795893 -0.03906541415789148 0.060144192603569846
-0.04206640669074001 -0.0390547630729621 0.060844419255750196
-0.032800536994793836 -0.03936975230828549 0.058077818900870354
-0.04236196399334167 -0.039081890484599535 0.06889451909494605
-0.043956040115923155 -0.03899127538144828 0.06826194618795892
-0.05576335630203067 -0.03862634102383355 0.060234717230630765
-0.015838488883944436 -0.039512956999900976 0.07320603983046306
-0.03802883888585048 -0.039209785105764595 0.06541165667724563
-0.038161451888634304 -0.039039687745101144 0.08152061929040888
-0.03828972457260517 -0.03902854809894947 0.08220781408176725
-0.043646724636699864 -0.03882863704824775 0.08375823174376389
-0.024451394524542966 -0.03878546448244781 0.08948319947742088
-0.051291207062668945 -0.03882300353419792 0.060502905290653136
-0.06063111420650991 -0.03829341817468365 0.05820256726757414
-0.05868445613764238 -0.0383863312122045 0.05949611934163329
-0.04905748602756799 -0.03882775074449707 0.06806339076833305
-0.045105089620084346 -0.03904944212295714 0.0638452326141533
-0.024385489371260588 -0.03955539341743033 0.06394091735877731
-0.02247011805520246 -0.03966037107451087 0.0651285290811855
-0.03371116680388049 -0.03919081277109467 0.08165870987633461
-0.044163435322450664 -0.039036731246589615 0.05520334928131578
-0.04252090598072378 -0.03907004957936171 0.05716365518705668
-0.03983783097838685 -0.03924796287266882 0.05715448796685717
-0.03834715469503669 -0.039205499685728465 0.06370992301702974
-0.06067695806552787 -0.03826186210266212 0.06661979187556875
-0.05971576422051579 -0.038292788358785405 0.06460724257059486
-0.0341625894978586 -0.039305123405966806 0.06734178290476203
-0.019414124783521895 -0.03955091850849744 0.07148145636190203
-0.052743050282958906 -0.03866158133645261 0.06215673611471266
-0.04792373942672155 -0.03892787688652717 0.061397076986615715
-0.04322978142397472 -0.0390438526657689 0.06620332916152252
-0.025376542800211017 -0.03900862742339312 0.09295032125593514
-0.037990822808619956 -0.038938694026971275 0.08601535366468807
-0.03467752104741813 -0.03903322048528743 0.07619454741744489
-0.03639159670829915 -0.0390928677622893 0.07670854237785724
-0.05358308358529976 -0.03862000646317569 0.05647285200749432
-0.05371218812309404 -0.03862077599869364 0.055419415299998484
0.0004495689852866984 -0.03962436234696489 0.07407261518427714
-0.0475642512727137 -0.03871698287203975 0.08094817722345397
-0.04913063446311119 -0.03864648825178762 0.0804628521597875
-0.03543704863488198 -0.03927605459591779 0.06315023728992145
-0.018486191106668506 -0.03955284165300054 0.071624887055733
-0.03339606877051224 -0.03922615361159077 0.07398345926774336
-0.03708482556122532 -0.038909411706251854 0.0884979144713121
-0.03752796364828098 -0.03925566176358366 0.05878055257768452
-0.034446291493885055 -0.039046983943672356 0.0860016484166503
-0.04405427912591928 -0.038892678319266454 0.08476087991961474
-0.04182610243386097 -0.03879122651016806 0.08413163731944884
-0.03439561088719478 -0.039402223543707385 0.05615108538238918
-0.0033272508253960847 -0.03963825668445088 0.06847071274056045
-0.0065395154556910995 -0.03946877944364504 0.0728119100945603
-0.02827308186319533 -0.03900711235391917 0.08748524765351902
-0.02442932182980406 -0.03928687253499101 0.07757882406299765
-0.018884492718199797 -0.03946895972270917 0.06266757685473559
-0.014448261200684044 -0.039543305331384816 0.06425760706815069
-0.030275601162946496 -0.038828785572927245 0.09070756782237502
-0.0023530596350480313 -0.03949941901873827 0.07107924883151277
-0.00401714880522842 -0.039571213235910827 0.0725837916608158
-0.0029102487247583447 -0.039553491939066085 0.07188862460604131
-0.048267824797989495 -0.03876787268528161 0.07764999644456223
-0.03203161478058606 -0.03923976820540928 0.06504537826832939
-0.015160705554716904 -0.03958767216395023 0.06974160991958644
-0.048848203139300383 -0.03896958759712843 0.07221759611108339
-0.050324325219938654 -0.038830066208055306 0.05856587599261122
-0.032269582597690194 -0.03923910836160287 0.0790226659903091
-0.0032152831378217703 -0.03966413705554412 0.07551049728868642
-0.002047464831830489 -0.03966963483128387 0.0756596647120722
-0.037019929002402974 -0.03914169197989447 0.06025911270917819
-0.03875431255639311 -0.039211058931308204 0.06578943880939735
-0.03309470009320117 -0.03926689527903984 0.06453541251523202
-0.035405447142125325 -0.03926495628891296 0.0676259809256226
-0.023807536946631142 -0.03908352917697629 0.0855347536837867
-0.025992721672000445 -0.039493519608481624 0.06229650062466305
-0.03818301875034434 -0.039300312460863525 0.05723305711401961
-0.030264423507719827 -0.03913579639019791 0.08501002028795197
-0.023381840710770527 -0.03925307300684246 0.07963674317301009
-0.045753006133976266 -0.03883870872828992 0.07770633976383154
-0.043755929263359326 -0.039011047298592866 0.07419340166656378
-0.04461322646859521 -0.03894571180423073 0.06915851449574618
-0.044748927462469675 -0.038946180374247845 0.06978620970675192
-0.027960147795704 -0.03899471661665741 0.08702712116435388
-0.04252258269023735 -0.03913007715567335 0.05498193726947839
-0.04579902303769512 -0.03908078506309027 0.05294315102560731
-0.031985880268206944 -0.0393106744587101 0.06841061852307469
-0.04455374352648786 -0.03885655188142699 0.07713411973139817
-0.032296461990499944 -0.03907490469189767 0.08419643355542823
-0.036357443759544264 -0.039140058392863955 0.07239369741074875
-0.0533301721125111 -0.03869865258820284 0.05856619350939198
-0.057740276756810704 -0.0384007340247849 0.05645787220939773
-0.059162015950902695 -0.03834879307958627 0.05650532344817712
-0.052274112690387675 -0.03860441135183509 0.07808634002811304
-0.03282458571709739 -0.03887475659783712 0.08871730387216653
-0.024000265279059484 -0.039168820462677736 0.08388213390400907
-0.05885445370378026 -0.0383762774799599 0.06001851739384492
-0.048861071810915105 -0.03882091963220804 0.0691518726219076
-0.00743306967336885 -0.03965769263971543 0.06730790329582413
-0.05037656112054855 -0.03884138771945082 0.06278175481476182
-0.05574779448748973 -0.03853532631379526 0.06114925617881135
-0.009119101361836546 -0.03967321831756859 0.061347763464346464
-0.007309407010696984 -0.039680811108390765 0.06078995033976016
-0.032582206104410115 -0.03908059498457982 0.08634366604335547
-0.03104342111098521 -0.039489401724260215 0.062360199162042745
-0.03270968272142838 -0.03946839698884522 0.06189548604385456
-0.04742120313916831 -0.0387296383562009 0.07669811096956908
-0.013599611684767957 -0.039405181926937295 0.07384622003063097
-0.05767633829230018 -0.03833079410861327 0.06350716932950143
-0.056286928443463904 -0.03841601531525074 0.0647551869821221
-0.03746003080293755 -0.039073874905186746 0.07981230945615915
-0.035813124524058715 -0.0390842049576061 0.08083637972337607
-0.03273289848962009 -0.03946197226606702 0.06173927895228212
-0.03145020793348829 -0.03936771995522359 0.05946494307975474
-0.043958251918138486 -0.039008536620014814 0.0584025003785006
-0.045298328433514015 -0.03900131930207199 0.05913397527214304
-0.025764326225692545 -0.039485544972193296 0.06415996059569641
-0.043996035974916164 -0.03900789862646163 0.05715963487071584
-0.04477199177615189 -0.039004210624479896 0.05748056310861109
-0.0517018122694181 -0.03870469667835637 0.06385711323277415
-0.051297157179144 -0.03883401335079831 0.05998331977242874
-0.012891581441966055 -0.03948844233652842 0.06670672814763719
-0.005699833111579089 -0.0395291834931029 0.0749622751031334
-0.021316214702086757 -0.03909081910292598 0.08399872507606154
-0.021649223397143463 -0.03911468530648829 0.08548940233294011
-0.018721779485860457 -0.03953155626148902 0.06981005481304443
-0.05532340213816517 -0.03857126527859697 0.061028148926909095
-0.04567958754393379 -0.03881358114806989 0.08220434099757412
-0.04632526451039687 -0.03878415263119786 0.08231676688849879
-0.04273944607549926 -0.038986483449768516 0.07834262861887367
-0.04887558693237473 -0.03869442167880453 0.07890801335893087
-0.04832645389244677 -0.038958926083484675 0.05979791165109165
-0.06518024908969566 -0.03797466832646478 0.06645989989718604
-0.026905758625690668 -0.03928029288459434 0.07894876270832958
-0.010903553301978628 -0.03957476276447623 0.0630407001884759
-0.031332745301593946 -0.03916812936564739 0.07136776507104
-0.028355429023273527 -0.03911178551674553 0.07739236904544015
-0.021044814205064002 -0.039283443629449334 0.07870248459666039
-0.018933493505547672 -0.03946814149960186 0.07751796893626695
-0.022936643445038533 -0.039427723877867006 0.07315524038131381
-0.009252588446209737 -0.03950414464518747 0.07009238710816361
-0.039914257241668485 -0.039218566690023465 0.06928420812146838
-0.04832934376410499 -0.038872238026388506 0.06966071537131345
-0.0532555927456367 -0.038564590074530135 0.07060582591399624
-0.02639031948577276 -0.038967359545986915 0.08841889478948815
-0.04114774701595502 -0.039016142348654866 0.07606634934293782
-0.008555402270770318 -0.03955575203786195 0.07179418576852245
-0.02124638834133483 -0.039731455150866866 0.06503603535130567
-0.02250550505674387 -0.039554742706928145 0.07065577934146736
-0.056486782372002685 -0.03849001784175149 0.07102990417089518
-0.04730810569026292 -0.03874082851262091 0.0793318379877962
-0.06193245649734622 -0.038130505902855105 0.07153627620726961
-0.0395681128617765 -0.03905670075081984 0.07876165378069566
-0.03871412730804812 -0.039063047050391216 0.07903578202461714
-0.024522469255637912 -0.039106148992888036 0.08542273199392025
-0.048429546783792625 -0.03893040069296887 0.05542988323695495
-0.04987388044922925 -0.03884498857659331 0.05520076526593587
-0.056521228119045086 -0.03850573169809371 0.05500527161168861
-0.05866273779805324 -0.03840987026531156 0.05426994049928339
-0.03781576696469939 -0.03922561046817621 0.07060644063935594
-0.041112688828311754 -0.03906800573604463 0.07132955393301632
-0.041836758879291926 -0.039067799264926914 0.07104097544029518
-0.05985987436929301 -0.038300492709205755 0.06172879174848594
-0.05980567070244892 -0.03828183119106635 0.06255808836793893
-0.034042077010505684 -0.0391257049634536 0.07471603197962481
-0.03712726670042966 -0.039145631961679285 0.061089875934601225
-0.06608456883528897 -0.037835375557811524 0.06775390264987878
-0.014169840458207471 -0.039514783443828194 0.07709302882881364
-0.04203696952227888 -0.039171550821200614 0.05412378794848155
-0.026528349475567627 -0.038943672091200934 0.0926591499977893
-0.03905222678449224 -0.03888755177183937 0.08482593468852129
-0.002429238883478517 -0.0396608047806989 0.06870919912157505
-0.021914274182604082 -0.03970695497454384 0.06439001416708116
-0.00963747429225606 -0.03951005533641746 0.07629376089038242
-0.028647706176225272 -0.03929981294463993 0.08083958972661189
-0.03179966774835719 -0.038893739934582575 0.08991790967286171
-0.00431819091159036 -0.03975673765648888 0.06334052062428726
-0.004956440193977423 -0.03975293047130325 0.06358003222493239
-0.04177559589738401 -0.038864963193489 0.08202620616827917
-0.012925300750612986 -0.03940119408214195 0.07413322334973674
-0.007873464429014846 -0.0396097726324302 0.06875128894706699
-0.006682190680146112 -0.03969765492083364 0.06581955945709189
-0.03483661600435096 -0.03909155807846744 0.08462795008176678
-0.03853804704140419 -0.039067654571786466 0.07753633626597307
-0.03812061845622772 -0.039078975924151736 0.07614372051961316
-0.03542967890420011 -0.03919045001396429 0.06424070354266147
-0.042447757169059755 -0.03901069493968015 0.07276942379195839
-0.042539319825833664 -0.0390793987478364 0.06741512486745668
-0.03753879831402194 -0.03907100952071857 0.07995149684279076
-0.03242586435667741 -0.03911391116468935 0.08341068665501077
-0.035556140877324977 -0.038992485170447996 0.0837757854419369
-0.061011172277362205 -0.03826498996632033 0.05820711163838913
-0.037215822609830716 -0.03920294805393277 0.06641363607354167
-0.005897044689579213 -0.03971116369140444 0.06157321318789653
-0.037698089522199954 -0.039262646922659586 0.06700466845955079
-0.044128492328386226 -0.03888834421913534 0.08004246647495407
-0.06359173498834167 -0.03800978678886427 0.0817089637082955
-0.06344614652777528 -0.038002828049325366 0.08233819727038143
-0.054518291146562814 -0.038569938598566486 0.07218010724829335
-0.05382464774963388 -0.038604443722247785 0.07228613659396935
-0.009146037355620074 -0.039549738405289026 0.06411651554878225
-0.03077646992474065 -0.0389219354349223 0.08897633055099399
-0.033049380976728326 -0.03917071493203454 0.06642263430289011
-0.01808849880160648 -0.039552750596012896 0.06775506316075627
-0.02229229381087966 -0.03941801453204388 0.07552245743521478
-0.03430046834617524 -0.03939139963217256 0.06008132083856212
-0.035323273998188534 -0.03929899602223009 0.05998679455542842
-0.03149150937788152 -0.03939888507230403 0.07775751532624675
-0.006622079065419025 -0.039478711914546785 0.0753542402214064
-0.028275414442665257 -0.039497620503685826 0.07244887389596535
-0.002940715874245276 -0.03965643006242199 0.06544556335032725
-0.0038622790060994306 -0.03966502731439921 0.06564424803853838
-0.029965549977693497 -0.039280870393718255 0.07097492441693293
-0.025395726600299477 -0.039353016130587976 0.07446906647952223
-0.05068350407038257 -0.03875455270480569 0.06558181444221646
-0.02915851257101336 -0.03917110191719793 0.07757242946890291
-0.021567381391841733 -0.038860640534867194 0.09080334626927279
-0.021081267408777 -0.03911126168593256 0.08754621720192066
-0.020552826555674808 -0.039603072972966995 0.07011335564666538
-0.023372082487881717 -0.03903868028416167 0.08658881041846786
-0.025379063572833704 -0.03895675256394903 0.0879607882685311
-0.03764015436667433 -0.038635782245208694 0.08439155169887452
-0.009230716295269583 -0.03950055536877894 0.06591590769346356
-0.03766600284351386 -0.03929037415746843 0.056635029643879675
-0.05510597149195233 -0.03847861073232817 0.07736426614966468
-0.041306934524563035 -0.03880560628201486 0.08288375761113213
-0.06292171360299521 -0.03803288472815148 0.07791614848887377
-0.011872949811799823 -0.03961459945887396 0.06247953445136679
-0.016625082656885025 -0.03953631707762806 0.06879952509467627
-0.020370503157079063 -0.039417816821052165 0.07564004700724834
0.0016337386863655191 -0.03948392508367782 0.06965099661209204
0.0035511439011834695 -0.039434899866902316 0.06994060427769705
-0.02610599863894787 -0.0392829964128745 0.08375573828249078
-0.017262669336399843 -0.03953625184011322 0.06930112617540046
-0.030608516777190294 -0.03939417296096234 0.077588400142218
-0.02253771654217279 -0.039591700461602986 0.0624808176016243
-0.021559810550030558 -0.03970224384294639 0.06446942416273542
-0.035864251977111364 -0.03894954366950684 0.085716375572487
-0.010063362842715636 -0.03947917274392078 0.06841130162527799
-0.03783451397820212 -0.03913139242947675 0.07189388154721052
-0.0468166780167382 -0.03867498401168749 0.07612737996690308
-0.022266893601128948 -0.039263023423280655 0.07892415454527099
-0.052644885341720134 -0.03854675964618587 0.07994896126916079
-0.05137280638233364 -0.038586227721409794 0.07963251777180344
0.0036559174394255873 -0.039457719995999244 0.07153296165584414
-0.05667010363980966 -0.03823451997492817 0.08541841211158796
-0.010038232615428397 -0.03951338684751319 0.07543371981471428
-0.0222841098003153 -0.03958101557275816 0.0662869896569136
-0.013794472265420667 -0.03951705081425564 0.07205967942345942
-0.013780127482100427 -0.039523694377664405 0.0719705144587873
-0.05903716387681742 -0.03822754183399575 0.0829493401323673
-0.062237754648262034 -0.0380386033406517 0.0816155886994012
-0.026801585606244384 -0.03894030505844558 0.08985656428769505
-0.040514075276199976 -0.03902085384748402 0.07354432911530384
-0.03147079278951343 -0.03946005700823717 0.07464344289212663
-0.0049940792391121695 -0.039666591066804646 0.06610573020029864
-0.0037331305159387907 -0.039588983752427545 0.06712746033552167
-0.0616420490425298 -0.03814288988018347 0.08421085860317395
-0.03698941908647081 -0.03886994978248191 0.0893951621006667
-0.04537076979209105 -0.038971700411776375 0.06578860000239559
-0.030354323341577852 -0.03903071660344035 0.08673530955732028
-0.03488004517904874 -0.0389378187034769 0.08865532855092473
-0.02528180401088307 -0.03958505999289182 0.07045957963925979
-0.02037036458875163 -0.03946602215789946 0.07683153827895631
-0.0448483912525157 -0.03899953658206529 0.07188686821294957
-0.046553811774452225 -0.038944294525421495 0.07216493427171776
-0.017846432979699147 -0.039618244648644524 0.06514260019171016
-0.018280045458650213 -0.03953310176204989 0.06380709209364435
-0.04180469455509779 -0.03906514015214081 0.06517559814506242
-0.05441287448435196 -0.038434432039808626 0.08478773069396656
-0.02932592256569221 -0.03934098232376369 0.07257740616312862
-0.06321495883834186 -0.03804497254211109 0.07416248983585602
-0.010980401231205519 -0.0394718411403521 0.07429534813212392
-0.012350208032171553 -0.0394728718549498 0.0725511114303418
0.0031925353046796273 -0.039541104787609756 0.07263076518333421
-0.031916070370621524 -0.03907298934390414 0.0865488225277153
-0.045819304028622374 -0.03891681646374962 0.06691220548614353
-0.0244285250387493 -0.039330552877846155 0.08094138509970016
-0.005301289726003791 -0.039560342414169516 0.06921679665142362
-0.026131760956682508 -0.039380397028209724 0.082028609785158
-0.025203019918144123 -0.03934677451148687 0.07951249346655942
-0.021120628688485868 -0.03964579118778001 0.06603371664396941
-0.02843554355234718 -0.03913285744889461 0.08495277853929062
-0.04185484522648742 -0.03900653735158435 0.07528355213569746
-0.058856775546200175 -0.038277274735447765 0.07303496776631241
-0.004100744515530084 -0.039620474549487236 0.0693352219078162
-0.025172099485670823 -0.03920936631013951 0.0767453425030361
-0.05023558889258556 -0.03854051333726121 0.08344759951629156
-0.04750740234029706 -0.038902931382566903 0.06798153293154938
-0.057099675484665734 -0.03849733922820129 0.0682443363441663
-0.05643572367752368 -0.0385042664604832 0.0678778185608047
-0.027321138673156255 -0.039505736401421285 0.06855348390596638
-0.00315630779727293 -0.03959672456717909 0.06993021360778706
-0.03929596436237938 -0.038926393262112106 0.08623995368231367
-0.026706751868415847 -0.039338553431637835 0.07571878837604266
-0.03881523900332939 -0.03917748923045497 0.07074071387151554
-0.040374059531620154 -0.03915741463588224 0.0696666975859209
-0.06131495575314052 -0.03807924183814212 0.08191096821468943
-0.05555917222052819 -0.0383505280201182 0.08497139199592588
0.0002762791642021949 -0.03965119953025791 0.07438974479376997
-0.04751199296169162 -0.038954347338409495 0.06728251886780087
-0.02757554182329421 -0.03949775396034596 0.07138897396203162
-0.05105465443337541 -0.03859472232589528 0.07962287730859385
-0.05649513329497803 -0.03847145828887485 0.07511615438860024
-0.035303865095036815 -0.039254434045709774 0.0692984664864173
-0.02658448224850433 -0.03926376794355517 0.08367593766554941
-0.019787416183780732 -0.039521690819532836 0.07423026958750087
-0.048111232639831164 -0.03887359112553411 0.06528876911380195
-0.04824053205259467 -0.03888641991919871 0.06478394934500255
-0.047321705476945336 -0.038916986355600744 0.06362147125295112
-0.04928482557927552 -0.03891846542246015 0.06215706378639218
-0.049908029079714124 -0.038842822991217614 0.06405927873954356
-0.02744808177437324 -0.03946262083093334 0.07075884398256287
-0.026725357592125767 -0.03945052144943499 0.06624834556771728
-0.02734287063808289 -0.03946556023916799 0.06678176312668342
-0.038134049161275926 -0.038894894107564026 0.0830835098246375
-0.028724827519438202 -0.03920722138930398 0.07580454926023734
-0.02115192860381922 -0.03918120316940048 0.08016894983660837
-0.02849049421578633 -0.039530352334170946 0.06449144601568789
-0.006136385636479004 -0.039533163118793936 0.07049320100959025
-0.02855919919046066 -0.03911556085134394 0.08247302629441539
-0.030999518687446697 -0.039392483138334176 0.07378102244621708
-0.03538154205345799 -0.03917504869678652 0.06493011865462343
-0.04005790602115837 -0.039160721617393146 0.06287323836545855
-0.03385200993032684 -0.03926420247848708 0.07208475365723928
-0.02884659335663716 -0.03955243194201145 0.06396067835464486
-0.03659279455695072 -0.03920678543233537 0.06668363286806449
-0.020150529206735837 -0.039499667105894365 0.06766598101094368
-0.025865199655169646 -0.03958512707701707 0.07027702970989592
-0.017254759700323356 -0.039418965216617155 0.07421145761594974
-0.03015594873665431 -0.03929095886621124 0.0797671003863958
-0.02737642828170394 -0.03951248172625198 0.07406730870308575
-0.017985096708562864 -0.039479894750934774 0.07628250080121673
-0.04096742784824989 -0.038904647307118075 0.08596678210017404
-0.05895477839022315 -0.03847318215509974 0.07578346141713357
-0.02754927659290152 -0.03949452199168392 0.06280237234150204
-0.014574149155052446 -0.039552469502891395 0.06528354901807033
-0.02576030268673911 -0.03948092960371376 0.07348339051445095
-0.013591970106504217 -0.039641038147369946 0.07007128311587846
-0.030421777073445816 -0.039325610009198306 0.07563964256888416
-0.0322269409443474 -0.039161847907354885 0.07271809825850274
-0.012286521809457704 -0.03952330377527163 0.07682104171833884
-0.023347962111664466 -0.039374841714695505 0.0764895079216823
-0.032744082063587227 -0.039188981614907636 0.07991947173009153
-0.03352496825682056 -0.03913724890061159 0.07902735566215408
-0.026294133211441494 -0.03948367730041835 0.06765631049453288
-0.030471112039052322 -0.03929262654445757 0.06656364607160338
-0.03046480605214753 -0.03914891409361018 0.08462788387041803
