-0.02303506080490892 0.03015701042126097 0.01975523797120276
-0.023302367520931833 0.027587594298067033 0.02641694301272204
-0.01909865115811371 0.030194268571154766 0.02368463571417603
-0.018188043076800713 0.030359309890878677 0.023997420804994302
-0.018635526727850963 0.030834529752374287 0.02240992286730658
-0.023547307758838582 0.029818297393146433 0.019875939961840297
-0.021834662019953238 0.030617363946394725 0.020692229938743444
-0.020391010834510656 0.030187083739073355 0.022665034770913566
-0.019876905439222 0.028155697088152104 0.028158940244300316
-0.01960662394710155 0.03118808484944819 0.02089511061381675
-0.028632822989159916 0.02625948828533654 0.019161681062580527
-0.021300029704216503 0.02981295099573055 0.022873347604625605
-0.019277251943931255 0.031610098372467504 0.019897283484622292
-0.025585906108377052 0.02832901376306992 0.020951241055618755
-0.017421085874763348 0.031478908909223356 0.0219321410951298
-0.022553371057607782 0.029107242128283885 0.02366004931123558
-0.02172742390176055 0.029245900767288134 0.02398053524524487
-0.023579451479682184 0.02651304887623875 0.028630221957074
-0.02346182515892198 0.029403182923388935 0.021530026030432137
-0.016693546543011667 0.03169593214918802 0.0216909508086413
-0.023253133544779862 0.02794399760823224 0.02587719456182101
-0.017084542117734174 0.030829340534102932 0.023602348819493794
-0.022008589195101694 0.03021676284015015 0.0215377194444014
-0.01884288312608782 0.029664404893718202 0.025411242359565885
-0.019932063586263964 0.03132218882106953 0.020170758727168628
-0.024694037982782947 0.029428940751848376 0.01831780007866228
-0.02107094429619249 0.029464562016366283 0.024071541395850972
-0.023125522447090225 0.02860393466304579 0.02440680664396715
-0.017980198400988325 0.031007538447194623 0.022751577243533185
-0.022051335114511107 0.03048786054117768 0.020753646593786132
-0.03000079072181856 0.025024507461305565 0.01795983330592986
-0.024065931918162215 0.02940713833087352 0.02021742098300606
-0.013516387595922361 0.031518854272081114 0.02422909953985813
-0.02196559611683754 0.02945940607788344 0.023198697155106102
-0.024208341645844733 0.028829256118117437 0.02206847697633768
-0.022310630066604338 0.02725134842207993 0.028137170789889008
-0.02555146312214782 0.029062624984357133 0.018101885619226443
-0.025332686198060717 0.029290684687421607 0.01772105736563375
-0.022325632592624458 0.030693701776767855 0.01920083225043701
-0.026217796975813144 0.026347308781654283 0.02545238367704879
-0.0258574842563941 0.02806872440979367 0.021606895708956686
-0.012869907161739597 0.0318316016758274 0.0230054798251845
-0.024310974435630784 0.02872523495896913 0.022301620085454003
-0.024257882945017975 0.02752141585404735 0.025589665317219856
-0.025826706563611915 0.029010466709147312 0.017714074013160292
-0.01873836003843781 0.029330163242424705 0.02622835170641171
-0.0254391872729329 0.026998481225551985 0.025265445848886302
-0.023826007814660724 0.028944114111797155 0.022387458606338104
-0.021988333542266224 0.02793492032154782 0.026876279192011458
-0.024841229251609316 0.028327998326984877 0.023033127382281197
-0.021179240812490403 0.02957298154567647 0.023559267629176834
-0.021138590330765164 0.03062370841440906 0.02138780205982225
-0.015473964856828112 0.029985534789577807 0.02656337115657665
-0.022417783304933842 0.029261867602913612 0.023353946030738287
-0.02244217579057539 0.030475789884856753 0.01992983127676328
-0.024656326143352218 0.028160382021779378 0.023803273301079127
-0.02281853866255692 0.029866244621648372 0.021341631025097438
-0.02336166672880189 0.029323292312115633 0.021881661463306938
-0.020689913153091415 0.02916207332936951 0.02532854498805552
-0.021225739495367133 0.03075972681196881 0.020932719273879873
-0.020015643865948472 0.030226897800370005 0.022793689213060034
-0.019800052406662518 0.030463250478553233 0.02232949632950187
-0.02548307649720062 0.028517258843371526 0.020066852398961627
-0.020964279192225526 0.02949123620015526 0.02410274370579048
-0.02478025316475164 0.028823460239737225 0.02074213869989537
-0.012399496167964746 0.03207501111262179 0.022583662610278235
-0.020083538904434674 0.031210940712594237 0.02035684571398708
-0.018932895054930253 0.03077360310916593 0.022248640868641503
-0.02246521190305055 0.030188490725897008 0.021000746912079107
-0.0236938306441967 0.029565754364446573 0.02054052282686619
-0.02325143775065898 0.030166676729395735 0.01895522571721082
-0.02489792190760933 0.02926831399627719 0.018567362493108433
-0.024571078662922886 0.027525627352794835 0.025262717434433493
-0.020064107921533604 0.031458611472360905 0.019351684840109608
-0.02373748922774032 0.026647230497456657 0.028206776590831976
-0.022998764017002814 0.02910984524759464 0.023163399710146845
-0.015781887021831777 0.03136897247698248 0.02335863049759709
-0.026355987260622108 0.02419254878593385 0.02952772996248705
-0.028694718918223786 0.02625569186053627 0.018953804904868605
-0.02792521307033912 0.02685026424669417 0.020992059718454966
-0.028777902141337484 0.023199819679368423 0.025517556045930485
-0.013906900433139344 0.031204086712348172 0.02474796395651898
-0.029990309241817205 0.024943864870856723 0.018084737617163553
-0.008836572108545262 0.032617776320540005 0.023378199359151943
-0.005567679264177882 0.0335115891958577 0.02299961312807315
-0.030606110239869984 0.025115409408582614 0.015435999493729433
-0.014400927019422359 0.0312571203165744 0.02442061943592482
-0.014572553963470947 0.03078302944483424 0.025054853573938253
-0.021665254686292594 0.028735775721251928 0.02564181207090795
-0.02677659414059937 0.023580772623931722 0.029604233819095178
-0.029545243670955654 0.025462344501785545 0.018248095406028154
-0.028327941318744984 0.02627463893447514 0.021235190955239364
-0.021291713975948416 0.03096418311918278 0.019991293701437204
-0.012175486828280166 0.03123502378571341 0.025578715052332578
-0.028556762649775032 0.026165783158345127 0.020823191138964723
-0.017499053976081196 0.029593544837162047 0.02617942414344764
-0.025842931029631887 0.02722927270983549 0.02434621580899866
-0.02648814132729165 0.02815079400551063 0.01972183212057719
-0.02802769034690254 0.027046080618078186 0.019004693735261348
-0.02095683789931111 0.027301303848936635 0.02900403352547719
-0.021694137532320634 0.029866666080149595 0.022515716977944564
-0.021681141478464838 0.029685743759281857 0.02288368083801027
-0.02477209878352113 0.028520153776678506 0.022339241470452638
-0.021153109938083562 0.02808870913217385 0.027164296291178988
-0.00511642340926658 0.03311562805313646 0.024591865505343813
-0.012032335087564943 0.03145862943099639 0.025039845060862757
-0.011954573278327569 0.03144885716007909 0.025103148477450075
-0.0249624929578047 0.02842515997118012 0.022432175855814678
-0.028374706574338673 0.02684388229656347 0.018153366018311086
-0.023203610476240377 0.02869255212721143 0.024038626745525548
-0.02086772848125604 0.028860498276223008 0.02599464700387749
-0.027695514205962512 0.022759479669569215 0.029017267661940904
-0.029504797194460454 0.025801396692630818 0.01743530659347557
-0.02957382759134128 0.0254753843631757 0.018131186863119392
-0.029723670320436955 0.02206828230435632 0.024579150221075055
-0.027462165997089574 0.026845134798395807 0.02211947595698433
-0.00536249292199871 0.033469620814922385 0.02323209462714816
-0.026949000074513393 0.027739599717857596 0.02041753189992033
-0.027450659342627734 0.02738704935371361 0.020587038286135433
-0.02861879323474944 0.023995085861237036 0.024626040884111345
-0.0077352846275630235 0.03337009287541654 0.023088317473211932
-0.027154618069798252 0.02732448345189172 0.021328173822144615
-0.03007480084292986 0.022977937205468996 0.02254677535734889
-0.028112225562263924 0.02294384808891769 0.027907372058424765
-0.025651685194077494 0.028024250901112796 0.022481261240789373
-0.006438476977194445 0.033622587100665076 0.0227410858454416
-0.019199557399237555 0.02919871441285212 0.026230803825650947
-0.020392046472274585 0.02782731902028277 0.02828612224776287
-0.02908316454894362 0.02402777835457867 0.02340164416509579
-0.01874892894522943 0.029230296479161824 0.026453341956656374
-0.0072312355452634055 0.03353977401840882 0.022954939948820474
-0.029166629682907695 0.023505829864731476 0.023836412750880654
-0.025577627581959327 0.026340899102155473 0.02623400192748371
-0.02553021640950341 0.026383267996406726 0.026211983250074164
-0.026712164156245156 0.024001979535535362 0.029233415055449394
-0.02838225598402324 0.023063394631255806 0.027144809134546324
-0.019737444426456172 0.02951004498453594 0.024947115961067252
-0.026636684911931593 0.028267779316191663 0.018650352073989764
-0.02559218376178165 0.0266015059069559 0.025737240150891176
-0.028794046324677497 0.02638108328846228 0.018253799911101685
-0.027570551739787983 0.027586853257004815 0.018733912421719935
-0.028655557447225723 0.02668700081696576 0.017702458061217556
-0.019787404187214665 0.027449968192118163 0.029548822719978378
-0.026664965954265388 0.023936857640348485 0.02938822802283625
-0.029551167943885643 0.023839621272658765 0.02253256709940963
-0.030074219987783188 0.02334316224456995 0.02095385017516436
-0.023126027237131915 0.029195354090475342 0.022748304919011544
-0.01478123159455987 0.030715111126036424 0.025072310297820477
-0.029760912100789457 0.023929154569900957 0.020897524829127535
-0.02605004907793059 0.025699521887254734 0.026892687063251645
-0.02929864421026391 0.02364405857041573 0.02348638471450609
-0.02197071880795867 0.028620978585652344 0.025623873647344437
-0.005646067390621949 0.03332557180967135 0.02388605329995845
-0.008336472849349515 0.033073978928690496 0.023077933478705553
-0.029455800053205534 0.023224184085870236 0.023651174040513492
-0.026709704442059227 0.024368867441213804 0.0286156994005914
-0.027264329042990858 0.02320784189199902 0.029245025871525804
-0.029125679373736686 0.02517877480298388 0.020940431350011005
-0.024895035972358634 0.02891992883809661 0.019997773908427392
-0.025048200670951235 0.02895158169555763 0.019391224358704297
-0.02978942740696469 0.02436425822848833 0.019790243194529263
-0.029642434509290633 0.024303351901127968 0.020472408438856046
-0.029203277817640077 0.024524169733215084 0.022100712355676518
-0.02939094819731558 0.025563380572196526 0.018507621183204547
-0.02946958376529802 0.02273204738922656 0.024179372570420028
-0.028836485273324847 0.023738359556592082 0.024362388324402635
-0.03005930307997129 0.02440764431040708 0.018985996756890347
-0.02944899527001911 0.024768561381902476 0.02026235570552764
-0.0289280907818708 0.025959794698798687 0.018981460108752343
-0.028836244968055706 0.025763664417062966 0.020574637091948664
-0.029799472047317595 0.02465181565251377 0.01910370297847817
-0.02984526187723086 0.025633392227156923 0.016530091770452636
-0.030392561132689056 0.02412989185197781 0.018770693327687774
-0.028977953904275135 0.025579294422247042 0.02036326493990897
-0.03004698824275517 0.023573635929441783 0.02050483911545047
-0.030646284439117724 0.024567990052931747 0.017224343480553662
-0.030144626361450138 0.024585662007378713 0.018309992569560635
-0.030584224101543385 0.024667811828704103 0.017184864193247485
-0.030819671378317166 0.024390238248264893 0.016665320395539678
-0.03032519717583931 0.024957213833094485 0.017116483726086547
-0.02846303265680057 0.026410889902518636 0.02045371160044253
-0.030137103268125656 0.02521801471482877 0.016927042492242333
-0.028572228259442833 0.02623946670185883 0.02007047114623988
-0.027974012280454343 0.026945270822242698 0.02058370988641639
-0.03044854175355533 0.024996627204086644 0.016180089385872794
-0.028098315144133235 0.02691218234687455 0.01922171334495759
-0.027612526722689802 0.027329855650050586 0.020259938584340303
-0.027124780461236484 0.02776911896299082 0.020043410147491787
-0.027837786123368187 0.027157046930272183 0.01963408811226072
-0.027246874786280902 0.027673646767279292 0.02001074136326865
-0.027285177244920845 0.027783155556842243 0.018981758140640487
-0.008728227627620478 0.03253131179712688 0.023834784384010994
-0.01342083390203226 0.0317709017644633 0.02282111948781762
-0.006988618946600217 0.03356421667120187 0.0229917534322537
-0.007516350930047318 0.033313696074608365 0.023390404131836247
-0.02891155528103792 0.024989005317206256 0.021937884437143083
-0.011300450141299134 0.031994889938311025 0.02374677756773007
-0.0130076366873239 0.03172713819926658 0.023473899528356053
-0.014225644561868901 0.03075378758406984 0.025465324691997006
-0.02661001304804784 0.02690518851471691 0.023953221821680193
-0.01013190150694205 0.03200592658027116 0.023465825943975963
-0.010613860068430583 0.03186348037314626 0.024146035043681166
-0.005657835415633823 0.03325468410393761 0.02419938546945371
-0.009033179766163146 0.032311696199923405 0.023918364150828455
-0.013268257748110093 0.03147553977056202 0.024427782950065747
-0.007312982112093594 0.0329921271170948 0.02433604395732905
-0.0156185315252107 0.030740495175367893 0.02458938302835466
-0.02998894605955348 0.023725528593715916 0.02035595169155149
-0.02304699387642228 0.030205271875965757 0.019467680978441815
-0.027525307668192583 0.023662858093118216 0.02812684701797464
-0.02483019117494082 0.027911240953751998 0.024210455202481922
-0.024852407788394086 0.027705640892371045 0.02463851494325662
-0.009138541804349254 0.032198880403460674 0.024189785022005347
-0.02721602950244758 0.022909139323370797 0.029626186617335844
-0.012163087340397597 0.03169928314652447 0.024218422166249073
-0.00897642370712121 0.032364445560069954 0.023866590381799987
-0.010801005489245188 0.03217230038474497 0.023152494683022707
-0.013887653714574021 0.031802106638876455 0.022386324619950555
-0.02927336370301086 0.0243011977659339 0.022373758712623686
-0.02833066755910185 0.0238035612689105 0.025957452993446692
-0.02887889018061774 0.023533496005843077 0.02452792897180999
-0.006961643205462831 0.03369141813366344 0.02253818546283637
-0.01274027045262285 0.031394810187291976 0.0248551042337696
-0.0068822883008037745 0.03307589238374147 0.024387889167244884
-0.014405702678473107 0.03159026691776313 0.023804883706387614
-0.012751016821418416 0.031679701702153965 0.02389225173030238
-0.014610423916713682 0.030659100025039226 0.02534599104261038
-0.009693377321862309 0.03186268845374013 0.024533427158640157
-0.00620119714033217 0.03366090034296307 0.022488433823227745
-0.014326331972876074 0.03181478020625917 0.022198613182316612
-0.015604715988282438 0.031146152806291995 0.023913728850127467
-0.0158172669517405 0.031709691211557624 0.02227205186709808
-0.012799829260457482 0.031049983632345346 0.025834824907331935
-0.005924294018773931 0.0331107459323043 0.024534234898252273
-0.02731637230520484 0.027835119236671334 0.018575114038929183
-0.015203576381298902 0.03138671106176345 0.023855423481274778
-0.01170227729333236 0.031756390755478925 0.024348875176191158
-0.014568386322415586 0.03184129658698702 0.021988287942261927
-0.013608732947707824 0.03165962067001761 0.02356493694499509
-0.01507083358992991 0.03175124292298991 0.022516351828310972
-0.015849397951463104 0.030496123073111517 0.024936013490504838
-0.013923035132895209 0.030781306288577875 0.02571658728709605
-0.00985710264852756 0.03168966083273622 0.025191458568485342
-0.01182692001316096 0.03220729791127138 0.022633868249218925
-0.014244004213088454 0.031633450470935964 0.023716708009858704
-0.016113526515998143 0.031041164971553504 0.023685948295960085
-0.015504333412195693 0.0301929877818104 0.025959167467437504
-0.01516543498624679 0.03191003483556039 0.021536890028454363
-0.006218998833395145 0.03325837076395748 0.024054128700267106
-0.024068980831465817 0.02702709515351264 0.02671732033422693
-0.015747772355109352 0.031098652031974403 0.023892744363752664
-0.015491824863993609 0.031795822961791696 0.022007662974410983
-0.012972683042890544 0.031656784390833644 0.023858931757672293
-0.015167625153936631 0.03166285901923095 0.023251602781745727
-0.011493564184834895 0.03156730928237491 0.02502527215598543
-0.026422812729238014 0.02503935700298001 0.027742277792658684
-0.02058364503581829 0.02749148137922366 0.028880983166299508
-0.027325678483802737 0.027118484739423382 0.021648886275830132
-0.026720256514012573 0.022848227665467753 0.030382092543761285
-0.029727292678121003 0.02389714282981737 0.021419020699221338
-0.00964820610717438 0.0320993784663806 0.023413673164047827
-0.019327847018837125 0.027445880130315733 0.029843845725619732
-0.025900627532998738 0.02819565438153815 0.020552750087810344
-0.027215212639237256 0.023754404512962474 0.028643349280011846
-0.013093137388497652 0.031163357227385266 0.025300965506888096
-0.022972203566876546 0.028163724223454454 0.025716169391707074
-0.013525091188635197 0.03132086336640902 0.024639037903139874
-0.019727538260097207 0.030098816787548333 0.023391238177552714
-0.016013236313074393 0.031203233928487787 0.023455154956341845
-0.012081622729519305 0.03210598315110593 0.02275587100368788
-0.012219459831051577 0.032023414657679834 0.022948544054936047
-0.01898953396483896 0.031098367902244125 0.021576949149695848
-0.008603473899490548 0.032461107061585906 0.024246737681253218
-0.007095480026475549 0.0336574067416992 0.02267080480235332
-0.02987250485118376 0.022897054478091834 0.023283354625775257
-0.025655911493400053 0.024410299496274136 0.029983483906651637
-0.023294392832207314 0.028895391528869573 0.023361637425113838
-0.021047722023936708 0.03095820496790185 0.02041354122351363
-0.024973591732091488 0.028175705426058562 0.023366703914472937
-0.02539081807512413 0.02795375961314086 0.02328653912323025
-0.027143464269919648 0.024156151739713395 0.028151523016561833
-0.026879330471056208 0.024694220281251688 0.027618082850361228
-0.02803591358311173 0.023636223890017138 0.0270480369088859
-0.028006273179140204 0.02371665156180991 0.026983447472462403
-0.0275560715193727 0.02452339559790255 0.026452705968811403
-0.026930052954938277 0.024956161299996983 0.02689216446228561
-0.027224508817952048 0.024859851054983 0.02654839536228588
-0.028194414268810652 0.024294607288959113 0.025422098412349294
-0.027512924924645132 0.024942367871638685 0.025861724247139804
-0.027159934504200824 0.025223006671211193 0.0260637374057519
-0.028207978975907776 0.024582732943062537 0.0248496664019706
-0.02751262527072989 0.02556896691858681 0.024816136193111158
-0.0283652315867056 0.023435604684459065 0.026558189569181247
-0.028539452808658817 0.024435716264382082 0.024114269006189133
-0.028708430646864506 0.024035021452391992 0.02428386362645484
-0.02813487487409977 0.024952770709776487 0.02439560829539835
-0.027644603412013177 0.02568578477177508 0.024155065868121467
-0.02579648060361041 0.0256634439646758 0.027634819692574305
-0.025382183793110812 0.027155780287570493 0.025040936420135846
-0.02829941489670386 0.025063888962420344 0.023525770601958634
-0.02886489037906144 0.02489600390060405 0.02225926317890585
-0.027463800363202902 0.024278449117366305 0.027162623118583022
-0.027736308736040764 0.024842638749053625 0.025583554935622636
-0.02889917113756934 0.024653257148867992 0.022676975942180027
-0.02719611214168964 0.024473141446055172 0.02735682497323782
-0.02719601988440669 0.026440404362390518 0.023742784353593137
-0.02831198034565837 0.025388160490133694 0.022611808365837233
-0.027981083793831706 0.025312986960228427 0.02400394446286476
-0.028102969742057945 0.024055913603868117 0.026055718560437088
-0.02733441445677458 0.026388214981237685 0.023463973901986658
-0.027524595764151172 0.026041252184815535 0.023736556060073168
-0.028460050476537595 0.025872647108323845 0.021565711234031684
-0.02804449243757875 0.0245809105952028 0.025298872900415444
-0.028032526644706787 0.025785973508369735 0.02246513958280453
-0.028170197527114183 0.02555335113320221 0.022609294056968675
-0.027611058048208847 0.026234288415100546 0.023009949195637928
-0.02787556446930455 0.02560332895280852 0.023560977934371702
-0.028015111369768485 0.025501074744106206 0.023305049886263682
-0.02801616272737893 0.026108829445416325 0.02208106700910513
-0.027472584074204304 0.02652449673753029 0.022842109244556
-0.027808028184773743 0.02596992966798655 0.022857798152667513
-0.026778495693816507 0.02621586274715477 0.02496557616064627
-0.027112359017309455 0.025830919886750466 0.025130091896741744
-0.03357013001247662 -0.0017858223937002255 0.024081950241349404
-0.033518789276922686 -0.00030283503784881273 0.02464839508004641
-0.03253828963231339 -0.0015749093033888553 0.028434496388058592
-0.03349542427760592 -0.0014855050565553514 0.024259374770045382
-0.03370794189185793 -0.00018152099237523102 0.024272111721813202
-0.007268815558780554 0.0036247421900929095 0.0333403800277257
-0.007620378095008661 0.0034562860969292305 0.03360222165371211
-0.0071855042005131 0.002840796870760862 0.033173873157083464
-0.009124714002888924 0.00483317535116236 0.03483558867131083
-0.03320444456865547 -0.001502340322764276 0.025046027814805714
-0.03352267559241436 -0.002869328647242232 0.024196900476379457
-0.010808602700533647 0.010250317457041113 0.036751008304985254
-0.007434249826139849 0.012271682977716289 0.03552410515766931
-0.03325793534050493 -0.0009034616783205282 0.025131451841298218
-0.02216135092344846 0.002503436904151256 0.038351208751186666
-0.011236907223300677 0.009273975114076589 0.03687432293302946
-0.011574046681810866 0.009084897428994236 0.03699713544854697
-0.008323599666606889 0.004432147543154441 0.03427917134180759
-0.011083009836630362 0.010444537763622351 0.036862087585557875
-0.033295899248952696 -0.0024170843911266457 0.024693357824443173
-0.020924826754382134 0.005398595795883189 0.038656597189586944
-0.03299855180456025 -0.0008941896108140973 0.026168693125347448
-0.032894100185219204 -0.0005156411577770894 0.026777241075815115
-0.009402190269137392 0.013041809325131683 0.03652505899662749
-0.03316540390500246 -0.002237936463837622 0.025348356073403105
-0.0332501862995118 -0.004383126590797004 0.025128542187626314
-0.03322756978766245 -0.000645679959531295 0.025328676246150934
-0.03334128184811459 -0.001275576282929765 0.024659679487364212
-0.03218173418727458 -0.0013589642793565314 0.029616250955095298
-0.011916770135520258 0.010149394262706411 0.037212013264827905
-0.01195462189471012 0.010194079674647045 0.037231351778878964
-0.032841443324832714 -0.0010396444590230593 0.026751119075538086
-0.033109046462926776 -0.0030529311226256736 0.025909315110285505
-0.03290706467393011 -0.0036809259939401904 0.026637664415765372
-0.03323467372469019 -0.0033382536692222217 0.025388266279482444
-0.03298079830008732 -0.0016872403914584555 0.026157413966965033
-0.03299796379892244 -0.0045228592066915005 0.026346812001492574
-0.03323585537657563 -0.003184509327240264 0.025382002006596724
-0.03327470325642773 -0.004592220816649592 0.02498881825367511
-0.012006919666132751 0.010710548616509271 0.03729280630235881
-0.033026451299247986 -0.004301468284077585 0.026200592592232407
-0.0325408604047922 -0.0013264771446178099 0.028309516673534874
-0.02111095164356946 0.00675292162182269 0.03862395334784433
-0.03332075995891988 -0.00258733077899812 0.024629275532760026
-0.009893990561305183 0.011397285027881976 0.0363940602878116
-0.011939529755366093 0.010788732125398713 0.03726490441203512
-0.03276012101417516 -0.002896594985087221 0.027171687492995953
-0.03316232922660083 -0.002532531904736276 0.025467242279637217
-0.03350814936438842 -0.002070158595538177 0.024164046137226915
-0.032422390782677384 -0.0014075015164202688 0.029103705763703202
-0.008714262992175514 0.003637686079580025 0.034672497708318234
-0.007836283412923684 0.0037827064834664893 0.03376669025540957
-0.008117266920054565 0.0035477150278552605 0.0340445321003938
-0.010140001138164014 0.00989154048416098 0.036479877709725494
-0.008999991552822401 0.004054687818283594 0.03485520356653213
-0.011854276226723526 0.012154126289387092 0.03739382995020038
-0.008664981157341997 0.003430359762878889 0.03463706512059235
-0.0331042809124419 -0.0035024008209432987 0.025894919789389986
-0.011598297474265936 0.012145616273756765 0.03727095952113788
-0.03283025580831854 -0.004062606819114232 0.02759311173677588
-0.01914957646530993 0.007844542108542747 0.0388919316156088
-0.009814517106991579 0.01062060987450433 0.0363773052487221
-0.03255910767008986 -0.002039904033070227 0.02818728297944784
-0.010846789699821533 0.010610754246323016 0.036764295887114794
-0.03306769912998446 -0.0022297628196285045 0.025878986989271272
-0.02485209233808722 0.016109205388704285 0.03497953550683947
-0.03311086766558562 -0.0017236088827100435 0.025633291232396428
-0.032828281341648474 -0.0020114958087961102 0.026696339936572906
-0.03018006240558026 8.69291609193396e-06 0.03277238394336919
-0.032828670881074266 -0.0028929319113273214 0.02684578222526978
-0.03262487775452831 -0.0025361706406438664 0.027655502050843956
-0.033362617645172864 -0.0013898952460345512 0.024579025505803084
-0.02028867146328321 0.011997936092149355 0.038412566392202044
-0.033440324649570564 -0.00449312654454626 0.024354848870434424
-0.033550396799519704 -0.0042052250655521635 0.023980199917753246
-0.03300736349759245 -0.0012083602256292873 0.026024563475973442
-0.007866937278779934 0.008934919797863126 0.03476200906808953
-0.00789561794348705 0.008236345835361831 0.03466245383275957
-0.007330625280158629 0.005978488700462827 0.03397390295317501
-0.006900434184110067 0.006595347964569728 0.03378657639207419
-0.00794795160849056 0.006071109795592727 0.03439540876313237
-0.032617698781109 -0.0013006440428168912 0.02780132575794305
-0.012992807559703841 0.010375390307497881 0.037703474884305116
-0.008310515205755157 0.007716482831441168 0.034806832544505055
-0.006686103737501443 0.00793419135101876 0.03386874290978854
-0.007241395777274159 0.008754805695060257 0.03436738706544947
-0.006845964647024778 0.007121743424542332 0.03381596041683592
-0.007536602524483279 0.007865041726326068 0.03442816048227787
-0.008728842118017503 0.006954390387691814 0.03487261835469868
-0.008055630104970218 0.005381197843242204 0.034303165758907996
-0.033135195039330004 -0.001844616602527021 0.02545534629540828
-0.006765018537723584 0.00765288637896209 0.03385958701003038
-0.008006878576868746 0.006733872635126708 0.034503858894140926
-0.027900435536050983 0.021660413780230068 0.029825404348646313
-0.032504399170774814 -0.002716785997102495 0.02832654340031058
-0.032568267169951995 -0.0016877300861975473 0.028101896848547483
-0.007311474764747524 0.00720767957122703 0.034197225565843016
-0.007732334263098101 0.007000473338945463 0.03442157103365433
-0.009005339489512062 0.005626008453465943 0.03475005594666513
-0.029746734882628075 0.021276651005926663 0.026167509786053252
-0.020080131990095364 0.013604295707921838 0.03829044933558676
-0.008418960158235799 0.006225709703834045 0.034608648559270566
-0.007324397548297258 0.006568313378915451 0.034099855756337574
-0.032551394244094256 -0.0031428705695156246 0.028265541121255122
-0.007475225346018749 0.007492391081208905 0.034330724949749675
-0.007082423307757397 0.005574418960259427 0.03360095354843051
-0.0072286399542095085 0.008077884075236949 0.03427496090772053
-0.008139926773338949 0.0053358261658671274 0.034336217889737154
-0.00847916951368623 0.008185227250418304 0.034994089986766126
-0.007864020852175944 0.00538217921366772 0.034170195436496915
-0.0072710184588408115 0.005941090490875942 0.03391618235769503
-0.03181474612577965 0.006423254072821462 0.030965615666521118
-0.03273146966843381 -0.0014692943233507673 0.027078297404886223
-0.006601541753171146 0.0026714470020749318 0.03243998438735956
-0.02082037534700076 0.010992612548460484 0.03848317083205956
-0.006993464684125615 0.003738129762906552 0.03310269300779911
-0.032613530405616833 -0.002893386614602603 0.02794249498694238
-0.020579545612296885 0.01687629956014225 0.03747059394940216
-0.022251493351835926 0.01936333257299086 0.03606433729580659
-0.02244115936665904 0.019041801574056792 0.03615661610815195
-0.022482710443629643 0.018891203271648817 0.03621846107926402
-0.022790214417061194 0.020035163717414924 0.03527051985845309
-0.022926593928268613 0.01882119271999978 0.03595811098015905
-0.02343123887231574 0.020372594760684162 0.03471299473313633
-0.022994457819264562 0.018982578258157756 0.03581450866914128
-0.022955648061221957 0.019332812421838777 0.03563800343580879
-0.0234864148431628 0.019978232177935706 0.03492816100444462
-0.02187334815469731 0.019580476861847534 0.036127164032619855
-0.01302408614206571 0.009736596024780771 0.03768350086788589
-0.022620460779523784 0.004833252380133365 0.038307746578004606
-0.023092677371804454 0.004714093369769257 0.03817652483356842
-0.022558050277739647 0.0036591501043750727 0.038308550755085075
-0.026483840842394597 0.0015030158116453155 0.03683356788446386
-0.011974792144015397 0.011688593782045549 0.037374031303600105
-0.02621625109048881 0.001121751764665549 0.03696593889583383
-0.02573294759615833 0.0031868772188753487 0.03726347641113697
-0.02523034297120204 0.0035636144772098694 0.03746231760950655
-0.02452428457594377 0.0037961190192006226 0.03774418087283561
-0.025967199436215994 0.000908150182138879 0.03711931066797572
-0.026050853456004046 0.00257924433575335 0.03720606033973366
-0.025848687622477193 0.001796263062591754 0.037234424604521185
-0.02609348903873762 0.0028348872139203223 0.03716848414686779
-0.023600039306251357 0.003075985636243939 0.03791738192534406
-0.022898487974575898 0.003247577716131936 0.03815867572583708
-0.025811377930733754 0.002224722870270101 0.037294363659044094
-0.025286129869513348 0.0029240525229109146 0.03742681321526011
-0.01242479574357046 0.01175233455605668 0.03759138196929261
-0.02545658648371972 0.002114281856851798 0.03740702105950653
-0.024593860857485918 0.0027542454786306523 0.0376097199699654
-0.024732157194508983 0.0037243725442907107 0.03767947277763754
-0.007361664223179205 0.011656858558733586 0.03529462999940637
-0.019331174615631178 0.006979407295006398 0.038838085975492785
-0.009973632707635627 0.010971619555764915 0.03641832828901651
-0.012844205146056773 0.01127232115135355 0.037700069250322495
-0.010649700890165908 0.009213677527463535 0.03664091948828079
-0.023103918333627682 0.003524360175861174 0.03812776359915843
-0.009699101378313238 0.012647336138513742 0.03652929004239113
-0.025588249400607055 0.001129533850412718 0.03734105924486757
-0.008797135549995198 0.012323170945952252 0.036146076371546085
-0.013438934876071307 0.008962167825976723 0.037798547517660125
-0.010677419107643114 0.010827315536002517 0.036691771866408415
-0.012853163133944398 0.009558303397279064 0.03760430774064938
-0.01267093741396218 0.009042924193607874 0.0374928827996346
-0.010048397953711154 0.011846664622906376 0.03645260552558818
-0.011428659042040438 0.010524318126047967 0.03701891829137803
-0.012063693169512986 0.009734224145203823 0.03724486103924985
-0.012445642855740173 0.010183119735604028 0.0374543276826578
-0.029307122328272837 0.022054135727247584 0.026373755391054646
-0.012211186572269779 0.010599842719427684 0.037380363518864757
-0.0069266965712439866 0.011145938608861497 0.03481472508731924
-0.0313888415119391 0.016666372047843537 0.02621099486196057
-0.031507183176822814 0.016464650253187725 0.025920024441458814
-0.02516879966123936 0.02209440217271704 0.03226769452427285
-0.025490344295284063 0.02203849976114343 0.03216838147086895
-0.025859440430907328 0.021106346393449802 0.032533792374792606
-0.03030647374047505 0.010026367961642047 0.03213661886699161
-0.025310167391596246 0.021092962223387902 0.032876953494915706
-0.025688155159513226 0.02227938699224482 0.03193881348350542
-0.024654706768072493 0.020712672839602635 0.03373528192884113
-0.025852124671835383 0.02346965214977893 0.03079109218228491
-0.023771762997127494 0.022138019554308268 0.03327897134052023
-0.025162569475383978 0.023242281949191052 0.03154016923947536
-0.025531975628006104 0.021762443469643393 0.032302175183873016
-0.025384071995756333 0.020795905700978556 0.0330830407158176
-0.0251127195388347 0.020858451286191973 0.03327022956388398
-0.02414435347050611 0.021547023003185332 0.0335011150056183
-0.022964691800492574 0.013402571930013948 0.03722774512193995
-0.019405019152654975 0.010727577477016526 0.038879685395303794
-0.016472597564129193 0.005169841080766301 0.038369803226559356
-0.016492483007056 0.005007584277785058 0.03836817087403331
-0.013280237681864374 0.005034151208988855 0.037386296415558185
-0.014883174581132448 0.005767242725872318 0.0380364584146366
-0.0150790617482754 0.006555042283891463 0.03808870203931452
-0.016310191755624957 0.005651509999831876 0.0383569066052772
-0.01654570433382844 0.006463521926689709 0.03840671328902376
-0.01684795574811375 0.005860876815618067 0.038469351441510785
-0.029493011238035452 0.006634992466576716 0.034103472317390846
-0.006116955674809432 0.003299720826779641 0.03182153974249838
-0.029234415256918896 0.006666383403136269 0.034311433702457636
-0.029094914404689375 0.005914330700922756 0.03457892893951994
-0.028871208666313354 0.006052927174408802 0.034745001577641425
-0.029007169844722284 0.007138727232981997 0.03447723112078191
-0.026803413325473494 0.011930137296993 0.03557316399652004
-0.01425439095611252 0.004522480858827336 0.03771629963999806
-0.015457361043857304 0.004864801788843322 0.03810246217872619
-0.0153247666228591 0.004836819086231176 0.03806121365347839
-0.027065490261626426 0.011317222773959423 0.03551360702683383
-0.027308749795419404 0.011125544009122783 0.03531170529074624
-0.027183476324282158 0.009966266280784024 0.03554670872420387
-0.027959937472818736 0.010974917136108039 0.034795383205660585
-0.027025329260629248 0.009627200631863987 0.03578309349430594
-0.027441702202088865 0.009803534859514294 0.03527713101030702
-0.01643232835677024 0.00753658401092263 0.03837457274458997
-0.028371266205658035 0.008292058235561518 0.03481196280475661
-0.027631812605994215 9.228616128413666e-06 0.03591201138512239
-0.027261680009663537 0.009006304491780439 0.03557909025243394
-0.013001281444060812 0.005492664020748224 0.03732559208141021
-0.013115353685099126 0.004558899234667549 0.03728343024410959
-0.013382040462647116 0.004641306127427375 0.03739455236778935
-0.02751514161957506 0.0075796806507533385 0.03542586688247978
-0.02807233339263327 0.009409740051085563 0.034846269734898606
-0.02684311507989475 0.011141246315217394 0.03574361848692421
-0.028393351778404862 0.00723803168580584 0.03486495738526234
-0.027659526032353582 0.007673490874642237 0.03527361806944951
-0.02813800176043127 0.007086596462250648 0.035044407578076094
-0.005204221626695963 0.006643833731322102 0.031940693653456684
-0.027620151384913916 0.010146815316997477 0.03513545673057783
-0.006663968917139419 0.004620408015798343 0.03285752901834246
-0.005193767936377235 0.007473742888775954 0.032438519132126246
-0.005994615546926369 0.004515696062077276 0.03195975669916988
-0.027842920988155898 0.008458973981821756 0.035056022476172836
-0.006398028902670541 0.004884244491453399 0.0326554443699941
-0.02790916750328392 0.011749468047878844 0.03462353006764903
-0.004851993460685472 0.004936753775448143 0.031525426947306416
-0.005881446777289376 0.004380324301681775 0.03182449441020674
-0.0066295914886751964 0.005786749359774877 0.033254378834547155
-0.006221553874932478 0.0050719205608865765 0.0324555995794981
-0.006098812475938662 0.002622533827208009 0.03173515856727468
-0.027354149410079624 0.011497062397012054 0.035207475371798164
-0.00703876424347419 0.005229786422076384 0.033396698722703975
-0.028170729879341945 0.00865723205630704 0.034867257320390754
-0.005218931946433509 0.004905445145443965 0.03169018295630113
-0.00561951833846957 0.00470104666264355 0.03181397995609446
-0.006468363926725281 0.0031847028050723913 0.03228494543628291
-0.006382296556896886 0.00578100197662936 0.03295280449592172
-0.0068203809417515535 0.004384165699509595 0.03297293155385471
-0.027835879393645995 0.010612090979879127 0.034938361837129624
-0.0053432942568166185 0.00821448171310488 0.032836567195034055
-0.004989378375574248 0.007693620588860443 0.032467985132246295
-0.0050429405636880096 0.006418450063099189 0.03180812769092269
-0.004339412589563494 0.006340132588091773 0.031532158659837634
-0.005797800491193729 0.005880902686475457 0.03219578409887372
-0.005586282626278147 0.006360694626026783 0.03211835366333203
-0.004623171444583025 0.007075110059695505 0.031959527301693325
-0.017753937252901746 0.005310899004100601 0.03861166637409507
-0.017861752088127292 0.005994519505079885 0.03866113364589259
-0.01812850624725386 0.005329144631937144 0.03865604923439617
-0.006821583470240302 0.0034067581649926933 0.03285324312174434
-0.016959848431244557 0.005389291112437246 0.03848687804901111
-0.028095119167671892 0.008770372564405524 0.03489359568911742
-0.007504929113045614 0.0044310250593331485 0.03355265192067974
-0.0065395178903293605 0.001967535502143604 0.03261075565282534
-0.027589721411102594 0.008151931986596144 0.035272316530314304
-0.005306690731172266 0.005411288596653565 0.031860046539014225
-0.0061693836999224885 0.006797682160960832 0.032980769379770555
-0.028855169165893174 0.007643344992282457 0.034546310804051725
-0.027898538298339676 0.007583610092041356 0.03512615889473348
-0.02642759624012382 0.008949610814237894 0.036325743364289564
-0.01566392684952692 0.007148822374919641 0.038223406081342344
-0.0055591370428336164 0.006029872177559721 0.03200869125131118
-0.005673566413739905 0.007785668057540202 0.03290716748456532
-0.006135374387233986 0.007556976218785207 0.033279152841513705
-0.024263870653015048 0.012143438937745837 0.037144517587801296
-0.0155169722802972 0.005907276199098185 0.038200690670060045
-0.015412469577387598 0.0062694912885028105 0.03817328006661544
-0.03377798609900415 0.0057014862507709955 0.02455979354668803
-0.02469173124809318 0.012055444986877736 0.03701349812016006
-0.023832633288785487 0.011676487189236612 0.037332928117427486
-0.013882599563354378 0.00552680094354143 0.03767060378100047
-0.023919296088240064 0.010182257031762381 0.03750077160011821
-0.024939399604366124 0.011849318867642164 0.03690494185900868
-0.02308652231277821 0.018014311599023714 0.03608320370767279
-0.02594896640827188 0.008102269158163552 0.03671009163863914
-0.02471620106139373 0.011189677970001503 0.03698425062144896
-0.024327555706535234 0.010169751058923662 0.03725106229704893
-0.024007297702177313 0.021333176667851835 0.03374396207586289
-0.023463431416591626 0.020845964027168623 0.03441280123225097
-0.024302503880316302 0.010881408168764227 0.03720139685712364
-0.023186489655152267 0.01746918188469004 0.036030129497728644
-0.023786789566143798 0.02114335733893735 0.03402719843476877
-0.0170640132397371 0.00789356814541501 0.038589941348873426
-0.025818578396631403 0.009398323831158083 0.03662592998840394
-0.023384190204381046 0.017429210402935793 0.03591049359930745
-0.024040685978279554 0.020355644960965258 0.0344412784633643
-0.0237493842175479 0.019332400087494216 0.035093166297248915
-0.023844867977049433 0.018666305808568564 0.035272741236637366
-0.024941242561497514 0.009996295478975197 0.03691283094307399
-0.025250396187953553 0.009137806489278723 0.036918402056338936
-0.03195704834975232 0.004095325073772691 0.030486195902100787
-0.024354449792255258 0.010531441474257917 0.03720695415066633
-0.030347902662561623 0.01611296604991727 0.029902932221481396
-0.0236139685725898 0.01132533402949403 0.037483494154720576
-0.024837727241281932 0.020279787341622616 0.033865503072597475
-0.025084881304531223 0.020243835413513975 0.033703850648914915
-0.02458747127558548 0.010371469209416825 0.03708809068730058
-0.023217884157762114 0.009667883725577675 0.03792042156315195
-0.01748240659489384 0.007566100919617089 0.03868794664037049
-0.017033287741603422 0.006813045956239992 0.03850279912879575
-0.02297235451860012 0.009717572043632997 0.038003583415398445
-0.022637273297295573 0.009319024248061587 0.03812486233872325
-0.022451581907418368 0.008951106540152739 0.03819787662086646
-0.02226161214569071 0.008975424028286149 0.03824635324165689
-0.023755799480966854 0.010668761736391275 0.03751753724502556
-0.025189059685527176 0.015443497692814891 0.03506864324677809
-0.031324615550137776 0.010105562023793476 0.03008832959075977
-0.023016486813646393 0.00820356073872086 0.038067129167171004
-0.023986213176846904 0.008625140597188335 0.03778513686998934
-0.030998276240706276 0.008044705086219343 0.03158433834882528
-0.022856441190782756 0.011337948535276086 0.03785669387813367
-0.024293702051324542 0.0063386660973177664 0.0378113116132622
-0.02973418549328473 0.006791991061571408 0.03394027068939062
-0.023836506317156746 0.007931728258738972 0.037908613240331186
-0.02460536842046381 0.017518045517792357 0.03505599554710639
-0.025026016330364744 0.019029565849021796 0.03436027054623364
-0.02735819261948262 0.02170110868132641 0.03069745550424689
-0.024028905743447744 0.007942216245266248 0.03785162046429436
-0.024415958999455332 0.009365478339582666 0.037330857332161224
-0.024987341432300105 0.007890894368374353 0.03744149175068621
-0.028020062906073936 0.022718045883437104 0.028401125286077113
-0.024362478692140487 0.00857095065296513 0.037652560157780665
-0.02415064596698744 0.007544872176488811 0.03784714215743963
-0.023400901160885206 0.011401110796688796 0.03757996763731
-0.025463494604700383 0.007329134546496006 0.03713004788661773
-0.024543415768629832 0.007277073872252309 0.03769603592183819
-0.024543138387308677 0.016850040372788987 0.035057082991647295
-0.022644869449304317 0.007509129362177434 0.03820535846157597
-0.031616323406249744 0.006463234184494772 0.032126885609331746
-0.025470883519267334 0.008303242795264933 0.037003859466101234
-0.02535613528614894 0.007126654354853223 0.037230185966022164
-0.02432650827083021 0.006853287256141444 0.03779798617453238
-0.0274362491679345 0.021829893333327313 0.030469731056199628
-0.023908947311056136 0.009207828250551402 0.03769327555367547
-0.01772538212044519 0.006359352341789128 0.03865732269669134
-0.022366344927256695 0.018108935751486713 0.03646563538988324
-0.023665261332031763 0.01596253690258236 0.03582587623769922
-0.023059652280410226 0.016861203050344983 0.036105769940830354
-0.023656486710948315 0.016402551218481956 0.03572785696477237
-0.022874077362051385 0.017579927506265823 0.036204305174555626
-0.02532535023173321 0.01875852404899161 0.03424957437362179
-0.02303976100923033 0.017041494005903334 0.03610729851670464
-0.023359129791063523 0.0168411603270512 0.03591050446265143
-0.022824184791444466 0.006861681399840035 0.038209769019033155
-0.031763792184333096 0.0071413579915427725 0.030429346826651844
-0.03226226818110051 0.005772274185284418 0.029461507845358715
-0.022844019964419347 0.006014441916187525 0.038245038635745264
-0.02339737568884314 0.006649316804569639 0.038124962041637026
-0.023650302065691596 0.005836528177993808 0.03804525883076496
-0.03100200289730299 0.01663431767256779 0.027544585678870845
-0.024054074105758962 0.005528519889736817 0.037851498482676715
-0.023325304660833455 0.006042900378756601 0.03816505991836077
-0.03110380313751812 0.013527739447256376 0.030089080800604417
-0.014419849872040385 0.005185419694835833 0.037834016149616595
-0.01410091076492412 0.004926800366561668 0.03770014487942068
-0.01670199024831631 0.007169163388402174 0.03841912648932881
-0.030381518232975798 0.017326845183273244 0.028967673167407247
-0.021079318449750813 0.009339014078907451 0.038562875442926955
-0.016308035808862555 0.007343221300273444 0.03832881097173878
-0.017054290170396447 0.007136145782840487 0.03852936954256905
-0.024983140597096033 0.017254414928670175 0.03479894339655969
-0.014979514656425197 0.0068541625345475855 0.038058993744187274
-0.02584522566213881 0.018130847071125184 0.03413555078739102
-0.015603748376211604 0.006589017980939298 0.0382137645266015
-0.025704654024919914 0.020488233575147743 0.03309619178247175
-0.01588013385026132 0.005481223025702281 0.03825669668081991
-0.013685751509316581 0.006050080734637939 0.037647266946730464
-0.014192894687809283 0.007257075752303364 0.037847025764105625
-0.014504408176809591 0.007350299196304333 0.037945978400052455
-0.015123865566840356 0.0077064549537684485 0.03813749600395202
-0.027683748107398754 0.005791472332760493 0.035757024434051266
-0.028098491658665126 0.005527556902685053 0.03550681821087691
-0.032437530592469226 0.00527776179497724 0.02925081778698017
-0.027257020562190124 0.00707424014464818 0.03590836724148438
-0.028859186164198664 0.004596665821665309 0.034971405475843695
-0.031911357182919965 0.005239667217321914 0.03036089878702243
-0.028457260043137683 0.006152224345107424 0.035018953546927384
-0.033627115790166064 0.0030800081356898634 0.024805976666475778
-0.028561295044741447 0.005064727671190427 0.03520688200377995
-0.028383818728641864 0.005303816078860064 0.03531115426097888
-0.03118957310621018 0.014964706118839374 0.028615032097828084
-0.02813195234533651 0.004779674160404845 0.035644794168783314
-0.025715448175074186 0.01643223789262491 0.03462039590726869
-0.025468006267338014 0.017964109293562448 0.03438095258059159
-0.026316198727621504 0.01909168448525364 0.03352157410560928
-0.026832251340835857 0.021685424106920325 0.03146455219977385
-0.028547422234232636 0.022360438678863184 0.027847207516914767
-0.02893995702949742 0.005616078242801334 0.034804998956235976
-0.027359047339382644 0.008466885282353124 0.035525538362915256
-0.027963826762256193 0.004097028998619127 0.03579114751105456
-0.02830924076356222 0.003772773847909692 0.035430560039987694
-0.025171621257208482 0.015361892828864755 0.03510099209511791
-0.02860414685511143 0.0037676818765876876 0.035099261435287986
-0.02493645086082862 0.013754207433185135 0.036795721098404836
-0.027280512329208605 0.007841224858816083 0.03573294808767052
-0.026954699224885165 0.007594367035110636 0.03611446774900509
-0.026750449820380433 0.00807405040646771 0.0362232814785503
-0.033453968985462976 0.004211884489867749 0.02514063463546272
-0.026503411253280925 0.021027630750735056 0.032184732461602146
-0.027457322840397456 0.021672762614858482 0.03060079051428645
-0.02690083670942211 0.008500548909697307 0.03601993028776047
-0.024144274120200187 0.01422804027005473 0.03667577230701579
-0.020977774126307094 0.01673458545897117 0.03732289512758512
-0.02094175659143861 0.015959874077493188 0.03753601876870461
-0.03324351890116546 0.0016441026181382465 0.027038708219305544
-0.026140039666275455 0.015896042355746917 0.03465211854012132
-0.031088807002544475 0.014176324262237798 0.029544187967571123
-0.031817317513179504 0.00158901953145502 0.03067993569924312
-0.033823306040164945 0.00033711587907997296 0.02421415951956267
-0.03323450900452725 0.001104486880904783 0.026389369655822902
-0.03187087399071143 0.00402574782985513 0.030805202951614763
-0.018525407798063 0.015426905671800214 0.03829045694892512
-0.030424472973491067 0.01773481835896348 0.02850923297398108
-0.03285203227147418 0.002589811016540927 0.027758215135580567
-0.032961602195428014 0.0003174967776831201 0.027124610821713895
-0.033343798438366136 0.0028390193792891105 0.02544457174488293
-0.03341410241612318 0.002523042467696539 0.025276836122320828
-0.03304790764969901 -0.00029134568500305486 0.026317642430411105
-0.03229249087768984 0.0008891950368440134 0.0294333581446442
-0.0267351114396404 0.01798444580864622 0.033743403988809165
-0.02633934270428875 0.017749148415115136 0.03397835620270891
-0.02683949554559978 0.01921406182733357 0.03304196404972167
-0.0329100262814955 0.003662112150843752 0.02723855753386705
-0.025680956986357403 0.017375645391192737 0.034382232541514894
-0.02713748341444655 0.021012679057036156 0.0315959589533749
-0.031194355869705055 0.011734757983481597 0.030439670291322544
-0.028082335387377984 0.022112785127994323 0.0289835090631769
-0.03322312540507106 0.0013185568284915803 0.026044750891381273
-0.03319043858639027 0.0018851911292005158 0.026716369938436704
-0.018822987178251087 0.016100407914968064 0.03815718326450742
