-0.008921500597813603 0.036277955035449824 0.01407633379919992
-0.012025336254230058 0.03568332628593397 0.012822107804682997
-0.028482220553275157 0.02817354992212945 0.007679582087440758
-0.03156520222321861 0.024333227525249232 0.000739051059609946
-0.03193788079014024 0.02345792635524494 -4.1454787728979444e-05
-0.031593880319758474 0.02435636445505179 0.0012968574579266612
-0.03184771038816706 0.023801549458928054 0.0020970550865673713
-0.006971372746626967 0.036885410693352355 0.013958692921951198
-0.03204608256479981 0.023573782830797585 0.002427280034468508
-0.030989029197720827 0.02425742729612086 -0.0020991212189382254
-0.032419413928371846 0.02302480112394835 0.002769721838297282
-0.03252888169053444 0.022802886895103274 0.00282274540833055
-0.02722496002934306 0.028138669183000224 0.01767415589043035
-0.03280807507011044 0.022738705039451065 0.003942368170936635
-0.029868852198451902 0.02716509797137395 0.0030942287528188377
-0.03188273930323984 0.024432496268427778 0.007104963539020671
-0.022144539061586394 0.03199326244132494 0.015083719897784297
-0.022547248013958958 0.03217775257134092 0.01330901372864097
-0.03259283201707764 0.023579359421760156 0.007144365973811509
-0.031971071333155 0.024147934818494584 0.007892907459572352
-0.030490875072502803 0.02606041156262374 0.009810995056663007
-0.03123962312694405 0.024755923228412732 0.00948513788409587
-0.0296905409771266 0.026792870437691647 0.010028423913723916
-0.03196498395458024 0.02406896923742468 0.008427195295579719
-0.03259047628206775 0.023477795430179235 0.007799476560893535
-0.029930964576574084 0.026570597542316735 0.010481070891845192
-0.03024495539914767 0.026307279980797106 0.010386237936143433
-0.031562699554329506 0.024390095049452876 0.009211811450228664
-0.031955580292989186 0.023602870425654295 0.001537745660807454
-0.029576603206641548 0.0269706958133617 0.010443821562690385
-0.03064837813446858 0.02598235142659186 0.010431174812559788
-0.01123688486611126 0.03654855684446588 0.0071226667396300045
-0.0101177261386035 0.03669794933799028 0.008167525678652476
-0.00921495037231426 0.036914209890368796 0.008996158354949319
-0.02929886026743586 0.02743752553126099 0.010726059396676407
-0.02962251759867353 0.02693886670893229 0.010903927633236832
-0.008201545690497063 0.03718101830514094 0.009974726527936916
-0.020520620644234253 0.02893413300431659 -0.012380270826070135
-0.03292176433637024 0.022577699898914252 0.00872264790470577
-0.02941294667646527 0.02726193761314808 0.011198134743320156
-0.02102953538773407 0.030514414020969768 -0.007858420634251614
-0.010785704379192854 0.036300581621377635 0.009792201295975475
-0.03056654015325129 0.02591416393150191 0.01120836865720331
-0.030747589596236607 0.02570721331498834 0.011280674353190481
-0.031102160502930333 0.025325425596981248 0.011447091903425886
-0.029628322991942107 0.026933185002492716 0.011149717288961315
-0.03012539922704975 0.026293619085070823 0.011445072011136344
-0.031789107190288685 0.024640117638216743 0.010823717273585443
-0.03262116438292974 0.023201587078195647 0.009203662170437641
-0.02912446185514775 0.0276346541476107 0.01182681812375943
-0.03134081608189511 0.024988360885696784 0.012117110783426184
-0.03091017995411973 0.023427519198538565 -0.003918644946761102
-0.010686748080686337 0.03667264441603616 0.007201234342987678
-0.017075086595519866 0.03181757331707228 0.02075203483356515
-0.03285972124216451 0.022309141165320318 0.00947327007086773
-0.029051273230510752 0.027569201749595294 0.012714575013150778
-0.03003560633960986 0.02631582423792597 0.01201076206491342
-0.031288104836387165 0.02499159003201491 0.012475988462135669
-0.008918236983541194 0.03682613729554702 0.0066594997680299445
-0.008695375412145802 0.037026551184252854 0.008711492107907145
-0.009834012490601967 0.03677552371349623 0.007845290683615065
-0.019816956567453362 0.03365410364388502 0.0030066719202395072
-0.00838559015158178 0.03710425656433976 0.009567016985273107
-0.007536884494275127 0.037272611224004146 0.009045700649298513
-0.00907380528769093 0.036960317103108084 0.008540562357082861
-0.03026715595836587 0.026021020941816977 0.012525908773635418
-0.008756787150356285 0.03687038402086207 0.007090501433993059
-0.03248530995060033 0.023563875064847285 0.010277900184782272
-0.007404864093055956 0.037289299233992136 0.00859855135627648
-0.0073079470328429805 0.03732157613006308 0.009678694033370324
-0.006932402500408058 0.037361553874027856 0.010069942727980412
-0.006993327459704732 0.03740719913485678 0.008824096674050437
-0.009344082190994791 0.03690560588612632 0.008314326527486178
-0.016238165704530155 0.031520938403045776 -0.010041523663338497
-0.008236230872749316 0.03710822764834071 0.008753289981136348
-0.007873425730277234 0.037218017724583254 0.009501951237167303
-0.03320460594128663 0.021464174768809175 0.009705001336753434
-0.009780369291590455 0.03677218918155245 0.008987137385984632
-0.00914322587050123 0.03686526618403803 0.007543978123658206
-0.011146805333576603 0.036543587114064635 0.006334325758041376
-0.008192816814511542 0.03702981222988129 0.0077748145618086505
-0.030783215060231416 0.02333699270291998 -0.004511357693954811
-0.008963643790733184 0.03695156838256767 0.009322419280525589
-0.00813319497909994 0.03711983823880555 0.008376605991322124
-0.029872739352096507 0.026471005903186372 0.012302868084130988
-0.030583851976386536 0.025591066427941327 0.012895810365128175
-0.018128258423168894 0.032633585374166114 -0.0035929895469444164
-0.0250677343642719 0.031106015221162606 0.007915421749837453
-0.03270138630418122 0.022946000747289218 0.010463096935353154
-0.032801758616539875 0.022657860869486044 0.01019600844842258
-0.03242755143584138 0.023505731699831216 0.011086975685162695
-0.03288911383955699 0.02218069139581454 0.010459433871292655
-0.033054169593809204 0.021534093245552402 0.010322503130594515
-0.03125820148935177 0.024679062606725394 0.01338696646420661
-0.01929806917637741 0.03224357695267462 -0.0035847588636911936
-0.0325711893294159 0.023181228588390487 0.010897882157206377
-0.030540492501191292 0.025365679930368243 0.013807058157948063
-0.027361118992092866 0.029613431590553387 0.002325436224308598
-0.03229325167868457 0.02341380949696364 0.011983171426037633
-0.03302495755050255 0.02152887519453239 0.010538536833904717
-0.006670418590345076 0.03628385134445003 0.01600898735096323
-0.030534964327083264 0.025381016598147045 0.014653870122760915
-0.030465752136890657 0.02609438220930199 0.008066376618580288
-0.008170626694629545 0.036685403624522404 0.013533773099678025
-0.032045969535287884 0.023542662603560287 0.012817748975339214
-0.03273953165347456 0.02220445014009352 0.01147456019154044
-0.032921027494893215 0.021759725907851163 0.011014753244856432
-0.03079318826052343 0.025063137199745105 0.014764375699824979
-0.029859165878582065 0.02628688761952917 0.014547512922572475
-0.031734757971394675 0.023799178360393972 0.01348525667067035
-0.0325754039645653 0.02286636323545096 0.011461055188433156
-0.03054013795226134 0.023428783612707647 -0.005267645971664384
-0.01775040572376333 0.03324663007657827 0.015750574303239322
-0.022429738374162036 0.030681287284399686 0.01896452705632633
-0.014559123878340678 0.03515893313491717 0.008140648287205968
-0.01676406739604617 0.029935171330356457 -0.014456060098874918
-0.031143871332732394 0.02513413517957387 0.012618997884435726
-0.0013462211392511307 0.034320907946930525 0.023587225712565957
-0.00158644620992638 0.034510136184277534 0.022904704475258508
-0.001509759198757683 0.034498284142038475 0.022967995899031545
-0.002859355168007979 0.03458867818105135 0.02222979933876089
-0.002181031764677476 0.03455989496600605 0.022561676264098964
-0.003170152520815829 0.03474996547213128 0.02166819212908555
-0.0019272855968433234 0.03486166624816091 0.02188043889577933
-0.0015077287005370844 0.035962973994498965 0.019465175244913334
-0.0022227745253860544 0.03494694293639442 0.02154790786893566
-0.02899875187467472 0.02791771563259574 0.006179273079416163
-0.0022343006861443066 0.03507272636708486 0.02126362629281189
-0.032525153935485863 0.022706169869206906 0.01208038896206122
-0.03316610506454083 0.020682815381117936 0.011517586368856934
-0.03264467508769367 0.02244116283934313 0.002326179901140398
-0.029426961712493118 0.027244974344381806 0.011909153798529646
-0.023228356339064622 0.03200920998721358 0.009528897766003025
-0.0030512369250575186 0.03557779045101955 0.019659280367007103
-0.03004147392573815 0.02586365262018364 0.015269088737653503
-0.03273805212220652 0.02189981701005949 0.012085231206570969
-0.032837436970692815 0.021611211024273512 0.011767383662431085
-0.002277549513084569 0.03602350974208878 0.01911712204798603
-0.002941300574233605 0.035389795896000664 0.02013527742733509
-0.007027641559173582 0.03430189604363591 0.02135085820830368
-0.031918354069012 0.02417483711179584 0.008060205701791265
-0.021523009944080018 0.03181003314572902 0.016185894581053205
-0.00192401333560848 0.03546992064379745 0.020481061172853664
-0.029884503317176146 0.025700512824795005 0.01623166875211678
-0.008732933210399554 0.03436880469459137 0.020510846180765575
-0.003274012769821623 0.03563068103882529 0.019450426422568133
-0.002034801520551454 0.035900038846288986 0.019392787632999665
-0.0015939787876223176 0.03612784804715123 0.01910439763622042
-0.003174062378424826 0.035821279249190444 0.019135450516184507
-0.003184771061801902 0.03582483885039638 0.019123323298344427
-0.0027262895643918386 0.035969675375428785 0.0190606342085874
-0.017157804916649713 0.03336257977098041 0.01605900915803348
-0.0327902394021949 0.02220804030156881 0.002657577519573017
-0.0024684352288293484 0.03522938302260228 0.020816862993510703
-0.029474825144047853 0.026570080064077767 0.015681814428210508
-0.01874107331375511 0.03306748199918186 -0.0010524444397122723
-0.03023480188511304 0.023693503768357826 -0.006213250163874248
-0.004549308028600646 0.03621332297698236 0.017217969881833908
-0.004049944515076655 0.0362224651164577 0.01754286314863083
-0.031167550495984693 0.024907610334501284 0.0003456770345488832
-0.029098084274736813 0.02765815155686891 0.008912106438326678
-0.026130783433662604 0.029038056462666297 0.01654208677580986
-0.016528935540100063 0.031061932037960188 -0.010519353083046171
-0.019637372663688493 0.033928912823202644 0.00552012820461152
-0.030249051239354032 0.023887122243401726 -0.005601303425569151
-0.0318970034435863 0.023694022361989926 0.0019121332444958566
-0.020110539222701198 0.033693763728085115 0.0050895072099901425
-0.029961053554496648 0.026271260364239227 0.013719375772508818
-0.021117655798400716 0.033335725033693954 0.005342530518303265
-0.031268521615748154 0.02561847523758714 0.004593787842613791
-0.02995222324971787 0.024281087013191635 -0.0058256640665444726
-0.03266320987661245 0.02334036237777513 0.008161301378391097
-0.006974229501612892 0.03522517018634053 0.019430913278226967
-0.03045720561958664 0.026092261693355517 0.00817381567272182
-0.029408774391288344 0.027354866786214814 0.007973541796453867
-0.018881646614770514 0.03259434666640561 -0.0028839415653911355
-0.02164039279634638 0.033147572902720135 0.004700990083308239
-0.022357974616216404 0.02866949825268348 -0.011856806091718523
-0.02527411866213975 0.03002790172053192 0.015194477347648313
-0.028967065454221286 0.02503198042744802 -0.007648181580680379
-0.0156818974066343 0.03363274267084107 -0.0027737031989256084
-0.030078327862990605 0.02382707744736491 -0.007293300392967628
-0.016739055820217702 0.034737489779627616 0.0070834338367677975
-0.017318862503641612 0.0345498800747183 0.006635956922817149
-0.025214788632163167 0.029477204238256588 -0.004191563009940049
-0.015467900786747845 0.034723798667955996 0.0015143607862586803
-0.030459027673446284 0.02512140284545422 -0.0012526069370207287
-0.017245107729560744 0.03276310761345351 -0.0066407572307901905
-0.029966810414321098 0.026314781864604963 0.012986601337745814
-0.016465595046476343 0.034854283059723976 0.007913964455712337
-0.02905502486481614 0.024669972738110883 -0.008602384181945824
-0.032449300605314355 0.023514412853653074 0.009419982260033589
-0.013048652298930985 0.035633653692282996 0.010129791437704018
-0.020029953944053974 0.0335031069063335 0.007589123468296789
-0.013988613074082687 0.03408408523899576 0.016021208087216084
-0.02162186604006289 0.028635161969721823 -0.013011079833679004
-0.021523054248544334 0.032578976412170335 -0.0002795988558871236
-0.029522405568418328 0.024455002911828796 -0.0073297451162254385
-0.02796828320405463 0.02748171077328149 0.017860807171560338
-0.016853289489379357 0.03447627988289445 0.0024372714212715523
-0.029622471699245274 0.024200637714607814 -0.008046858478151403
-0.006823662440668587 0.0371318726863697 0.012979791552653918
-0.006728714786514269 0.037078606927448646 0.013378635851158322
-0.018302181958397425 0.03427366513562064 0.007078178619756313
-0.029404813873817607 0.026176051947549663 0.016773043559115734
-0.029306232967864658 0.02471650639517988 -0.007266203421876819
-0.0295121371276863 0.024544791209942712 -0.006949715001416742
-0.01577891853075869 0.035030138309136434 0.006980350956580385
-0.03018265550967696 0.026180394449184463 0.011746883195703125
-0.03078046413579654 0.025548622650105712 0.012387341518377303
-0.029195941484743446 0.024788303443131692 -0.007579673591973867
-0.020415756686371474 0.03222187191391356 0.01671183788091519
-0.029564973899860337 0.026810419108840796 0.013666584623693589
-0.01310098332897873 0.034292671494586875 0.01621358272439323
-0.02226319223495664 0.031411634848840464 0.016050400192022803
-0.02390592112114594 0.03231690835265593 0.004677060972053492
-0.03186086592555194 0.024523229819941126 0.011361870818306162
-0.021339946472866373 0.03020890107130579 -0.008358556127292931
-0.013593149689997265 0.03543685524836537 0.010009217654279156
-0.02889765758999958 0.02554630166371519 -0.006582739566319157
-0.028056944765997273 0.028768364526145087 0.0027725299242271134
-0.029366739772327975 0.02763023838141913 0.0032781776674214785
-0.03173266557658969 0.024654443374648165 0.011477996187530544
-0.029719414782516457 0.02672951277161236 0.012057401871468917
-0.020693610183029433 0.03289658596731223 -0.0005217912770593931
-0.012465666748545537 0.035812520715529025 0.009336886285822563
-0.02897910563439587 0.025254802506334505 -0.0069783030932884845
-0.022840157132473542 0.03269312685468533 0.004451006143417671
-0.02896846693599423 0.027982766456729185 0.0037923137350646045
-0.016596395876805874 0.03480529314284462 0.0073840969893040195
-0.031671766276454905 0.024528279899331037 0.008038699403895901
-0.016791720307753187 0.03474974653691911 0.007737348196994334
-0.03195078156505682 0.023502813788029812 0.013163241257866228
-0.016146708705647536 0.03492095009331978 0.008071361421512931
-0.020205141868265573 0.0314437149013875 -0.004825162900765029
-0.007777365420109172 0.03386598342315329 0.021992277074597853
-0.030182132819171547 0.025876711793597032 0.01410890942882432
-0.020107961171869873 0.03164175828106133 -0.0043241069232892735
-0.019482408928907582 0.033822263424775886 0.007158077592657844
-0.014081802228339227 0.035249210033076676 0.010209293737348177
-0.00666239985654374 0.03469011487791132 0.02102901048686818
-0.013772591305374983 0.035371322630826006 0.008562488241238808
-0.01866987493950005 0.030235605620333617 -0.010595367094156836
-0.014837732479422334 0.033434529317890385 0.01761327195066774
-0.022516016504438015 0.03286316929574142 0.004823247393809953
-0.023944044441873015 0.032311658829114666 0.004793727118969564
-0.024267377470052046 0.03218323049298141 0.00437826150053332
-0.026644600315673346 0.030513966632644825 0.003376644059557115
-0.027938870950473753 0.028914336736731425 0.002964343188342688
-0.029203081850772312 0.02764926395987071 0.007416866408086487
-0.020362420693728046 0.031141589385492215 -0.005981869819526812
-0.02962952596103421 0.027359125774917323 0.004256517562087251
-0.017576968119075834 0.033171279836593695 0.016372413251786566
-0.01425292785568228 0.03522202409446948 0.009239052810144577
-0.027889255514751805 0.02638553793417913 -0.00820562462291892
-0.03209817827887376 0.02384147928370847 0.011993374003918679
-0.013260734042829568 0.035627659779156974 0.010787265862514935
-0.006857383695508323 0.03498987523555719 0.020362831960732696
-0.0141927825314497 0.03564120411065194 0.004985502588501235
-0.030863961392522964 0.02424755531897828 -0.0026170895426362163
-0.0300040468871639 0.02622935780236988 0.013564840817652548
-0.03224945387143408 0.023299684544254975 0.0024925128241389412
-0.032403052738928316 0.02366732016183793 0.009855611262239225
-0.029656922101885527 0.026290383745831227 0.01566899708564766
-0.015977491453300074 0.033538328054289655 -0.0028499402789790886
-0.015421541389780465 0.034994730567807976 0.008274515162087503
-0.018948403659826824 0.03027000931933848 -0.010129925800674544
-0.03193922082588712 0.02329619031104324 0.013362671994473219
-0.03216908084959834 0.022980113987100384 0.013066172417991101
-0.032070368852257086 0.0243137096235361 0.010769993179034449
-0.020676847705363318 0.02953870548363509 -0.010775407432687437
-0.027943953656683375 0.0265011634010419 -0.007605843223487186
-0.022110883834716846 0.0309048802350557 -0.003989175027590077
-0.020574139119682547 0.03235215922035958 -0.002339011831130219
-0.03146705329984179 0.02454112472053641 0.013140762970995333
-0.021394403151857193 0.0332804405556289 0.006138754773162778
-0.029064850983500472 0.02786455361604036 0.004782930182093444
-0.031706726786155846 0.024035265116943507 0.0020047526528495893
-0.02948430041024705 0.02603978977167705 0.01679304086484557
-0.031077450766279227 0.025215633401039553 0.009661354853649698
-0.02361954002305809 0.03245150346657115 0.004984782175006335
-0.030974593452065102 0.0249238204412862 0.013509620544461573
-0.023987934085200755 0.03016365225029282 0.017738949726205846
-0.029578059845810918 0.027388341105604445 0.004703456034631858
-0.01815727307545092 0.03045929912640553 -0.01039171605694461
-0.026566208926562043 0.03054808960436483 0.0035401214470674085
-0.02822838689490371 0.028717440621488975 0.0037149762385059433
-0.0277959146042409 0.029145546763722826 0.003301633770712818
-0.026446487329312596 0.03010317908113938 0.006413522757753252
-0.019991463371093858 0.029851909901273878 -0.010906834636272237
-0.026139963077838026 0.027262575701495994 -0.009620357290326028
-0.0292184758746648 0.027766816285010664 0.003720269540137208
-0.02060059327701806 0.03211534596554976 0.016985197004408512
-0.017168152547122322 0.034617825266204535 0.008114199083180186
-0.03185756034747443 0.02429172804063879 0.011895289168512247
-0.01661426821100466 0.034714656819798295 0.009220487766655636
-0.03132425413998927 0.02514544122537989 0.011078593099436644
-0.025622143367159067 0.02734384790950631 -0.01009488156925688
-0.011817231886414575 0.03604567682214116 0.009635459920303237
-0.011639505201196387 0.03608320707573069 0.009893679685468209
-0.013988813050756738 0.035308886575850976 0.010943876570785271
-0.012277020707700502 0.035906144850863034 0.010327227068037442
-0.030362276191343317 0.025586002036047734 0.014304291891977511
-0.014012729940583852 0.035586340255882656 0.0057174700642875125
-0.017068418473718882 0.03270428878532536 -0.00526694508424283
-0.01672338451437243 0.0345186203427215 0.009791968844979654
-0.029305165893365716 0.026308178031665744 0.01681014569774992
-0.01975192914482834 0.0324526801842158 0.016715405276668687
-0.018675210579133104 0.03439971984102154 0.004461965223798015
-0.0197901082566978 0.033781896620575846 0.006814178359135516
-0.023875064711519747 0.030514566580607753 0.017229766129032854
-0.015020443757090806 0.035274747989329475 0.0032329485449613263
-0.02252387959155854 0.03284261530431897 0.006644009849124851
-0.022427410391768744 0.0329251966591934 0.005792786520536433
-0.02615169362595065 0.030816162390684812 0.0039004823484976208
-0.018060521057518875 0.03384273687900697 0.01282750432380653
-0.017418086556759624 0.033377987120449586 -0.002103622665623924
-0.028722382694100063 0.028203345759730936 0.004208824876832784
-0.019411214769441465 0.03382901431039289 0.007246796428181343
-0.017680641341546226 0.03446818823765262 0.008583130027867163
-0.027707055809259695 0.027079331082456574 -0.006107081550825124
-0.01891573698242937 0.02947657489250029 -0.012258321149162772
-0.02910396315655228 0.026996134035146765 0.016236947801685726
-0.007912070172013851 0.03577177739048046 0.016664441531739124
-0.025500759901678303 0.027561020347346893 -0.00933381874869039
-0.03189456843229109 0.024440738427441346 0.010464482292590564
-0.024611734764959814 0.027527855291649386 -0.009916619777756226
-0.006434165119477838 0.03677609130977851 0.014137751127857343
-0.021685166627069402 0.0315413785556698 0.017066681194878704
-0.01784080791859802 0.03439756815388384 0.007165430201344947
-0.018913526051556447 0.03398752730784129 0.007430102491400305
-0.026806005026474154 0.027449543675087076 -0.007777401812552707
-0.013971959188475028 0.03339402279532417 0.018064962687912984
-0.021912855932527082 0.02878424259855625 -0.011915201388377495
-0.016314518156196382 0.03348025596135952 -0.002764877039530104
-0.019931185030571882 0.030750241140347502 -0.00790000821649821
-0.017778580105674707 0.032565006399301016 0.017824783308216026
-0.027255240696407838 0.029700977994980563 0.003689321418154057
-0.03216089547682588 0.023581553064949363 0.012338488296550303
-0.025229775647380236 0.03130724338792669 0.0048813100105129315
-0.02834535434147377 0.02854082764288578 0.00469673297105209
-0.019118500737048922 0.028865741062206556 -0.013793845638155897
-0.026455540752537473 0.029898737081215536 0.0077661759940631505
-0.017559405510897304 0.034497361587561365 0.009302713711491982
-0.013324371159948157 0.03555479503150239 0.011659804393577736
-0.013616365221934662 0.03543959942177804 0.011512922957421757
-0.02427122344816973 0.027801750487930914 -0.009626662024155113
-0.021469315170675206 0.031009433637817024 -0.0045894164644287964
-0.029733902239799773 0.026746621250451838 0.011874348252820598
-0.02328122396892676 0.03101165703300062 -0.0019962046488007064
-0.027162404884326405 0.02710049436129152 -0.008045213862112103
-0.007870125559219102 0.03694394787358368 0.012467101167812059
-0.02312323199808392 0.028619769407628625 -0.01002307849963838
-0.016948981421131278 0.032951689991532813 -0.0037104514060309363
-0.02060287268483705 0.033461380383486776 0.0068022708733421165
-0.025449781891079448 0.031152431811855317 0.006215453258948508
-0.019106211456526814 0.03309495678419016 -0.000265035645667125
-0.013467827936432138 0.03368666695681178 0.01776734107869036
-0.022920810777880288 0.03266807456144784 0.0067538656301506395
-0.022939817883059044 0.03270111024950439 0.006111099977754532
-0.018481524279466685 0.030513900721013208 -0.009717102174272801
-0.027014722432563903 0.030014074968964324 0.003718569711216063
-0.029754288756263132 0.02708088339182843 0.007340343818813617
-0.029211385777966677 0.027738011288567326 0.0052771660475470425
-0.026112964327672693 0.030186679815406132 0.01145283568405449
-0.0296717193444339 0.027287942491317073 0.005314303833086332
-0.021209566781320216 0.032902254590262886 0.008276126629176764
-0.022553674785938508 0.028734115252121193 -0.011206147270508823
-0.016976186833080897 0.03339502446342935 -0.0025042449904779536
-0.02702944955017218 0.03013235374448965 0.0022452259734220227
-0.017145106083578075 0.034596515939903184 0.009362457227256985
-0.02081358613391096 0.0302988629499351 -0.008394217421768805
-0.015334664867872827 0.034917123769013785 0.009784676322736727
-0.021739909081712954 0.03161136465232061 0.016505159170123136
-0.03216680133879222 0.0237655199040554 0.003255567045337421
-0.01614518410996671 0.03462937096300131 0.00985888616639388
-0.0187211949735353 0.033551603614966154 0.012757314583822989
-0.017806706931527156 0.0326692716185804 -0.003854936257494482
-0.013858470123782496 0.035295535227172145 0.011615332663123904
-0.027313273149065034 0.028495737954223714 -0.0023369963909702727
-0.018156603465207317 0.029959999770074804 -0.012338319425430793
-0.0068776576397568175 0.03616857613768651 0.016288050202236913
-0.013786021522093149 0.0345749932958098 0.014880778708808357
-0.021556829113436024 0.033095316269456554 0.007019254206228951
-0.008373892512915676 0.034648649802736756 0.020062745174754648
-0.006321437362732276 0.03701457988932814 0.01357901098898021
-0.02345053068289354 0.03242997324833836 0.006527408572939653
-0.026639579160337906 0.030091413958890503 0.00422239613266798
-0.02658218051113717 0.027946622935124864 -0.006670943994336985
-0.01851261290620264 0.03405570415724581 0.008474559327283466
-0.015416538005345296 0.034877224687595756 0.010385859745594993
-0.022077877770171294 0.03256285240442476 0.0024841299128865574
-0.01607649159982799 0.03462204593442744 0.010227231039280839
-0.01338833796281347 0.035397929834411916 0.012279032519201115
-0.022265128638079324 0.030517744930757585 -0.006740885209232361
-0.023837194342799177 0.032334061690483126 0.005196365230926134
-0.028721133328209972 0.02517485922637282 -0.008344732798042372
-0.029900218901741396 0.027110936011092154 0.004605783025413436
-0.02029471508274344 0.029973763395336816 -0.009862365259597414
-0.023497841660250627 0.03248948572365783 0.005099338493358571
-0.02156243376014207 0.03287466073948258 0.007642806899859208
-0.025789673122994305 0.030737155679239687 0.005177225594781965
-0.03155709549662025 0.02493799244238734 0.00369689934382027
-0.02396145812596273 0.02815587017989559 -0.009255104358029566
-0.023409563163818127 0.03217325273193405 0.008496899370074504
-0.022064391485299047 0.03305106950347049 0.005242507087329113
-0.023040031317890473 0.028982135156754678 -0.00871605850922874
-0.029255539809329774 0.027701762957353455 0.00649647157065165
-0.028839126954946143 0.026877638755311004 0.016993248944492854
-0.006555307337773742 0.03724418970222825 0.012340590024608255
-0.022808816971147356 0.029106289831713216 -0.008701954013266297
-0.027789781629204834 0.02852442550282342 -0.000355113386383794
-0.018595901915136985 0.034018219634911404 0.008796564060684006
-0.01948710706015672 0.03267133033072095 0.01621417862284773
-0.015881122366403516 0.034666344743587235 0.011454656041805069
-0.0060681598548506565 0.037149953874946726 0.013095935428413146
-0.01633985985273851 0.03221188858112999 0.020026534608864846
-0.02069012973365088 0.03134089387588387 0.01912851312435163
-0.01476967181231667 0.034922368565897643 0.01171677754793816
-0.0187812380875171 0.03387915230916498 0.009972771121280692
-0.03125598995574572 0.02405938030388187 -0.0012683337447245422
-0.028113095688404352 0.02842677112845873 0.0018998442965472793
-0.016184779251691234 0.03480102626547704 0.003105883784392857
-0.018675405657789947 0.03285866582773706 -0.002225366365244095
-0.02275632260003286 0.03247284138319794 0.00779552370284841
-0.019251577041729438 0.0301940724485496 -0.010039798360507148
-0.03180747343889326 0.023864468818125407 0.0006549953467949996
-0.023353630372593134 0.03232815387975127 0.00763986851868303
-0.023500784549137795 0.032357389408882 0.007099777761219735
-0.025689196782082903 0.028211878184309546 -0.007402477868729863
-0.025496389037226105 0.02812894697717864 -0.007848039358403893
-0.0195042023939958 0.0308985999287911 -0.007997387350658178
-0.029103072908097438 0.0268152836534444 0.016544074912287852
-0.0178577699668478 0.03407871602375271 0.010615165010680555
-0.018128821167053062 0.03407353626328859 0.010197895640046546
-0.016552855276808547 0.03298227145403392 -0.004379866737899956
-0.014951219202150461 0.03491070123456618 0.01151507311502817
-0.01612351712500033 0.03460309709465878 0.01056828479086407
-0.024210835393391958 0.028344758386775942 -0.008529166592690488
-0.013292227620894215 0.035243615278101534 0.013001710816025169
-0.008788861278156172 0.03513835227883726 0.017825048172267592
-0.014262652714091953 0.03492142276211031 0.01261433119251704
-0.02605735779591889 0.028155846064119812 -0.0069501023248176
-0.009440856317929775 0.035108365199522526 0.017246283352328983
-0.01802523440150484 0.03432852918435914 0.009020412747535005
-0.02654652647500802 0.02819147868927332 -0.006086865115608499
-0.02292938174097179 0.028725536474877633 -0.010014982061976698
-0.020888894302064656 0.031031697110220337 -0.006533251317765939
-0.022293169793720417 0.029870316254910115 -0.007754539670851924
-0.027819505057375803 0.028651183929041257 0.007016290862038194
-0.028342826303252574 0.025540548391322207 -0.008763098657212875
-0.026154274665835985 0.028247856537547453 -0.0065753241871975236
-0.02607368820972049 0.030160139621723616 0.009079447093588282
-0.026209927800384017 0.030061913564903717 0.00895386090193891
-0.0186294182290733 0.02989214628831797 -0.01173299160559263
-0.02477078770410853 0.02822012436691511 -0.008249558438362076
-0.01842200483197478 0.03245451815668086 -0.0039499838511115135
-0.018857697176538655 0.0307528978915158 -0.008892175267302033
-0.03273823339379527 0.02310549577788585 0.008481650803365208
-0.022842418002462686 0.03036942459767835 -0.005502355548930883
-0.008925927880985483 0.03694404150442792 0.01032729273608676
-0.01705490390185296 0.030232698292640397 -0.01254455978610641
-0.022310286013127005 0.030003910387818918 -0.007545564649833651
-0.017694673507661303 0.03341521515965107 -0.0010231512807726709
-0.026788418660452375 0.028067305247458447 -0.0053715317946285285
-0.00981085148418189 0.03465640836634719 0.01841233159209114
-0.02394706895551968 0.03209000429305252 0.007371337973284571
-0.024386090680058724 0.031889092038606466 0.006413990936753377
-0.026471675077593328 0.03007655911223784 0.0054923030747416335
-0.021291848560084946 0.030613001359247757 -0.007528842670606264
-0.024200816533929918 0.03200696172411009 0.005859457125190795
-0.022333215262320294 0.03291829600910652 0.004614450543969703
-0.02792530367995741 0.02864414220913014 0.0019216263337256808
-0.019387457555069054 0.03364062951609835 0.009617919797629439
-0.020436422989916367 0.029678299709566064 -0.01082888503305214
-0.027867829832073032 0.029005429097036472 0.0042977994883814895
-0.01910674163161519 0.0337608854060196 0.008759731061290913
-0.017626637248720885 0.03337709801033188 -0.0015147545451602879
-0.014595594340814463 0.035118235962548004 0.009391938068663282
-0.028111397246571274 0.028073378569517433 0.00018851971295205005
-0.016190250411402422 0.03331462351405903 -0.003547711914171158
-0.01589317602371907 0.03332983595079561 -0.003913771506059349
-0.029793601112004242 0.026710524225900735 0.0006782692207892084
-0.019095312310376568 0.033658825407813266 0.010339203876878814
-0.00648097764106815 0.03540502695598464 0.018954632590486575
-0.02183867140727959 0.03134527886124224 -0.0029921202998790157
-0.02128686064820078 0.03103199523109885 -0.005851454562890783
-0.02769974990349457 0.028376342810119488 0.0004370791630096077
-0.02849608131247145 0.028175727058202028 0.0068192592670584026
-0.024227458301580393 0.028458276925609507 -0.008251185979810923
-0.018474521114300976 0.033790264425535024 0.010687892103425491
-0.01654359856743685 0.030765242912910783 -0.011233066861836668
-0.017419823529518447 0.03424344444783998 0.010521998760095274
-0.021280936554259257 0.0332910155062505 0.005405749399232754
-0.02573882150712585 0.03089755565232468 0.005981170413605156
-0.016063942615442455 0.03463630501195992 0.011116998825177405
-0.023435371074953998 0.0289823862202315 -0.008050894422173547
-0.018433264163475366 0.029916824347983338 -0.011917564684061396
-0.01395279569653566 0.03504103546237745 0.012521855933601816
-0.03149431906779178 0.024172160202426043 -7.914869328197361e-05
-0.019372215828806272 0.03196475869782596 -0.0044720309396892085
-0.019748389508593076 0.031821079751007994 -0.004311413119771427
-0.026220901153979542 0.02853862059057081 -0.00560526647250909
-0.005321697385195695 0.03560255655968122 0.018768725563704527
-0.02214454016225908 0.028927589089514004 -0.010647401230429981
-0.027740406980172442 0.028735997068816556 0.0016122645220326623
-0.015404557405061138 0.03509920303532551 0.006540890360798116
-0.02173698317124234 0.030874853247895108 -0.00517763367337434
-0.019839197527263083 0.033511262185373536 0.0085572336886196
-0.01592564859683736 0.03383053955935361 -0.0019185567304717314
-0.017799414193451706 0.03332290910080643 -0.0014139461627791668
-0.0248090689454522 0.02882241603306724 -0.006719272957385606
-0.02440391643449134 0.028820464472700237 -0.007126379984918185
-0.023495260537712635 0.032216314777657504 0.007977697746860149
-0.023192182232240757 0.03224805583132054 0.008293935648315228
-0.02301296435592878 0.03220681169001362 0.00890059395877303
-0.024099964425286443 0.03202774890463856 0.007093443265861215
-0.02118330219567334 0.031024552646114638 -0.006305334110341418
-0.02121516733809843 0.02990119186231669 -0.009050488796891607
-0.017513727850200084 0.02974638352676165 -0.01321016415292575
-0.01922841773250959 0.033072990012393486 -0.00016743045750776723
-0.025915230434429178 0.02868153409421295 -0.005744069429775502
-0.027578153247200782 0.02870421940325201 0.0011396991874630716
-0.021416143939606926 0.02893940178633892 -0.01152013394555262
-0.018404784606559307 0.03379635659909848 0.010807427477162034
-0.017702444331090108 0.034117147778976536 0.010710504156752365
-0.028897953196531247 0.027504345822589652 0.0010122289423023449
-0.01965027151252708 0.033775811817272905 0.003266997114918792
-0.018959164113330134 0.03182895228101443 -0.0057073705512787195
-0.01773173981356219 0.031193844053413047 -0.009060690888555233
-0.017641520133880918 0.03164709530221939 -0.008548642961401676
-0.01718247727574755 0.0319591588763167 -0.008543793386486746
-0.017269310941295333 0.03311648272154059 -0.0029949808378997053
-0.015403274836903827 0.033640765195348366 -0.0029635334646857647
-0.023758143797377014 0.029247277736418033 -0.007011386141291175
-0.018890966434677116 0.032181122822542735 -0.004459649531185978
-0.01665494174245398 0.03444360395952628 0.011259389685587318
-0.02256815460904798 0.030397159527376035 -0.006512415016167783
-0.016956701524707272 0.031123399243725945 -0.009871570513122272
-0.007501236871337405 0.03533313852079714 0.018327673461264682
-0.022761530220217027 0.03008358156131831 -0.006870537502125505
-0.0246412607451591 0.03174611190685752 0.005551442035771801
-0.010557823367085207 0.035481698697576405 0.01546979633935203
-0.01902437990119072 0.02933167941723165 -0.012407449422631363
-0.016435198459090562 0.03291445059531074 -0.005649205281856275
-0.029495719533190773 0.027430290093819865 0.002736707257664915
-0.016644832332804345 0.03174918404187057 -0.009293635062491788
-0.019702976365992202 0.03298960051638575 -0.000773299395462426
-0.02320939819299462 0.032566504576856475 0.005943277673601177
-0.020027030797701927 0.03227671567562858 0.017102910934730098
-0.031055051308782604 0.025829399826286258 0.0058655316296325685
-0.017079671134354782 0.03116586919644661 -0.009704579180467608
-0.010226634229380343 0.03665362528452894 0.008258973056270812
-0.017470607140732848 0.03222219790181539 -0.007908839507024215
-0.01781006845090046 0.030789397431871292 -0.00975424795447518
-0.020557851640643193 0.028696585447178367 -0.013591562989127236
-0.016711070284768908 0.032238351969391524 -0.008506475240840802
-0.021217621826711868 0.029778452411743265 -0.009303511015655658
-0.017636173005559832 0.032124585853088056 -0.007886186894608002
-0.01835148170124041 0.02931140403854519 -0.013156091819526355
-0.018114172252861955 0.03199865225771026 -0.0075036057178711636
-0.030345191343951437 0.025897921644645532 0.012764307026772208
-0.020384706582338406 0.032300435301466576 0.016214500935294657
-0.016320392437203877 0.03464650059284723 0.0025276723417812516
-0.01772729072322553 0.03256425573646449 -0.004699525916893493
-0.014651963731436584 0.03531068311899977 0.002882786010824597
-0.018022073948222684 0.03217187442042843 -0.007255150704296267
-0.019144581696247883 0.03111092918359675 -0.007912972817689167
-0.01845741315577773 0.03205469569509237 -0.00648594506144822
-0.018608496015114127 0.03220808801612764 -0.004931844830538322
-0.01800754871303673 0.03226174126482552 -0.007024291257264491
-0.017778634209705588 0.032517578630913445 -0.006690401100431146
-0.018816962799092535 0.03137138660728746 -0.007763340027792807
-0.027379295718949127 0.02926354203103329 0.0015827993921968431
-0.029821221560869627 0.026249291610638083 0.014984332678307904
-0.01850429779291539 0.031980168280574116 -0.006798973511813493
-0.019276678460609376 0.03140661387026335 -0.0067925597876974985
-0.018723997540971964 0.03210439363527885 -0.005266659974481288
-0.01949618816936718 0.03169348192835197 -0.0051337635782528306
-0.019236166531380196 0.031655548849610596 -0.005714114749874849
-0.018365236012225193 0.032287795211699125 -0.005215248803576145
-0.01835500779879548 0.031400237964320205 -0.00825549933312246
-0.015259327663153981 0.0339331491130533 0.015880080540965357
-0.013890365914334266 0.03464353708204173 0.014662575906583571
-0.020179395737858423 0.03125570704869349 -0.0055147956539663735
-0.028723058883916526 0.027290296002958937 -0.0025037193735226856
-0.029260007497488447 0.027156414480961802 -0.0018855792411915865
-0.028446624960430517 0.027752519900422656 -0.0020218561833962177
-0.017340833889763447 0.033788409796529244 0.0005833397919653399
-0.02725845779270074 0.029684017620652453 0.00197959726834998
-0.028896102843659746 0.027252768515431208 -0.0022865704506062528
-0.029600295291587204 0.026800832629223073 -0.0015190177926274057
-0.029709012759872127 0.026507727855296846 -0.001622182631574611
-0.02719574300399404 0.029035237807693227 0.00038706893089659577
-0.01983542058218479 0.032895527604219585 -0.0016822743473217715
-0.012234421994578921 0.03591553897463356 0.008966200508925624
-0.030031561548147005 0.02643476030659845 0.009935663734162676
-0.025824357353664368 0.029310107164382867 -0.0032629633212889414
-0.018393601797954063 0.03331041582087218 -0.00024248303420772795
-0.02110595908224046 0.03290582898791784 0.008819026809888416
-0.025720725452898413 0.02913115913290986 -0.004102978837690788
-0.026440713149995916 0.029691700905997175 -0.0012106057310577384
-0.025423648072192176 0.02986223016950746 -0.0024599882105198444
-0.025985610406965776 0.030075992526965297 -0.0012439599928722065
-0.02477190187346183 0.029781575828065072 -0.0036412128222696213
-0.024604621762442325 0.030100935672389834 -0.0025841925451032437
-0.027557101205901595 0.02878023712618439 -0.0014042842896809656
-0.026537936670982983 0.02897606621585379 -0.0026705003320198935
-0.024937746999216717 0.03021956232504032 -0.002190011358965809
-0.020671862801558256 0.033190716458516886 0.008414840590901253
-0.022013607589631612 0.030280657803530883 -0.007524974109297633
-0.028884419265100995 0.028014310201365022 0.005594025405574203
-0.025235021589319513 0.0297799929556471 -0.002876230496014823
-0.02676093430831826 0.029226205013103954 -0.001872816286682281
-0.02922616151150234 0.024925517906526008 -0.00688800572274007
-0.026293614440237492 0.028727906689151605 -0.0039061496527098526
-0.021870761769680384 0.030122520180045586 -0.007930573897407967
-0.024549005324917033 0.03169048801416248 0.007133969951054036
-0.025582024771015906 0.030509312309559646 -0.0008617788903236841
-0.024469302310566488 0.030474390845278414 -0.001979976834871139
-0.030044669652874348 0.0264396030318797 0.011127530707489768
-0.02491223994645185 0.030664669931591757 -0.0013497857236797416
-0.02565244542658467 0.02899482841565172 -0.0050920985951614876
-0.027287844224328506 0.029289126647277328 0.005534983716162281
-0.02480395518824021 0.030571897911538415 -0.001624508767689466
-0.025630021837540748 0.029499803284769685 -0.003005878949573762
-0.01719231740948585 0.032794359624159136 -0.006263230990988722
-0.025850353122581632 0.029779803774418023 -0.0021993975542844947
-0.025275073052843575 0.030398946912564444 -0.0016583870747787148
-0.026329728795494604 0.02930811583940896 -0.002403238344194903
-0.02533980476311864 0.03054475072046279 -0.0012276387409436782
-0.026621076545099983 0.02852500908059933 -0.0035517071077831265
-0.026288858691326276 0.028652553644343708 -0.004149933503641845
-0.026441110354218606 0.029482533178571184 -0.0019158055411444426
-0.028787054305566315 0.025369577184091035 -0.007410410567705168
-0.026281605098530315 0.029774775405302933 -0.0015135941887296418
-0.02449553421198547 0.030966681240133867 -0.0008903910371515352
-0.026786251367998233 0.028209117354489513 -0.004071260417012847
-0.029939100802026865 0.026799162426704447 0.007624057121483275
-0.027268437496906384 0.028921589748574908 -0.00022173645264058774
-0.017138483373346718 0.029845835933809607 -0.013524212522852155
-0.02696939664339991 0.02791391197535881 -0.004631572741647586
-0.02713096915095959 0.028107335288637566 -0.0036012070431983715
-0.027500341077570222 0.02888287235594371 -0.0012844961751955484
-0.021929296917117425 0.030862536610722354 -0.00611408589132202
-0.016479206801909733 0.03325223178666771 -0.0033048592937213674
-0.02776672859384166 0.02779805923439193 -0.003236214693879831
-0.027284745446235215 0.029078495238940915 -0.0007721213419465266
-0.020224700684891288 0.033290152472783295 0.010070715327116996
-0.023671085065319633 0.029576185394436568 -0.006469082632731134
-0.018979694568864565 0.03358638833251168 0.0017905340417896836
-0.02045034197161234 0.033206344595970876 0.009708195757691655
-0.03151072323797609 0.02400196055652908 0.013843676392011992
-0.02039668630945267 0.033493380232506864 0.006962306760226533
-0.02566242581155701 0.029019584138602086 -0.004865511065726304
-0.031319420590537765 0.024859393513540006 0.010012901621132745
-0.031555831536163384 0.024663498931606936 0.008315580734237462
-0.019991624415228136 0.03291324176253646 -0.0015559583675233998
-0.01642787048510022 0.034389367889654035 0.001973445243113838
-0.022319619841951514 0.029074136246608116 -0.009537407281064154
-0.027091101341280233 0.029105454129030085 -0.00011637984013311858
-0.013003739747352458 0.03596085938583738 0.007456020704311506
-0.025265281536102142 0.029105889571260028 -0.00550884942244448
-0.026736783346333108 0.030472075513676655 0.0025400986884080313
-0.018305296132956887 0.029260694964893516 -0.013257683602993574
-0.027016069934274127 0.029867053022884595 0.0013655838229431198
-0.023920102845329222 0.030035540535202396 -0.004957538355823177
0.006597650050170165 -0.029480665913645746 -0.028255645194287523
0.014360383413291808 -0.02389309989142669 -0.03096613827853631
0.0030068025243747704 -0.027491614206520548 -0.030692457247864645
0.031459343133460924 -0.005996885068984465 -0.019163305589416722
0.03142674814915558 -0.007920751966794197 -0.01652434941061643
0.007255296974109852 -0.028225643686525914 -0.029989237632686606
0.001354246872986601 -0.03796996676818663 0.0021116996626397416
0.006551259009563041 -0.02966632890877558 -0.0279918840999736
0.00436384807148575 -0.023316633108511627 -0.03725428651774888
0.030715755138113494 -0.008901169596977223 -0.016814837138840348
0.005965832555791181 -0.027122148364986942 -0.031895375143114045
0.0049622952659935495 -0.02512713797251155 -0.03352344320031426
-0.03258545415350293 -0.01750316279629699 -0.011152613599782259
0.0036707431946080282 -0.024102526384205528 -0.03607640934914719
0.007242735360175284 -0.029307290011476854 -0.028349701163700114
-0.02072858638043266 -0.012690892052323108 -0.03707364218287214
0.004675968292868838 -0.02325605475492772 -0.03716926986666593
0.0039035042202869674 -0.027998497409393898 -0.030264857575477963
0.004615242175324869 -0.028286524117650914 -0.030124862107224745
0.027396977923265148 -0.011570830990932075 -0.022436132838419613
0.005502946635522023 -0.028148984812201055 -0.03048109944310176
-0.031224802305843055 -0.01869484415920631 -0.013003432473966486
0.02399105416296302 -0.014677520864756308 -0.02587733156352389
0.025903786281888462 -0.011911506690294504 -0.025313579191379002
0.02790368179796072 -0.0105628004621566 -0.022729644456584427
0.004438019952819384 -0.027870996206375197 -0.030666221332014798
-0.013582223046539953 -0.0258799162431564 -0.023313044669957247
-0.015310738719861664 -0.014407381801426405 -0.04013085168817488
0.007786390270555977 -0.02920674924175618 -0.028211928978945987
-0.004377269651495 -0.019300734694573392 -0.039255887245540556
0.032229266990526834 -0.014815139581553392 0.0010083258788369878
0.03214986060435901 -0.014977993330959439 0.0008465361746883747
-0.010151767434174432 -0.035176880812649226 -0.00019641542304306338
0.005013973267442092 -0.023423532425843815 -0.036628497732300536
-0.01491019987471261 -0.0338970924564086 0.005536727042006449
0.003911430654183545 -0.024068393786712883 -0.035730988857467574
0.017736437895051846 -0.022709009391483587 -0.027304123549986875
-0.014419831524619415 -0.029457650722516535 -0.017135363234070326
0.03239580323843187 -0.012162577948377887 0.012246118167856132
-0.0072152325477288755 -0.034510012278649395 -0.008432502679597864
0.03160679193660133 -0.013183203530816243 -0.007375510090394513
0.003827556510431297 -0.027497699887661785 -0.031059100771988136
0.029814006079892957 -0.017536437506242536 0.013941133547346045
-0.02241241551074467 -0.02993687142713792 -0.000834594531586423
0.005687361384727523 -0.027229193389477352 -0.03172229988790753
0.005017800367320845 -0.02367169919886563 -0.03609991794139539
0.0035240249556526934 -0.02764568326077213 -0.03065258810669079
0.02135793817894095 -0.020687620224145036 -0.023152244505851224
0.032846605809694854 -0.013199740955172947 0.007387772964034917
0.029654236081675264 -0.011901734586776569 -0.016383804572156692
0.004461004539714485 -0.027391652007382358 -0.03140272129517706
0.005275259571486335 -0.0254240512786882 -0.03344312242153095
0.006327874462626164 -0.027307205804486076 -0.0315795708689178
-0.025753079180016656 -0.02710558855411298 -0.009000090103309226
-0.0029164937546367386 -0.03768738017987129 0.005363034938390901
-0.003229673885109392 -0.03652474350323129 -0.0008936704985422791
0.026170204929675422 -0.025855372342251694 0.004954487049992138
-0.0009927450164333663 -0.03799341161189441 0.006985239996334004
0.030769021590352157 -0.014917677963530395 -0.007915132133019146
-0.0012701383204748876 -0.03796190449515037 0.006625684706789911
-0.02040774020748727 -0.014098494015255559 -0.03605309372340709
0.02806932296070384 -0.022533954952869906 0.00101112359720214
-0.02962931366542899 -0.02051626478801123 -0.014486269854522298
0.028910235289956072 -0.014629707457496723 -0.01401250379346333
-0.02167026502967896 -0.030389588298191716 -0.003299448495864111
-0.001503891688754196 -0.03680629236156494 -0.0005142333527048204
0.032436110829113095 -0.013785713440468533 0.008647820184684588
-0.025602354218394727 -0.0150911381349072 -0.027170567624227676
0.03066978947585551 -0.010025882418074332 -0.015454635341475825
-0.016510566155562838 -0.03308933641398536 0.007920278730025434
-0.00912343162709787 -0.03459298330927048 -0.005123489392518461
-0.017857105592364243 -0.03291221247556148 0.004184993665432563
-0.021552123433364847 -0.027904219349864066 -0.014462796207409104
-0.01663281771239492 -0.03169332465468837 -0.009211245768925095
0.030607598567077236 -0.018181202830260826 0.0026733249220609358
0.001592014084034939 -0.02414205786545765 -0.035902412416937146
-0.01901882000301619 -0.028904765307126865 -0.015503181586952179
0.004005266092872751 -0.02722093881567212 -0.03142766240459715
0.022121935229202784 -0.030208404122463284 -0.003603969589611458
-0.012846007543415926 -0.03467992440173432 0.006802365876665004
0.005102704920917011 -0.027195350289491528 -0.03179831634098109
0.024375887109449094 -0.025765320987619883 0.01594948233983608
-0.01683420898346462 -0.03218476430103398 -0.005336084974338618
0.005722758158596539 -0.026486034406482704 -0.032592609845693246
0.0031019841322610974 -0.0385074621458973 0.006590199084860438
0.01946675684746969 -0.02119342825825874 -0.026197843728532864
-0.01772040504397205 -0.03276858071786654 0.007081662184761911
